NCOLS 41
NROWS 41
XLLCORNER 371745.66
YLLCORNER 4053456.8
CELLSIZE 10
NODATA_VALUE -9999
3369.487 3369.957 3369.875 3368.015 3367.254 3366.8 3365.961 3364.286 3354.582 3348.151 3341.789 3333.973 3325.601 3308.281 3300.467 3294.465 3289.262 3283.989 3271.863 3265.797 3258.566 3249.969 3240.691 3221.187 3210.715 3201.645 3194.118 3180.122 3171.829 3164.006 3155.333 3146.192 3123.565 3115.603 3107.029 3098.658 3090.369 3073.202 3064.139 3056.848 3049.343 
3368.929 3369.122 3368.89 3369.217 3369.091 3368.796 3367.662 3365.641 3356.498 3348.804 3341.734 3334.105 3325.894 3308.466 3300.602 3294.434 3288.875 3283.243 3271.093 3264.871 3257.5 3249.495 3241.045 3222.898 3213.721 3205.211 3197.48 3182.929 3174.906 3167.572 3159.237 3150.14 3128.248 3117.893 3108.62 3099.9 3091.287 3074.232 3066.118 3058.168 3049.932 
3367.697 3367.863 3367.788 3367.073 3366.543 3366.697 3366.211 3364.991 3356.256 3348.391 3340.72 3332.802 3324.659 3307.573 3300.02 3293.706 3287.912 3282.206 3270.015 3263.775 3256.302 3248.316 3231.869 3223.763 3215.327 3207.515 3199.698 3183.41 3175.497 3168.202 3160.033 3150.81 3128.749 3118.067 3108.731 3099.884 3091.065 3074.539 3066.801 3059.05 3051.091 
3366.408 3366.509 3366.422 3365.489 3364.957 3364.648 3364.085 3363.207 3352.904 3345.3 3337.825 3330.254 3322.267 3305.208 3298.518 3292.437 3286.593 3280.794 3268.678 3262.577 3254.862 3246.585 3230.887 3223.557 3215.449 3207.753 3199.861 3182.539 3174.258 3166.798 3158.169 3148.86 3126.312 3115.792 3106.629 3097.914 3089.485 3073.718 3066.325 3058.962 3051.368 
3364.818 3365.116 3365.188 3364.28 3363.703 3363.344 3362.647 3359.557 3346.432 3339.821 3333.281 3326.63 3318.797 3301.354 3295.87 3290.528 3284.884 3272.928 3266.966 3260.548 3252.505 3244.056 3229.148 3222.244 3214.13 3206.389 3198.295 3180.539 3171.681 3163.137 3153.523 3143.456 3121.357 3111.384 3102.749 3094.602 3086.741 3072.076 3064.944 3057.964 3050.926 
3363.26 3363.556 3363.608 3363.052 3362.422 3361.497 3358.106 3352.53 3340.097 3334.348 3328.659 3321.962 3313.654 3298.76 3293.421 3288.135 3282.643 3270.763 3264.811 3257.413 3249.208 3241.025 3226.423 3219.087 3211.215 3203.198 3194.799 3176.398 3167.177 3156.671 3145.896 3135.028 3114.811 3105.409 3098.2 3090.992 3083.386 3070.054 3063.439 3056.846 3050.224 
3361.321 3361.542 3361.49 3360.646 3358.03 3354.185 3349.759 3344.901 3334.413 3328.937 3323.631 3316.574 3300.57 3295.486 3290.535 3285.638 3280.185 3268.311 3262.227 3253.938 3245.287 3237.188 3222.392 3214.98 3207.654 3199.152 3190.237 3169.483 3157.917 3145.89 3134.027 3124.41 3107.91 3100.582 3095.033 3088.714 3081.733 3068.752 3062.064 3055.935 3049.638 
3356.261 3356.369 3355.891 3352.713 3349.859 3346.355 3342.474 3337.918 3327.932 3322.756 3316.326 3308.941 3296.846 3292.177 3287.393 3282.667 3277.222 3265.567 3258.539 3249.585 3240.646 3232.473 3217.383 3210.262 3202.573 3193.373 3183.242 3158.43 3144.972 3129.722 3120.341 3117.803 3106.288 3099.845 3094.615 3088.837 3076.086 3069.398 3062.548 3056.261 3049.764 
3350.467 3350.109 3349.232 3345.621 3342.648 3338.797 3334.35 3325.052 3320.378 3314.656 3308.05 3301.977 3292.914 3288.557 3284.025 3278.828 3273.206 3261.708 3253.106 3244.047 3235.359 3227.08 3211.67 3204.678 3195.307 3183.949 3172.496 3149.052 3140.217 3131.375 3125.832 3123.209 3109.798 3101.918 3095.734 3090.142 3077.989 3071.263 3064.389 3057.62 3050.737 
3345.91 3345.24 3344.006 3339.401 3335.118 3330.521 3325.979 3316.708 3311.613 3305.89 3300.526 3296.29 3288.639 3284.81 3280.066 3274.447 3269.037 3255.518 3245.936 3237.158 3229.158 3220.739 3204.501 3196.078 3186.464 3172.966 3161.773 3153.512 3148.825 3144.974 3141.1 3124.028 3113.942 3104.176 3097.235 3091.991 3080.598 3073.318 3065.861 3058.755 3050.737 
3341.512 3340.283 3334.384 3330.711 3326.719 3322.316 3317.762 3308.534 3303.885 3299.243 3295.264 3291.604 3284.183 3280.058 3274.83 3269.401 3263.813 3247.241 3238.129 3229.562 3220.755 3211.5 3198.413 3190.068 3182.934 3176.002 3170.266 3163.357 3158.046 3152.057 3146.894 3127.981 3117.44 3107.233 3099.977 3094.635 3082.707 3075.01 3065.861 3058.755 3051.885 
3333.657 3331.456 3325.362 3321.906 3318.069 3313.778 3309.43 3301.068 3297.383 3293.868 3290.365 3286.741 3278.815 3274.056 3269.13 3263.899 3256.934 3239.181 3229.834 3222.416 3211.895 3202.051 3196.711 3192.152 3188.299 3185.917 3182.877 3169.179 3162.114 3154.674 3148.008 3130.614 3120.581 3111.393 3104.761 3098.858 3082.707 3075.01 3067.12 3059.778 3052.912 
3324.776 3322.57 3316.13 3312.175 3308.294 3304.798 3301.442 3294.807 3291.51 3288.139 3284.917 3281.534 3272.754 3268.041 3263.508 3257.349 3249.382 3234.153 3223.925 3218.466 3212.805 3206.625 3201.729 3199.581 3195.34 3190.235 3180.096 3170.839 3162.764 3154.931 3147.905 3131.16 3122.024 3114.195 3104.761 3098.858 3083.861 3075.765 3067.584 3060.178 3053.509 
3316.062 3312.948 3306.256 3302.953 3299.89 3297.282 3294.697 3288.633 3285.398 3282.458 3279.623 3276.092 3266.726 3262.482 3258.811 3251.867 3243.691 3233.617 3226.525 3223.161 3221.585 3218.145 3208.092 3204.199 3198.21 3190.672 3177.165 3168.476 3160.717 3153.517 3146.856 3129.687 3122.024 3114.195 3107.994 3101.496 3083.719 3075.695 3067.653 3060.312 3053.868 
3306.766 3303.794 3298.694 3296.374 3293.911 3291.277 3288.403 3282.729 3280.149 3277.889 3275.067 3271.085 3262.033 3258.64 3255.316 3249.648 3243.83 3237.559 3233.108 3229.202 3226.166 3216.947 3209.548 3203.721 3196.55 3188.56 3172.681 3164.061 3157.395 3151.155 3146.856 3129.687 3121.039 3113.731 3108.111 3101.962 3082.594 3075.144 3067.547 3060.334 3054.063 
3299.268 3297.215 3292.993 3290.626 3288.01 3285.267 3282.673 3278.472 3276.626 3274.379 3271.265 3267.422 3259.672 3256.453 3253.273 3249.998 3247.039 3241.818 3236.451 3230.267 3225.674 3215.362 3207.782 3200.579 3192.417 3184.09 3168.08 3160.976 3154.536 3151.155 3144.405 3126.325 3118.145 3110.933 3104.943 3098.59 3081.954 3074.707 3067.309 3060.409 3054.314 
3293.49 3291.434 3287.157 3284.858 3282.589 3280.44 3278.621 3275.394 3273.484 3271.153 3268.363 3265.147 3258.028 3254.834 3251.86 3249.2 3244.266 3241.084 3235.011 3228.699 3223.613 3211.324 3204.286 3195.922 3187.059 3178.927 3163.583 3160.976 3154.536 3148.396 3141.55 3122.901 3115.664 3107.053 3100.301 3094.935 3080.561 3074.435 3067.323 3060.481 3054.704 
3287.623 3285.522 3281.802 3280.048 3278.51 3277.025 3275.517 3272.363 3270.539 3268.566 3266.22 3263.345 3256.279 3252.79 3249.679 3246.874 3241.43 3236.652 3230.962 3225.484 3219.641 3206.408 3198.894 3190.071 3181.695 3178.927 3163.583 3157.711 3151.755 3145.593 3138.687 3122.333 3114.822 3106.889 3100.181 3094.439 3081.917 3075.684 3068.875 3062.271 3049.921 
3282.154 3280.45 3277.638 3276.374 3275.038 3273.646 3272.271 3269.382 3267.817 3266.117 3264.266 3257.708 3253.806 3250.185 3247.054 3244.388 3236.47 3231.309 3226.264 3220.351 3213.627 3199.922 3191.972 3190.071 3181.695 3174.215 3160.354 3154.617 3148.811 3142.621 3135.907 3121.886 3114.844 3107.695 3101.377 3095.691 3084.228 3078.209 3071.788 3065.365 3051.941 
3277.696 3276.427 3273.842 3272.587 3271.344 3270.149 3268.975 3266.378 3264.983 3263.637 3261.486 3254.137 3250.386 3247.093 3244.438 3240.806 3230.397 3225.563 3220.084 3213.679 3206.893 3199.922 3191.972 3183.88 3176.593 3169.805 3157.185 3151.623 3146.102 3140 3133.307 3120.216 3114.128 3107.983 3102.294 3091.445 3086.181 3080.921 3074.522 3067.791 3054.171 
3273.488 3272.257 3269.851 3268.78 3267.734 3266.654 3264.468 3263.397 3261.63 3259.532 3256.773 3249.822 3246.49 3243.367 3239.499 3234.534 3224.112 3218.49 3212.445 3213.679 3206.893 3192.508 3184.616 3177.962 3171.762 3165.376 3153.8 3148.438 3143.19 3137.155 3130.372 3118.382 3113.011 3107.969 3103.029 3092.498 3087.481 3082.723 3076.539 3069.635 3056.228 
3269.032 3267.979 3265.961 3265.024 3264.088 3263.035 3260.422 3258.958 3256.886 3254.242 3251.364 3245.339 3241.904 3237.811 3232.868 3227.711 3216.744 3210.796 3212.445 3206.277 3199.792 3185.532 3178.977 3173.072 3167.055 3161.062 3150.128 3144.863 3139.344 3133.438 3121.423 3116.547 3111.625 3107.329 3103.029 3092.966 3087.967 3083.719 3077.959 3070.849 3057.655 
3264.606 3262.8 3261.8 3260.794 3259.77 3258.637 3255.636 3253.783 3251.656 3249.213 3246.617 3240.412 3236.328 3231.664 3226.761 3221.179 3216.744 3210.796 3204.729 3198.645 3192.23 3179.458 3173.874 3168.416 3162.805 3157.186 3146.405 3140.999 3135.373 3129.664 3119.064 3114.547 3110.182 3106.196 3102.034 3092.455 3088.178 3084.366 3078.747 3071.517 3058.767 
3260.069 3258.383 3257.334 3256.299 3255.19 3253.867 3250.7 3248.963 3246.849 3244.581 3241.948 3234.994 3230.66 3226.156 3226.761 3221.179 3208.576 3202.984 3197.4 3191.413 3185.206 3174.079 3168.724 3163.368 3158.145 3147.772 3142.578 3137.105 3131.491 3125.856 3115.818 3111.394 3107.75 3104.372 3100.585 3091.279 3087.299 3083.677 3078.333 3071.435 3059.581 
3255.462 3253.876 3252.899 3251.821 3250.67 3249.327 3246.173 3244.381 3242.353 3239.926 3236.942 3229.644 3230.66 3226.156 3220.942 3214.248 3200.652 3195.909 3190.556 3184.697 3179.195 3168.911 3163.596 3158.519 3153.539 3143.449 3138.338 3133.013 3127.579 3122.094 3111.741 3107.517 3104.345 3101.31 3097.763 3089.558 3086.168 3082.622 3077.121 3070.634 3059.637 
3250.919 3249.526 3248.578 3247.486 3246.303 3245.065 3241.795 3239.826 3237.626 3234.998 3236.942 3229.644 3225.626 3220.907 3215.17 3208.373 3195.7 3189.952 3184.275 3179.094 3169.035 3163.92 3158.924 3153.978 3148.976 3138.902 3133.953 3128.961 3123.829 3118.174 3106.154 3102.226 3099.63 3097.012 3093.735 3087.237 3084.184 3080.182 3074.72 3068.931 3058.734 
3246.418 3245.179 3244.287 3243.126 3242.012 3240.893 3237.579 3235.402 3237.626 3234.998 3231.95 3225.024 3220.825 3215.943 3210.28 3204.106 3192.048 3185.746 3179.823 3174.484 3164.175 3159.212 3154.341 3149.425 3144.401 3134.543 3129.604 3124.679 3119.602 3113.948 3101.075 3098.244 3095.707 3092.786 3089.75 3084.239 3080.915 3076.496 3071.49 3066.536 3057.168 
3242.133 3241.412 3240.728 3239.741 3238.604 3237.275 3233.329 3235.402 3232.891 3230.146 3227.291 3220.692 3216.28 3211.389 3206.164 3194.673 3188.654 3182.624 3176.575 3170.432 3159.513 3154.813 3149.847 3144.836 3139.919 3130.189 3125.25 3120.472 3115.634 3110.289 3099.651 3095.751 3092.235 3088.768 3085.512 3080.332 3076.635 3072.103 3067.647 3063.601 3055.369 
3239.542 3238.654 3237.811 3236.803 3235.555 3237.275 3233.329 3230.775 3228.314 3225.841 3223.017 3215.876 3211.675 3207.347 3202.587 3191.156 3185.592 3179.685 3173.388 3166.769 3155.711 3150.546 3145.381 3140.491 3135.692 3125.95 3121.114 3116.551 3111.935 3107.165 3097.877 3093.548 3089.291 3085.02 3081.39 3075.722 3072.046 3067.903 3063.743 3056.717 3052.999 
3237.5 3236.149 3235.174 3236.803 3235.555 3233.845 3228.957 3226.4 3224.111 3221.543 3214.99 3211.268 3207.545 3203.432 3198.404 3187.383 3182.176 3176.461 3170.269 3164.093 3152.799 3147.049 3141.41 3136.488 3131.675 3121.752 3117.327 3112.839 3108.422 3104.06 3095.457 3091.145 3086.826 3082.888 3079.164 3071.93 3067.982 3063.93 3060.412 3053.841 3050.372 
3235.525 3236.149 3235.174 3233.929 3232.227 3230.247 3226.04 3223.446 3220.044 3216.707 3210.235 3206.859 3203.518 3198.99 3193.54 3183.038 3177.927 3172.54 3167.184 3161.673 3150.128 3144.387 3139 3133.496 3127.814 3117.995 3113.668 3109.186 3104.765 3100.717 3092.624 3088.469 3084.319 3080.492 3073.106 3069.142 3064.934 3060.952 3057.445 3050.914 3047.765 
3235.525 3233.518 3232.291 3230.838 3229.255 3225.907 3223.937 3220.914 3216.725 3212.495 3205.758 3202.328 3198.145 3193.383 3188.396 3178.702 3173.939 3168.907 3163.815 3158.65 3147.481 3141.987 3136.831 3131.327 3125.292 3115.129 3109.963 3105.205 3101.384 3097.809 3089.657 3085.618 3081.808 3078.149 3070.722 3066.968 3063.099 3059.056 3055.069 3047.674 3044.612 
3233.265 3230.897 3229.628 3228.323 3227.005 3224.034 3222.231 3217.414 3211.747 3207.175 3200.828 3196.763 3192.44 3188.093 3183.577 3174.648 3170.088 3165.444 3160.649 3155.578 3145.016 3139.886 3134.924 3129.644 3124.17 3113.561 3107.115 3101.936 3098.303 3094.966 3086.519 3082.5 3079.027 3075.666 3068.377 3064.788 3061.081 3057.085 3052.836 3044.337 3040.964 
3229.787 3228.748 3227.72 3226.6 3225.282 3222.108 3218.084 3212.289 3205.982 3201.365 3194.754 3190.877 3186.825 3182.816 3178.946 3170.746 3166.657 3162.289 3157.645 3152.751 3142.761 3137.965 3133.134 3128.262 3123.328 3112.384 3106.177 3100.955 3096.981 3088.484 3083.714 3080.032 3076.827 3073.406 3066.059 3062.38 3058.588 3054.687 3050.623 3042.133 3038.267 
3228.11 3227.253 3226.199 3225.046 3223.862 3218.89 3213.569 3207.591 3201.759 3196.867 3189.114 3185.164 3181.373 3177.921 3174.464 3166.892 3162.984 3158.99 3154.631 3149.981 3140.711 3136.072 3131.503 3127.016 3122.368 3111.551 3105.987 3100.997 3096.577 3087.343 3082.563 3078.812 3075.473 3071.641 3063.589 3060.03 3056.438 3052.676 3048.68 3040.579 3036.291 
3226.667 3225.747 3224.746 3223.712 3222.21 3214.316 3209.105 3203.697 3198.147 3192.697 3183.725 3180.016 3176.737 3173.532 3170.193 3163.237 3159.543 3155.68 3151.527 3147.311 3138.814 3134.281 3129.77 3125.364 3115.947 3110.772 3105.692 3100.881 3096.302 3086.833 3082.191 3078.302 3074.615 3070.372 3061.486 3058.167 3054.692 3050.86 3046.784 3039.159 3035.563 
3225.057 3224.212 3223.223 3221.872 3218.95 3209.673 3205.149 3199.835 3193.317 3187.06 3178.766 3175.479 3172.335 3169.232 3166.086 3159.54 3156.247 3152.444 3148.579 3144.822 3136.719 3132.36 3127.974 3123.593 3114.654 3109.887 3105.139 3100.466 3095.9 3086.376 3081.898 3077.844 3073.851 3069.548 3060.672 3057.296 3053.951 3050.495 3046.761 3040.119 3037.541 
3223.449 3222.664 3220.875 3217.515 3213.333 3205.072 3200.425 3194.203 3187.09 3181.292 3174.283 3170.911 3167.7 3164.706 3161.925 3156.306 3153.11 3149.681 3146.091 3138.678 3134.718 3130.494 3126.237 3121.984 3113.409 3108.992 3104.52 3099.921 3095.3 3085.805 3081.328 3077.187 3073.258 3069.427 3061.293 3058.245 3055.494 3052.729 3049.608 3043.343 3040.867 
3221.625 3218.835 3215.479 3211.739 3207.865 3199.779 3194.097 3187.736 3181.952 3177.417 3169.636 3166.076 3162.996 3160.514 3158.34 3153.147 3150.137 3147.063 3143.778 3136.434 3132.555 3128.663 3124.619 3120.53 3112.442 3108.461 3104.071 3099.739 3095.455 3086.32 3081.454 3077.749 3074.616 3071.37 3063.99 3061.055 3058.415 3055.639 3052.778 3047.126 3044.48 
3215.476 3212.605 3209.525 3206.215 3202.523 3193.409 3187.934 3182.375 3177.908 3174.224 3165.139 3161.52 3159.374 3157.513 3152.863 3150.364 3147.74 3144.997 3142.031 3135.029 3131.517 3128.009 3124.334 3120.654 3113.738 3110.172 3105.801 3101.744 3098.083 3089.724 3084.651 3080.819 3077.772 3074.624 3067.882 3064.619 3061.65 3058.821 3056.091 3050.574 3047.805 
3209.447 3206.628 3203.773 3200.583 3196.661 3187.738 3182.681 3178.499 3174.795 3171.076 3162.574 3159.969 3157.962 3155.79 3151.261 3148.914 3146.802 3144.61 3142.039 3136.707 3133.942 3130.789 3127.148 3123.823 3118.139 3114.592 3110.564 3106.474 3102.555 3094.352 3089.881 3085.363 3081.397 3078.049 3071.629 3068.419 3065.287 3062.305 3056.73 3053.883 3051.051 
