NCOLS 41
NROWS 49
XLLCORNER 616833.99
YLLCORNER 4621305.4
CELLSIZE 10
NODATA_VALUE -9999
1501.874 1508.201 1510.82 1512.908 1513.035 1512.667 1511.99 1511.464 1510.772 1510.302 1510.524 1510.802 1511.407 1512.723 1513.314 1514.038 1516.477 1517.385 1518.592 1520.956 1522.122 1523.107 1523.461 1522.936 1521.85 1520.348 1516.853 1514.942 1512.8 1510.508 1505.064 1502.375 1500.116 1496.43 1494.464 1492.455 1488.593 1486.82 1485.099 1483.44 1480.31 
1505.157 1508.201 1510.82 1515.168 1514.796 1514.09 1513.008 1512.157 1510.924 1509.032 1508.387 1507.889 1507.379 1508.539 1509.475 1510.792 1513.992 1515.532 1517.614 1519.297 1522.979 1524.005 1524.791 1525.264 1524.271 1522.536 1518.49 1516.338 1514.169 1511.957 1506.182 1503.197 1500.695 1496.866 1494.867 1492.624 1488.553 1486.874 1485.296 1483.726 1480.736 
1509.122 1512.395 1514.398 1515.168 1514.796 1514.656 1513.332 1512.185 1510.552 1508.999 1506.05 1504.794 1503.647 1503.169 1504.069 1505.874 1510.711 1513.014 1515.185 1518.127 1523.196 1524.532 1525.866 1526.738 1525.957 1524.322 1519.96 1517.734 1515.579 1513.321 1507.456 1504.39 1501.645 1497.475 1495.294 1492.927 1488.667 1486.968 1485.456 1483.97 1481.134 
1511.743 1514.28 1515.754 1515.378 1515.067 1514.656 1513.332 1512.165 1510.152 1508.199 1503.414 1501.768 1500.677 1499.114 1499.316 1500.661 1506.82 1510.226 1513.222 1516.049 1522.922 1524.963 1526.71 1527.195 1526.945 1525.565 1521.229 1519.024 1516.73 1514.378 1508.684 1505.601 1502.827 1498.137 1495.8 1493.353 1488.932 1487.185 1485.684 1484.229 1481.407 
1512.961 1515.005 1515.4 1515.664 1515.213 1514.991 1513.585 1512.165 1510.212 1508.124 1503.024 1500.929 1499.455 1498.13 1497.18 1498.057 1502.963 1507.591 1511.848 1515.146 1522.486 1525.463 1527.292 1527.332 1527.011 1526.426 1522.549 1520.039 1517.458 1515.001 1509.599 1506.625 1503.777 1498.843 1496.431 1493.971 1491.614 1487.657 1486.107 1484.596 1481.594 
1513.1 1515.078 1515.578 1515.515 1515.546 1515.3 1513.693 1512.31 1510.212 1508.124 1503.292 1500.933 1499.454 1498.677 1498.031 1497.101 1501.097 1505.496 1510.54 1514.412 1521.849 1525.362 1527.405 1527.651 1527.554 1527.168 1525.884 1520.573 1517.848 1515.381 1510.221 1507.268 1504.559 1499.633 1497.169 1494.641 1492.358 1488.262 1486.57 1484.993 1481.641 
1512.802 1514.757 1515.396 1515.657 1515.699 1515.492 1514.811 1512.54 1510.718 1508.618 1503.292 1500.933 1500.811 1499.03 1498.775 1498.816 1499.56 1505.086 1509.785 1513.637 1521.14 1524.357 1526.655 1528.274 1527.504 1527.054 1525.545 1520.535 1517.934 1515.48 1510.36 1507.694 1505.076 1500.18 1497.826 1495.416 1493.09 1488.943 1487.199 1485.424 1481.409 
1512.148 1514.183 1515.069 1515.72 1515.657 1515.445 1515.096 1513.133 1511.466 1509.479 1504.647 1502.458 1500.811 1499.03 1500.985 1501.125 1501.781 1506.331 1509.909 1513.002 1519.919 1522.954 1525.308 1528.023 1527.855 1526.546 1524.689 1520.069 1517.599 1515.151 1510.216 1507.712 1505.187 1500.625 1498.254 1495.857 1493.593 1489.64 1487.79 1485.767 1481.062 
1511.354 1513.572 1514.807 1515.74 1515.638 1515.602 1515.445 1513.977 1512.75 1510.906 1506.741 1504.543 1502.891 1501.086 1500.985 1503.151 1503.68 1507.416 1509.757 1512.433 1518.713 1521.498 1523.7 1526.881 1526.893 1525.56 1523.699 1519.156 1516.847 1514.481 1509.682 1507.208 1504.766 1500.277 1498.083 1495.958 1493.703 1490.174 1488.174 1485.985 1480.635 
1510.232 1512.621 1514.334 1515.549 1515.7 1515.622 1515.639 1514.791 1513.839 1512.58 1508.748 1506.844 1505.349 1503.336 1502.89 1503.151 1503.68 1507.733 1509.879 1512.236 1517.515 1519.983 1522.105 1525.3 1525.194 1523.728 1521.93 1517.95 1515.78 1513.495 1508.66 1506.185 1503.905 1501.669 1497.595 1495.592 1493.634 1490.373 1488.555 1486.043 1480.036 
1508.694 1511.168 1513.06 1515.352 1515.852 1515.812 1515.613 1515.435 1514.852 1513.907 1511.015 1509.294 1507.615 1504.798 1504.24 1504.288 1504.955 1507.733 1509.879 1511.508 1516.551 1518.708 1520.567 1522.101 1522.456 1521.344 1519.671 1516.247 1514.343 1512.36 1507.242 1504.784 1502.542 1500.541 1496.611 1494.81 1493.109 1490.145 1488.299 1485.649 1479.748 
1506.704 1509.378 1511.585 1513.386 1515.592 1515.901 1515.845 1515.644 1515.345 1514.738 1512.573 1510.903 1509.157 1507.028 1504.533 1504.299 1504.623 1506.668 1508.637 1511.508 1515.285 1517.084 1518.621 1519.74 1519.065 1518.294 1517.222 1514.266 1512.462 1510.246 1505.431 1503.092 1500.827 1498.679 1495.001 1493.093 1491.645 1489.009 1487.271 1484.894 1479.431 
1504.527 1507.328 1509.734 1511.772 1514.895 1515.659 1515.905 1515.442 1515.288 1515.086 1513.792 1512.155 1509.763 1506.819 1503.591 1503.135 1503.147 1504.634 1507.477 1510.311 1515.285 1517.084 1516.596 1517.07 1516.486 1515.795 1514.648 1511.969 1510.01 1507.882 1503.353 1501.073 1498.789 1496.51 1492.489 1490.917 1489.572 1487.008 1485.522 1483.62 1479.027 
1502.313 1504.934 1507.452 1509.746 1513.582 1514.725 1515.18 1515.164 1514.95 1515.07 1514.64 1512.94 1510.082 1505.838 1501.778 1501.063 1500.979 1502.415 1504.555 1507.96 1513.808 1515.386 1516.596 1517.07 1513.816 1513.185 1512.361 1509.426 1507.37 1505.24 1500.869 1498.564 1496.1 1493.593 1489.545 1488.212 1486.956 1484.686 1483.406 1481.935 1480.335 
1500.105 1502.443 1504.935 1507.554 1511.769 1513.072 1513.976 1514.485 1514.617 1514.609 1514.168 1512.326 1509.087 1504.915 1500.666 1500.22 1500.087 1500.4 1501.61 1504.138 1511.403 1513.329 1514.149 1514.325 1513.816 1513.185 1509.52 1506.665 1504.792 1502.637 1500.509 1495.467 1492.817 1490.4 1486.852 1485.503 1484.324 1482.115 1481.175 1480.328 1479.02 
1498.152 1500.254 1502.529 1505.067 1509.467 1511.072 1511.996 1513.129 1513.372 1513.401 1512.302 1510.328 1506.971 1502.772 1500.565 1500.537 1500.384 1500.434 1500.309 1500.931 1504.724 1510.658 1511.636 1512.076 1511.382 1510.702 1509.52 1503.421 1501.783 1500.006 1497.648 1492.28 1489.635 1487.441 1484.102 1482.623 1481.292 1479.271 1478.529 1477.948 1477.06 
1494.066 1498.168 1500.211 1502.313 1506.677 1508.357 1509.61 1511.148 1511.549 1511.718 1511.444 1508.45 1504.984 1501.394 1500.685 1500.502 1500.461 1500.471 1500.491 1500.76 1502.849 1508.297 1509.441 1509.739 1508.634 1507.681 1506.361 1503.421 1501.783 1496.886 1494.581 1489.489 1487.054 1484.844 1481.083 1479.344 1477.966 1476.311 1475.663 1474.919 1474.001 
1491.93 1496.001 1497.998 1499.919 1503.775 1505.37 1506.688 1508.893 1509.48 1509.801 1509.593 1506.456 1503.416 1501.103 1500.63 1500.567 1500.433 1500.489 1500.454 1500.711 1501.991 1505.908 1506.852 1507.06 1505.675 1504.407 1503.249 1500.495 1498.857 1496.886 1494.581 1486.95 1484.504 1482.132 1477.924 1476.248 1474.938 1472.896 1472.046 1471.269 1470.497 
1489.574 1493.753 1495.805 1497.779 1501.598 1503.198 1504.577 1506.612 1507.324 1507.658 1507.501 1505.087 1502.895 1501.035 1500.546 1500.521 1500.491 1500.489 1500.521 1500.75 1501.606 1504.579 1505.089 1504.83 1503.771 1502.272 1500.896 1497.922 1496.162 1494.115 1491.815 1486.95 1484.504 1479.352 1474.982 1473.175 1471.653 1470.33 1468.184 1467.522 1466.933 
1487.348 1491.31 1493.572 1495.748 1499.799 1501.414 1502.679 1504.719 1505.572 1505.992 1505.762 1504.327 1502.924 1501.019 1500.642 1500.555 1500.521 1500.564 1500.637 1500.877 1501.723 1503.588 1503.639 1502.943 1501.482 1500.197 1498.822 1497.272 1493.673 1491.582 1489.419 1484.478 1481.86 1479.352 1472.062 1469.812 1467.831 1466.366 1464.475 1464.017 1463.981 
1485.31 1488.879 1491.004 1493.412 1497.784 1499.65 1501.195 1503.219 1504.155 1504.61 1504.613 1503.714 1502.993 1501.747 1500.638 1500.684 1500.685 1500.682 1500.689 1501.017 1502.019 1502.831 1502.566 1501.885 1499.636 1498.339 1496.903 1495.182 1491.431 1489.43 1487.109 1482.006 1479.37 1476.871 1472.062 1469.812 1464.233 1463.658 1463.447 1463.704 1463.672 
1483.323 1486.76 1488.829 1490.948 1495.551 1497.603 1499.398 1500.923 1502.899 1503.39 1503.723 1503.213 1503.016 1502.602 1501.408 1501.169 1500.777 1500.723 1501.341 1501.624 1502.198 1502.206 1501.602 1500.628 1497.925 1496.402 1494.805 1493.035 1489.273 1487.33 1484.656 1479.531 1476.942 1474.445 1468.961 1466.256 1464.233 1463.658 1463.382 1463.408 1463.622 
1481.145 1484.614 1486.486 1488.452 1492.833 1495.089 1497.223 1499.092 1501.642 1502.192 1502.742 1503.002 1502.914 1502.678 1502.289 1502.04 1501.607 1501.489 1502.152 1502.264 1502.228 1501.697 1500.798 1499.412 1496.228 1494.46 1492.708 1490.822 1486.8 1484.381 1481.984 1477.111 1474.511 1471.913 1466.472 1464.387 1463.494 1463.373 1463.382 1463.394 1463.471 
1478.899 1482.048 1483.916 1485.873 1490.019 1492.306 1494.647 1496.806 1499.997 1501.09 1501.8 1502.594 1502.609 1502.564 1502.517 1502.485 1502.457 1502.359 1502.28 1502.214 1502.03 1500.878 1499.496 1497.862 1494.44 1492.547 1490.684 1488.743 1483.961 1481.46 1479.026 1474.596 1472.215 1469.479 1466.947 1463.64 1463.463 1463.221 1463.369 1463.394 1463.471 
1476.101 1479.089 1480.93 1482.907 1487.3 1489.52 1491.671 1493.896 1497.689 1499.19 1500.309 1501.703 1502.033 1502.26 1502.509 1502.395 1502.27 1502.354 1502.046 1501.814 1501.445 1499.243 1497.688 1496.046 1494.309 1490.525 1488.552 1486.232 1480.768 1478.231 1475.961 1471.689 1469.514 1467.32 1465.162 1463.312 1463.112 1463.24 1463.227 1463.432 1463.607 
1473.344 1476.098 1477.741 1479.683 1484.203 1486.544 1488.729 1490.643 1494.53 1496.193 1497.638 1499.912 1500.677 1501.141 1501.512 1501.639 1501.569 1501.6 1501.183 1500.57 1499.761 1497.097 1495.537 1493.833 1492.041 1488.256 1485.685 1482.827 1477.412 1475.142 1473.098 1469.025 1467.055 1465.318 1464.129 1463.125 1462.981 1463.091 1463.389 1463.701 1463.872 
1470.584 1473.195 1474.706 1476.408 1478.304 1482.993 1485.343 1487.579 1491.093 1492.684 1494.27 1496.939 1497.949 1498.596 1499.149 1499.678 1499.73 1499.637 1498.982 1498.243 1497.19 1494.507 1492.984 1491.468 1489.931 1485.007 1481.895 1478.818 1474.285 1472.335 1470.306 1466.512 1464.877 1463.881 1463.426 1462.903 1462.92 1462.953 1463.771 1464.283 1464.255 
1467.742 1470.342 1471.841 1473.422 1474.997 1479.125 1481.342 1483.572 1487.581 1489.229 1490.515 1493.1 1494.249 1495.062 1495.711 1496.689 1496.72 1496.53 1495.818 1495.053 1493.981 1491.647 1490.427 1488.879 1486.828 1480.599 1477.81 1475.278 1471.404 1469.554 1467.736 1464.422 1463.592 1463.285 1462.893 1462.702 1462.762 1462.928 1463.747 1464.246 1464.3 
1464.67 1467.278 1468.777 1470.374 1472.02 1475.334 1476.97 1478.997 1483.169 1484.958 1486.481 1489.293 1490.394 1491.304 1492.023 1492.832 1492.964 1492.944 1492.303 1491.565 1490.662 1488.605 1486.989 1485 1482.235 1476.437 1474.229 1472.331 1468.723 1466.953 1465.268 1463.974 1462.906 1462.433 1462.365 1462.371 1462.598 1462.757 1463.746 1464.26 1464.263 
1462.911 1464.382 1465.69 1467.397 1469.07 1472.141 1473.627 1475.021 1478.127 1480.109 1481.942 1485.055 1486.34 1487.423 1488.458 1489.105 1489.3 1489.414 1488.841 1488.257 1487.117 1485.936 1482.332 1480.037 1477.822 1473.174 1471.283 1469.528 1466.143 1464.725 1463.675 1463.08 1462.148 1461.923 1461.841 1462.111 1462.278 1462.438 1463.544 1464.076 1464.197 
1461.714 1462.348 1463.559 1464.625 1466.188 1469.187 1470.535 1471.882 1474.497 1475.783 1477.001 1478.583 1481.756 1482.921 1483.859 1484.811 1484.974 1484.977 1484.349 1483.551 1482.355 1480.885 1477.347 1475.775 1474.022 1470.277 1468.493 1466.779 1464.003 1463.208 1462.734 1462.197 1461.486 1461.425 1461.43 1461.704 1461.941 1462.132 1463.099 1463.615 1464.045 
1461.013 1461.258 1462.156 1462.828 1463.747 1466.519 1467.829 1469.021 1471.354 1472.39 1473.464 1474.69 1476.941 1477.965 1478.966 1479.862 1479.971 1479.942 1478.974 1478.237 1477.347 1476.23 1473.579 1472.265 1470.681 1467.462 1465.803 1464.434 1462.786 1462.143 1461.669 1461.289 1460.95 1460.943 1460.993 1461.388 1461.542 1461.869 1462.713 1463.279 1463.668 
1460.458 1460.837 1461.306 1461.773 1462.236 1464.108 1465.255 1466.445 1468.518 1469.452 1470.366 1471.426 1473.175 1474.004 1474.728 1475.401 1475.38 1475.338 1474.621 1474 1473.223 1472.312 1470.259 1469.128 1467.903 1464.902 1463.901 1463.078 1461.807 1461.355 1460.931 1460.838 1460.778 1460.805 1460.761 1461.144 1461.288 1461.568 1461.903 1462.883 1463.387 
1460.261 1460.476 1460.869 1461.015 1461.542 1462.548 1463.196 1463.918 1465.739 1466.545 1467.371 1468.208 1469.599 1470.199 1470.593 1470.48 1470.414 1470.543 1470.445 1470.034 1469.402 1468.773 1467.081 1466.162 1465.121 1463.187 1462.5 1461.87 1461.322 1460.865 1460.785 1460.785 1460.785 1460.785 1460.785 1460.886 1461.081 1461.32 1461.655 1462.53 1463.098 
1460.088 1460.21 1460.654 1460.891 1461.11 1461.815 1462.176 1462.342 1463.375 1463.825 1464.259 1464.765 1465.526 1465.601 1465.749 1465.378 1465.224 1465.401 1465.724 1466.044 1465.67 1465.209 1464.194 1463.684 1463.135 1461.85 1461.33 1461.023 1460.852 1460.784 1460.785 1460.785 1460.785 1460.785 1460.785 1460.772 1460.881 1461.181 1461.487 1462.256 1462.855 
1460.1 1460.151 1460.337 1460.574 1460.815 1461.456 1461.591 1461.741 1461.812 1461.885 1462.068 1462.249 1462.417 1462.361 1462.322 1462.055 1461.979 1462.124 1462.516 1463.323 1463.187 1463.021 1462.562 1462.144 1461.749 1460.925 1460.827 1460.795 1460.784 1460.785 1460.785 1460.785 1460.785 1460.785 1460.785 1460.783 1460.81 1460.977 1461.289 1461.971 1462.476 
1460.1 1460.099 1460.118 1460.278 1460.509 1461.093 1461.295 1461.325 1461.106 1461.161 1461.156 1461.158 1461.185 1461.178 1461.109 1461.002 1461.031 1461.142 1461.392 1461.743 1461.71 1461.562 1461.438 1461.353 1461.085 1460.767 1460.785 1460.785 1460.785 1460.785 1460.785 1460.785 1460.785 1460.785 1460.785 1460.785 1460.781 1460.824 1461.023 1461.756 1462.207 
1460.206 1460.099 1460.118 1460.096 1460.221 1460.729 1460.94 1460.94 1460.96 1460.969 1460.957 1460.884 1460.883 1460.862 1460.79 1460.789 1460.793 1460.798 1460.807 1461.048 1461.031 1461.025 1460.944 1460.823 1460.805 1460.785 1460.785 1460.785 1460.785 1460.785 1460.785 1460.785 1460.785 1460.785 1460.785 1460.785 1460.784 1460.798 1460.939 1461.545 1461.984 
1460.425 1460.164 1460.084 1460.096 1460.072 1460.318 1460.472 1460.635 1460.728 1460.767 1460.769 1460.774 1460.784 1460.76 1460.687 1460.639 1460.557 1460.481 1460.404 1460.618 1460.804 1460.802 1460.792 1460.785 1460.785 1460.785 1460.785 1460.785 1460.785 1460.785 1460.785 1460.785 1460.785 1460.785 1460.785 1460.785 1460.785 1460.785 1460.826 1461.445 1461.784 
1460.956 1460.567 1460.095 1460.087 1460.072 1460.318 1460.198 1460.338 1460.419 1460.672 1460.663 1460.671 1460.678 1460.654 1460.575 1460.498 1460.347 1460.273 1460.197 1460.368 1460.721 1460.784 1460.785 1460.785 1460.785 1460.785 1460.785 1460.785 1460.785 1460.785 1460.785 1460.785 1460.785 1460.785 1460.785 1460.785 1460.785 1460.784 1460.791 1461.414 1461.763 
1462.117 1461.388 1460.384 1460.2 1460.102 1460.066 1460.198 1460.338 1460.235 1460.453 1460.463 1460.538 1460.511 1460.427 1460.356 1460.291 1460.083 1460.083 1460.084 1460.221 1460.549 1460.76 1460.785 1460.785 1460.785 1460.785 1460.785 1460.785 1460.785 1460.785 1460.785 1460.785 1460.785 1460.785 1460.785 1460.785 1460.785 1460.784 1460.792 1461.32 1461.699 
1463.614 1462.84 1461.151 1460.564 1460.248 1460.115 1460.089 1460.157 1460.235 1460.453 1460.236 1460.235 1460.203 1460.129 1460.076 1460.082 1460.107 1460.119 1460.189 1460.362 1460.547 1460.759 1460.785 1460.785 1460.785 1460.785 1460.785 1460.785 1460.785 1460.785 1460.785 1460.785 1460.785 1460.785 1460.785 1460.785 1460.785 1460.784 1460.793 1461.253 1461.595 
1464.951 1464.707 1462.498 1461.449 1460.708 1460.344 1460.109 1460.093 1460.142 1460.24 1460.236 1460.106 1460.114 1460.164 1460.26 1460.349 1460.613 1460.662 1460.644 1460.6 1460.636 1460.777 1460.785 1460.785 1460.785 1460.785 1460.785 1460.785 1460.785 1460.785 1460.785 1460.785 1460.785 1460.785 1460.785 1460.785 1460.785 1460.784 1460.793 1461.28 1461.672 
1466.116 1466.058 1463.852 1462.745 1461.805 1461.142 1460.464 1460.261 1460.134 1460.108 1460.108 1460.106 1460.114 1460.81 1460.984 1461.206 1461.378 1461.391 1461.285 1461.089 1460.991 1460.894 1460.808 1460.786 1460.785 1460.785 1460.785 1460.785 1460.785 1460.785 1460.785 1460.785 1460.785 1460.785 1460.785 1460.785 1460.785 1460.784 1460.794 1461.342 1461.693 
1467.021 1466.732 1465.088 1464.136 1463.166 1462.555 1461.37 1460.946 1460.69 1460.657 1460.624 1460.596 1460.563 1460.81 1460.984 1462.166 1462.314 1462.156 1461.916 1461.512 1461.242 1461.015 1460.918 1460.781 1460.785 1460.787 1460.786 1460.785 1460.785 1460.785 1460.785 1460.785 1460.785 1460.785 1460.785 1460.785 1460.784 1460.801 1460.926 1461.493 1461.839 
1468.634 1468.394 1467.65 1465.419 1464.497 1464.105 1462.747 1462.341 1462.162 1462.186 1462.062 1461.933 1461.757 1461.86 1462.04 1462.166 1462.844 1462.676 1462.509 1461.922 1461.561 1461.333 1461.161 1460.85 1460.803 1460.874 1460.85 1460.784 1460.784 1460.785 1460.785 1460.785 1460.785 1460.785 1460.785 1460.785 1460.797 1460.907 1461.133 1461.609 1461.88 
1471.809 1471.498 1470.258 1467.219 1466.027 1465.206 1463.776 1463.802 1463.865 1463.919 1463.811 1463.567 1463.133 1463.002 1462.99 1463.052 1462.844 1462.676 1462.986 1462.364 1462.061 1461.758 1461.513 1461.074 1460.99 1460.906 1461.005 1460.98 1460.899 1460.781 1460.786 1460.785 1460.785 1460.785 1460.785 1460.784 1460.933 1461.113 1461.343 1461.508 1461.974 
1475.272 1475.088 1473.063 1468.96 1467.198 1466.003 1464.617 1464.854 1464.991 1464.881 1464.671 1464.264 1463.906 1463.518 1463.579 1463.646 1463.47 1463.261 1462.986 1462.364 1462.478 1462.261 1462.028 1461.432 1461.222 1461.127 1461.024 1461.123 1461.206 1461.22 1461.067 1460.98 1460.895 1460.978 1460.983 1461.052 1461.238 1461.401 1461.558 1461.705 1462.154 
1476.542 1476.393 1474.526 1470.732 1468.795 1467.499 1466.042 1465.934 1465.866 1465.239 1464.629 1464.144 1463.949 1463.954 1464.131 1464.261 1463.955 1463.671 1463.298 1462.987 1462.478 1462.261 1462.438 1461.971 1461.727 1461.48 1461.194 1461.279 1461.499 1461.597 1461.474 1461.392 1461.31 1461.389 1461.393 1461.467 1461.616 1461.687 1461.768 1461.912 1462.253 
