NCOLS 43
NROWS 186
XLLCORNER 364825.66
YLLCORNER 3984981.5
CELLSIZE 10
NODATA_VALUE -9999
1486.925 1485.908 1484.494 1483.113 1480.483 1479.547 1478.394 1476.906 1475.255 1472.07 1470.214 1468.387 1466.976 1466.003 1463.978 1462.111 1459.514 1456.88 1454.5 1449.916 1447.36 1444.436 1442.123 1440.772 1440.295 1441.561 1443.28 1446.832 1448.602 1451.823 1453.399 1455.046 1456.707 1458.354 1461.63 1463.302 1465.52 1468.234 1471.101 1476.45 1478.531 1480.283 1482.128 
1485.983 1484.611 1483.053 1481.593 1479.436 1478.605 1477.709 1476.474 1475.007 1471.893 1470.114 1468.704 1467.716 1466.852 1465.046 1463.323 1460.626 1457.603 1454.826 1449.958 1447.37 1444.35 1441.447 1439.457 1439.057 1441.561 1443.28 1445.106 1446.911 1450.157 1451.713 1453.35 1455.013 1456.66 1459.95 1461.595 1463.228 1465.361 1467.956 1473.24 1475.557 1477.529 1479.132 
1484.557 1482.861 1481.205 1478.768 1477.914 1477.135 1476.292 1475.251 1472.562 1470.978 1469.444 1468.527 1467.816 1467.035 1465.33 1463.8 1461.143 1457.989 1455.113 1450.081 1447.382 1444.446 1441.433 1439.457 1439.057 1440.008 1441.629 1443.505 1445.306 1448.647 1450.226 1451.736 1453.318 1454.984 1458.274 1459.846 1461.459 1463.078 1465.039 1469.992 1472.381 1474.655 1476.592 
1482.518 1480.759 1479.134 1476.816 1475.896 1474.964 1474.027 1473.015 1470.644 1469.363 1468.303 1467.827 1467.416 1466.046 1465.186 1463.719 1461.225 1458.113 1452.665 1450.223 1447.622 1444.446 1441.433 1439.141 1438.415 1439.17 1440.387 1442.014 1443.774 1447.164 1448.69 1450.148 1451.683 1453.269 1456.495 1458.138 1459.787 1461.399 1462.882 1466.83 1469.223 1471.538 1473.828 
1480.094 1478.5 1477.048 1474.428 1473.281 1472.265 1471.338 1470.214 1468.364 1467.635 1466.982 1466.694 1466.448 1465.355 1464.738 1463.105 1460.697 1457.913 1452.797 1450.223 1447.622 1444.843 1442.065 1438.464 1437.923 1438.602 1439.504 1440.726 1444.035 1445.691 1447.196 1448.737 1450.225 1451.64 1454.804 1456.459 1458.044 1459.605 1461.144 1463.987 1466.155 1468.487 1470.796 
1477.537 1476.193 1474.721 1471.794 1470.404 1469.265 1468.275 1467.25 1466.083 1465.777 1465.434 1465.151 1464.918 1464.236 1463.413 1461.993 1459.787 1457.188 1452.797 1450.438 1447.943 1445.375 1442.817 1438.939 1437.785 1438.06 1438.866 1439.775 1442.738 1444.318 1445.813 1447.305 1448.753 1451.56 1453.123 1454.688 1456.312 1457.925 1460.921 1462.299 1463.547 1465.491 1467.892 
1475.131 1473.664 1472.072 1468.884 1467.257 1465.97 1465.084 1464.486 1463.86 1463.729 1463.512 1463.229 1462.968 1462.25 1461.498 1460.291 1459.787 1457.188 1452.874 1450.686 1448.269 1445.862 1443.467 1439.422 1438.14 1437.582 1438.112 1439.051 1441.467 1443.035 1444.548 1445.974 1447.373 1450.165 1451.562 1453.098 1454.669 1456.229 1459.347 1460.751 1462.076 1463.24 1465.269 
1472.67 1470.968 1469.239 1465.838 1464.449 1463.497 1462.881 1462.443 1461.853 1461.68 1461.396 1461.11 1460.783 1459.975 1461.498 1460.291 1458.312 1456.229 1452.918 1450.843 1448.575 1446.272 1444.079 1439.801 1438.634 1437.513 1437.799 1438.742 1440.285 1441.762 1443.205 1444.606 1445.964 1448.696 1450.088 1451.474 1452.969 1454.586 1457.894 1459.472 1460.838 1462.222 1464.003 
1470.003 1468.196 1466.378 1463.528 1462.62 1461.92 1461.323 1460.795 1459.992 1459.74 1459.383 1458.972 1460.783 1459.975 1459.418 1458.173 1456.892 1455.842 1452.966 1450.966 1448.807 1446.667 1444.586 1440.431 1439.219 1438.077 1437.698 1438.029 1439.48 1440.56 1441.917 1443.285 1444.587 1447.322 1448.719 1450.113 1451.551 1453.12 1456.443 1458.183 1459.824 1461.418 1462.941 
1467.197 1465.369 1463.864 1461.879 1461.159 1460.475 1459.798 1459.149 1458.149 1457.687 1457.135 1458.972 1458.514 1457.879 1457.583 1456.66 1455.858 1455.248 1453.036 1451.151 1448.943 1446.731 1444.582 1440.679 1439.318 1438.318 1437.431 1437.346 1438.829 1439.476 1440.581 1441.907 1443.18 1445.848 1447.332 1448.746 1450.243 1451.859 1455.181 1457.001 1458.886 1460.698 1462.476 
1464.578 1463.158 1462.027 1460.399 1459.651 1458.889 1458.177 1457.544 1456.395 1457.687 1457.135 1456.676 1456.325 1455.836 1455.574 1455.015 1454.564 1454.246 1452.575 1450.79 1448.591 1446.186 1444.101 1440.931 1439.485 1438.414 1437.288 1436.693 1437.883 1438.546 1439.286 1440.344 1441.634 1444.282 1445.911 1447.463 1449.009 1450.526 1453.913 1455.838 1457.996 1460.063 1462.029 
1462.439 1461.341 1460.278 1458.421 1457.622 1456.937 1456.4 1457.544 1456.395 1455.729 1455.049 1454.428 1453.995 1453.693 1453.49 1453.253 1453.05 1452.838 1451.39 1449.689 1447.53 1445.38 1443.599 1440.507 1439.214 1437.749 1436.429 1435.737 1436.807 1437.411 1438.142 1438.998 1440.01 1442.681 1444.32 1446.165 1447.883 1449.442 1452.778 1454.858 1457.095 1459.34 1461.519 
1460.389 1459.339 1458.207 1456.238 1455.531 1456.937 1456.4 1455.896 1454.674 1453.969 1453.168 1452.327 1451.756 1451.527 1451.417 1451.254 1451.036 1450.696 1449.227 1447.603 1445.674 1443.944 1442.468 1439.603 1438.165 1436.706 1435.331 1434.357 1435.468 1435.894 1436.607 1437.668 1438.695 1441.03 1442.835 1444.91 1446.863 1448.595 1451.842 1454.01 1456.271 1458.586 1460.9 
1458.247 1456.978 1454.926 1456.238 1455.531 1454.981 1454.528 1453.726 1453.053 1452.268 1451.408 1450.593 1450.012 1449.468 1449.282 1449.054 1448.75 1448.319 1446.674 1445.241 1444.008 1442.732 1441.278 1438.106 1436.397 1434.69 1432.902 1431.771 1433.068 1434.055 1435.249 1436.45 1437.49 1439.805 1441.793 1443.906 1446.025 1447.967 1451.403 1453.398 1455.612 1457.918 1460.276 
1455.889 1454.563 1454.926 1454.047 1453.343 1452.899 1452.589 1451.877 1451.273 1450.464 1449.645 1448.9 1447.775 1447.426 1447.154 1446.761 1446.367 1445.195 1444.473 1443.402 1442.334 1441.265 1439.91 1436.187 1434.283 1432.524 1430.895 1429.828 1430.747 1432.309 1433.927 1435.382 1436.75 1439.483 1441.288 1443.31 1445.348 1447.292 1450.846 1452.692 1454.885 1457.156 1459.448 
1455.889 1454.563 1452.547 1451.99 1451.449 1450.94 1450.554 1449.763 1449.164 1448.494 1447.742 1446.991 1445.727 1445.284 1444.986 1444.647 1444.289 1443.222 1442.52 1441.608 1440.686 1439.514 1435.987 1434.033 1432.055 1430.427 1429.162 1428.08 1429.173 1430.948 1432.912 1434.747 1436.37 1439.447 1441.161 1442.925 1444.8 1446.734 1450.304 1452.084 1454.111 1456.205 1458.384 
1453.498 1452.299 1450.729 1450.174 1449.667 1449.141 1448.654 1447.629 1447.089 1446.452 1445.695 1444.949 1443.579 1443.124 1442.812 1442.598 1442.343 1441.266 1440.568 1439.754 1438.556 1437.027 1433.537 1431.677 1429.869 1428.308 1427.206 1427.205 1428.524 1430.306 1432.221 1434.077 1437.524 1439.305 1441.039 1442.691 1444.332 1447.991 1449.739 1451.426 1453.249 1455.112 1457.066 
1451.67 1450.682 1449.133 1448.527 1447.937 1447.325 1446.682 1445.48 1445.021 1444.463 1443.809 1443.034 1441.397 1440.779 1440.57 1440.487 1440.373 1439.195 1438.236 1437.144 1435.929 1434.432 1431.101 1429.346 1427.719 1426.7 1426.18 1427.02 1428.245 1429.989 1431.845 1433.731 1437.406 1439.255 1440.879 1442.41 1443.919 1447.308 1449.029 1450.572 1452.048 1453.698 1457.398 
1450.197 1449.225 1447.53 1446.773 1445.971 1445.254 1444.601 1443.53 1443.065 1442.583 1441.917 1441.077 1439.433 1438.729 1438.429 1438.273 1438.02 1436.722 1435.77 1434.701 1433.365 1431.908 1428.827 1427.357 1426.432 1425.72 1425.392 1426.791 1427.947 1429.647 1431.495 1433.361 1437.137 1439.032 1440.706 1442.146 1443.493 1446.51 1448.108 1449.518 1450.805 1452.211 1455.708 
1448.695 1447.655 1445.833 1444.884 1444.018 1443.24 1442.529 1441.405 1441.168 1440.749 1440.058 1439.261 1437.697 1437.073 1436.59 1436.148 1435.662 1434.249 1433.235 1432.211 1431.119 1429.822 1427.102 1426.091 1425.294 1424.822 1424.858 1426.528 1427.7 1429.338 1431.092 1432.888 1436.724 1438.553 1440.273 1441.72 1443.004 1445.649 1447.059 1448.4 1449.701 1450.948 1454.015 
1447.081 1445.974 1444.029 1443.125 1442.223 1441.283 1440.431 1439.44 1439.212 1438.933 1438.326 1437.515 1435.958 1435.329 1434.646 1433.995 1433.303 1431.812 1430.974 1430.049 1429.088 1427.97 1425.672 1424.654 1423.998 1423.863 1424.133 1426.105 1427.406 1429.011 1430.677 1432.372 1436.1 1437.942 1439.664 1441.098 1442.343 1444.762 1446.069 1447.408 1448.65 1449.845 1452.477 
1445.327 1444.279 1442.305 1441.393 1440.47 1439.62 1438.888 1437.796 1437.407 1436.93 1436.302 1435.595 1434.192 1433.414 1432.698 1432.01 1431.274 1429.697 1428.835 1427.888 1426.988 1425.989 1423.914 1422.929 1422.266 1422.181 1422.872 1425.716 1427.149 1428.621 1430.163 1431.782 1435.299 1437.076 1438.762 1440.171 1441.403 1443.818 1445.093 1446.422 1447.66 1448.856 1451.334 
1443.506 1442.464 1440.469 1439.699 1438.964 1438.195 1437.455 1436.345 1435.734 1435.102 1434.455 1433.721 1432.144 1431.436 1430.826 1430.132 1429.346 1427.652 1426.699 1425.666 1424.533 1423.444 1421.369 1420.278 1419.834 1420.385 1421.819 1425.031 1426.458 1427.983 1429.569 1431.138 1434.404 1436.064 1437.611 1439.013 1440.295 1442.777 1444.044 1445.352 1446.68 1447.995 1450.448 
1441.557 1439.833 1439.104 1438.293 1437.587 1436.873 1436.142 1434.74 1434.093 1433.353 1432.565 1431.781 1430.194 1429.489 1428.861 1428.22 1427.473 1425.517 1424.471 1423.294 1422.06 1420.824 1418.384 1417.694 1417.955 1419.248 1420.966 1424.267 1425.819 1427.28 1428.781 1430.349 1433.452 1435.074 1436.536 1437.891 1439.165 1441.617 1442.967 1444.323 1445.783 1447.239 1449.714 
1439.867 1438.493 1437.777 1436.973 1436.192 1435.478 1434.131 1433.324 1432.587 1431.834 1431.019 1429.154 1428.2 1427.534 1426.868 1426.17 1425.392 1423.374 1422.237 1421 1419.707 1418.352 1416.096 1415.851 1416.76 1418.35 1420.067 1423.449 1425.049 1426.517 1427.963 1429.491 1432.537 1434.108 1435.576 1436.919 1438.152 1440.446 1441.913 1443.386 1444.949 1446.524 1449.206 
1438.545 1437.15 1436.345 1435.528 1434.824 1434.121 1432.61 1431.883 1431.172 1430.427 1429.57 1427.653 1426.629 1425.786 1424.999 1424.22 1422.379 1421.263 1420.006 1418.782 1417.48 1415.135 1414.536 1414.842 1415.992 1417.584 1419.269 1422.553 1424.112 1425.614 1427.094 1428.634 1431.775 1433.321 1434.78 1436.104 1437.286 1439.557 1441.058 1442.604 1444.257 1445.95 1448.775 
1437.343 1435.816 1435.007 1434.125 1433.317 1432.621 1431.179 1430.454 1429.816 1429.112 1428.26 1426.245 1425.222 1424.243 1423.342 1422.47 1420.385 1419.258 1418.077 1416.848 1415.652 1414.217 1413.815 1414.427 1415.556 1417.01 1420.265 1421.867 1423.365 1424.904 1426.428 1429.593 1431.225 1432.703 1434.169 1435.5 1436.663 1439.028 1440.428 1442.023 1443.719 1445.414 1448.397 
1436.318 1434.64 1433.611 1432.674 1431.887 1431.148 1429.653 1429.003 1428.364 1427.7 1426.862 1424.807 1423.786 1422.755 1421.782 1420.742 1418.584 1417.388 1416.249 1415.275 1414.583 1413.456 1413.276 1414.115 1415.175 1416.448 1419.564 1421.182 1422.737 1424.399 1426.084 1429.267 1430.844 1432.277 1433.771 1435.13 1437.627 1438.841 1440.221 1441.741 1443.376 1446.721 1448.136 
1435.371 1433.301 1432.183 1431.239 1430.386 1429.593 1428.126 1427.471 1426.757 1425.977 1425.185 1423.3 1422.259 1421.233 1420.216 1419.154 1416.919 1415.824 1414.999 1414.423 1413.868 1412.723 1412.898 1413.843 1414.744 1415.797 1418.83 1420.438 1422.266 1424.062 1425.837 1429.146 1430.646 1432.076 1433.516 1434.913 1437.649 1438.954 1440.293 1441.756 1443.272 1446.427 1447.906 
1435.031 1432.191 1430.975 1429.807 1428.791 1428.008 1426.612 1425.946 1425.172 1424.36 1423.606 1421.839 1420.769 1419.733 1418.728 1417.666 1415.552 1414.773 1414.212 1413.689 1413.039 1412.383 1412.817 1413.572 1414.341 1415.177 1417.926 1419.565 1421.702 1423.728 1425.611 1429.086 1430.487 1431.888 1433.333 1434.84 1437.742 1439.114 1440.523 1441.935 1443.264 1446.079 1447.906 
1434.404 1431.219 1429.904 1428.591 1427.507 1426.685 1425.204 1424.458 1423.654 1422.844 1422.094 1420.263 1419.352 1418.372 1417.323 1416.276 1414.541 1413.836 1413.458 1412.909 1412.262 1412.33 1412.708 1413.173 1413.788 1414.482 1416.802 1418.635 1420.936 1423.251 1425.392 1428.888 1430.263 1431.657 1433.11 1434.683 1437.846 1439.44 1440.748 1441.985 1443.264 1446.079 1447.571 
1433.909 1430.644 1429.167 1427.757 1426.557 1425.552 1423.887 1423.071 1422.153 1421.29 1420.535 1418.885 1418.014 1417.029 1415.969 1415.079 1413.573 1412.811 1412.571 1412.215 1411.817 1412.098 1412.293 1412.55 1413.132 1413.889 1415.706 1417.866 1420.402 1422.881 1425.057 1428.478 1429.956 1431.357 1432.878 1434.534 1437.844 1439.527 1440.748 1441.985 1443.308 1445.834 1447.388 
1433.235 1430.169 1428.554 1427.101 1425.854 1424.747 1422.637 1421.61 1420.539 1419.618 1418.88 1417.53 1416.636 1415.675 1414.762 1413.953 1412.499 1411.862 1411.659 1411.423 1411.125 1411.381 1411.582 1412.05 1412.808 1413.633 1415.542 1417.606 1420.108 1422.56 1424.643 1428.037 1429.544 1430.988 1432.617 1434.329 1437.844 1439.527 1440.859 1441.996 1443.106 1445.69 1447.149 
1432.725 1429.756 1428.207 1426.701 1425.309 1424.098 1421.512 1420.034 1418.795 1417.841 1417.146 1416.068 1415.344 1414.475 1413.558 1412.647 1411.366 1410.561 1410.36 1410.199 1409.892 1410.698 1411.335 1412.101 1413.042 1413.968 1416.187 1417.979 1420.071 1422.358 1424.368 1427.527 1429.093 1430.623 1432.276 1434.329 1437.818 1439.443 1440.792 1441.878 1442.884 1445.305 1446.576 
1430.654 1429.227 1427.82 1426.326 1424.842 1423.462 1420.296 1418.745 1417.314 1416.14 1415.404 1414.49 1413.947 1413.058 1412.081 1411.227 1409.759 1408.651 1408.418 1408.424 1408.465 1410.546 1411.696 1412.507 1413.393 1414.454 1417.11 1418.739 1420.651 1422.499 1424.086 1426.973 1428.521 1430.623 1432.276 1434.054 1437.562 1439.263 1440.503 1441.548 1442.572 1444.762 1445.964 
1430.042 1428.611 1427.18 1425.691 1424.16 1420.989 1419.365 1417.794 1416.268 1414.955 1413.611 1412.949 1412.253 1411.432 1410.502 1409.588 1407.85 1406.906 1406.68 1406.793 1407.348 1410.382 1411.816 1412.929 1413.946 1415.11 1418.043 1419.638 1421.296 1422.734 1424.001 1426.973 1428.521 1430.188 1432.003 1433.891 1437.217 1438.577 1439.827 1440.945 1442.054 1444.425 1446.104 
1429.319 1427.939 1426.453 1424.949 1423.417 1420.224 1418.62 1417.053 1415.572 1414.266 1412.434 1411.633 1410.726 1409.766 1408.812 1407.002 1406.19 1405.466 1405.152 1405.486 1408.205 1410.424 1412.194 1413.546 1414.677 1415.937 1419.026 1420.56 1422.032 1422.734 1424.001 1426.605 1428.207 1429.935 1431.834 1433.872 1436.901 1437.93 1439.059 1440.272 1441.528 1444.25 1445.688 
1428.446 1427.022 1425.592 1424.105 1422.552 1419.433 1417.925 1416.404 1414.974 1413.695 1411.471 1410.554 1409.413 1408.246 1407.204 1405.383 1404.584 1403.991 1403.828 1404.613 1408.212 1410.615 1412.558 1414.111 1415.5 1418.388 1419.962 1421.464 1422.032 1423.456 1425.753 1426.937 1428.505 1430.251 1432.099 1433.983 1436.637 1437.624 1438.619 1439.752 1441.08 1444.028 1445.615 
1427.467 1426.073 1424.673 1423.192 1421.651 1418.681 1417.23 1415.762 1414.38 1413.083 1410.675 1409.492 1408.135 1406.905 1405.79 1403.776 1403.234 1402.786 1403.073 1404.462 1408.549 1410.873 1412.967 1414.797 1416.333 1419.112 1419.962 1421.464 1422.935 1424.451 1427.048 1428.354 1429.726 1431.277 1433.051 1435.981 1436.911 1437.834 1438.825 1439.885 1442.324 1443.591 1444.929 
1426.497 1425.093 1423.701 1422.309 1420.858 1417.99 1416.493 1415.036 1413.72 1412.411 1409.864 1408.471 1407.094 1405.791 1404.509 1402.794 1402.383 1402.366 1403.095 1404.671 1408.755 1411.004 1413.282 1415.237 1416.333 1419.112 1420.625 1422.357 1424.065 1425.629 1428.585 1429.999 1431.421 1432.855 1434.388 1436.912 1437.923 1438.82 1439.609 1440.492 1442.786 1444.045 1445.314 
1425.41 1424.167 1422.782 1421.444 1420.136 1417.249 1415.778 1414.382 1413.047 1411.713 1409.07 1407.646 1406.271 1404.9 1403.636 1402.198 1401.888 1402.361 1403.406 1404.911 1408.71 1411.074 1413.282 1415.237 1416.792 1419.587 1421.198 1423.068 1424.944 1426.724 1429.882 1431.452 1432.88 1434.39 1435.991 1438.492 1439.457 1440.128 1440.689 1441.456 1443.373 1444.543 1445.808 
1424.354 1423.196 1421.917 1420.592 1419.271 1416.5 1415.123 1413.793 1412.447 1411.088 1408.336 1406.906 1405.54 1404.178 1403.08 1401.816 1401.743 1402.435 1403.613 1405.116 1408.71 1411.074 1413.302 1415.238 1416.884 1419.835 1421.616 1423.585 1425.473 1427.344 1430.837 1432.405 1434.212 1436.045 1437.734 1440.108 1440.583 1441.206 1441.84 1442.505 1444.176 1445.254 1446.281 
1423.273 1422.163 1420.953 1419.732 1418.491 1415.809 1414.479 1413.146 1411.794 1410.438 1407.721 1406.29 1404.848 1403.574 1402.65 1401.523 1401.645 1402.389 1403.598 1405.116 1408.582 1410.777 1412.929 1414.977 1416.735 1419.774 1421.634 1423.737 1425.864 1427.845 1431.297 1433.217 1435.569 1437.707 1439.269 1441.083 1441.681 1442.201 1442.757 1443.391 1444.854 1445.687 1446.81 
1422.162 1421.128 1419.999 1418.858 1417.713 1415.179 1413.838 1412.502 1411.162 1409.814 1407.063 1405.682 1404.251 1403.153 1402.417 1401.289 1401.373 1402.389 1403.598 1405.056 1408.229 1410.288 1412.29 1414.287 1416.141 1419.381 1421.466 1423.713 1425.891 1427.863 1431.507 1433.933 1436.485 1438.845 1440.414 1441.8 1442.396 1442.998 1443.478 1443.943 1445.346 1446.265 1447.254 
1420.848 1419.983 1419.011 1418.012 1416.986 1414.525 1413.199 1411.906 1410.552 1409.145 1406.494 1405.145 1403.824 1402.886 1402.244 1401.289 1401.373 1402.124 1403.16 1404.452 1407.549 1409.51 1411.396 1413.324 1415.259 1418.928 1421.13 1423.392 1425.611 1427.664 1431.572 1434.026 1436.721 1439.115 1440.616 1442.092 1442.692 1443.274 1443.829 1444.226 1445.5 1446.518 1447.603 
1419.668 1418.891 1418.07 1417.252 1415.188 1413.906 1412.606 1411.329 1409.948 1408.53 1406.008 1404.718 1403.542 1402.886 1402.244 1401.087 1401.209 1401.907 1402.657 1403.562 1406.708 1408.614 1410.494 1412.387 1414.288 1418.359 1420.664 1423.011 1425.267 1427.359 1431.345 1433.869 1436.513 1438.924 1440.47 1441.863 1442.541 1443.069 1443.626 1444.088 1445.375 1446.617 1447.835 
1418.427 1417.674 1417.007 1416.32 1414.43 1413.258 1412.03 1410.714 1409.312 1406.775 1405.514 1404.227 1403.542 1402.701 1401.323 1400.951 1401.052 1401.478 1402.115 1402.798 1405.481 1407.358 1409.591 1411.724 1413.598 1417.88 1420.288 1422.599 1424.817 1426.877 1430.975 1433.365 1435.795 1438.217 1440 1441.348 1441.99 1442.6 1443.196 1443.635 1445.166 1446.412 1447.627 
1416.877 1416.141 1415.624 1415.134 1413.473 1412.474 1411.304 1409.953 1408.598 1406.285 1405.514 1404.227 1403.239 1402.532 1401.11 1400.844 1400.981 1400.949 1401.403 1402.908 1404.069 1406.098 1408.802 1411.293 1415.524 1417.625 1419.941 1422.254 1424.37 1426.349 1430.334 1432.61 1434.967 1437.208 1439.048 1440.92 1441.485 1442.125 1442.725 1443.161 1444.369 1445.542 1447.046 
1415.552 1414.846 1414.283 1413.822 1412.485 1411.675 1410.52 1409.101 1408.598 1406.285 1405.095 1403.792 1402.939 1402.351 1401.006 1400.746 1400.712 1400.925 1401.248 1402.1 1402.94 1405.133 1408.212 1411.106 1415.692 1417.78 1419.789 1421.923 1423.98 1427.777 1429.683 1431.711 1433.983 1436.12 1439.489 1440.36 1440.952 1441.501 1442.214 1442.708 1443.268 1444.27 1445.933 
1414.563 1413.811 1413.143 1412.619 1411.501 1410.656 1410.52 1409.101 1407.908 1405.886 1404.715 1403.525 1402.738 1402.153 1400.905 1400.561 1400.65 1400.729 1400.852 1401.93 1402.98 1405.22 1408.249 1411.174 1415.944 1417.875 1419.778 1421.764 1423.69 1427.331 1429.158 1431.044 1432.97 1434.973 1438.249 1439.488 1440.2 1440.824 1441.407 1441.746 1441.936 1442.646 1444.092 
1413.807 1412.896 1412.196 1411.649 1411.501 1410.656 1409.73 1408.564 1407.451 1405.406 1404.23 1403.253 1402.564 1401.959 1400.739 1400.534 1400.447 1400.501 1400.741 1402.211 1403.516 1405.806 1408.565 1411.342 1416.111 1417.956 1419.777 1421.606 1423.445 1427.009 1428.9 1430.676 1432.175 1433.849 1436.978 1438.129 1439.164 1439.897 1440.333 1440.443 1440.555 1441.121 1442.317 
1413.198 1412.195 1411.244 1411.649 1410.216 1409.508 1408.52 1407.674 1406.948 1404.99 1403.808 1402.984 1402.377 1401.76 1400.535 1400.262 1400.193 1400.31 1400.764 1402.624 1404.163 1406.429 1409.083 1411.731 1416.274 1418.037 1419.768 1421.517 1423.265 1426.752 1428.398 1429.983 1431.401 1432.938 1435.866 1436.997 1437.842 1438.511 1438.941 1438.988 1439.068 1439.569 1440.8 
1412.231 1412.195 1411.244 1410.426 1408.744 1408.305 1407.535 1406.96 1406.526 1404.61 1403.557 1402.852 1402.291 1401.633 1400.331 1400.043 1400.107 1400.341 1400.917 1402.941 1404.791 1406.998 1409.428 1411.978 1416.43 1418.039 1419.651 1421.38 1423.095 1426.499 1428.097 1429.602 1430.903 1432.153 1434.862 1435.865 1436.566 1436.933 1437.15 1437.558 1437.864 1438.435 1439.294 
1412.231 1411.103 1410.066 1408.947 1406.938 1406.37 1406.26 1406.264 1406.005 1404.314 1403.344 1402.736 1402.16 1401.433 1400.131 1399.908 1400.043 1400.538 1401.333 1403.332 1405.253 1407.415 1409.694 1412.056 1416.386 1418.083 1419.59 1421.233 1422.916 1426.176 1427.844 1429.239 1430.423 1431.496 1433.606 1434.557 1435.226 1435.511 1435.66 1436.201 1436.688 1437.304 1438.063 
1411.536 1410.286 1408.874 1407.351 1404.973 1404.603 1404.993 1405.588 1405.606 1404.022 1403.217 1402.654 1402.054 1401.408 1400.059 1399.953 1400.117 1400.828 1401.821 1403.802 1405.645 1407.64 1409.847 1412.151 1416.239 1417.851 1419.484 1421.042 1422.587 1425.912 1427.502 1428.821 1429.882 1430.857 1432.537 1433.205 1433.74 1434.109 1434.25 1434.83 1435.371 1436.006 1436.744 
1410.067 1408.658 1407.346 1406.079 1403.599 1403.411 1403.779 1404.476 1404.871 1403.642 1403.078 1402.516 1401.918 1401.274 1399.769 1400.278 1400.891 1401.473 1402.132 1403.874 1405.778 1407.816 1409.898 1412.084 1416.101 1417.717 1419.195 1420.729 1422.324 1425.479 1427.077 1428.354 1429.376 1430.309 1431.762 1432.212 1432.432 1432.619 1432.632 1432.834 1433.426 1434.239 1435.123 
1409.611 1408.474 1407.215 1404.432 1403.366 1402.859 1403.043 1403.458 1403.738 1403.237 1402.781 1402.235 1401.614 1401 1400.313 1400.505 1401.012 1401.623 1402.175 1403.938 1405.841 1407.812 1409.804 1411.899 1415.852 1417.465 1418.911 1420.415 1421.988 1425.126 1426.691 1427.99 1428.948 1429.741 1430.993 1431.286 1431.373 1431.184 1430.874 1430.474 1430.975 1431.963 1433.109 
1408.201 1407.501 1406.713 1403.987 1403.072 1402.413 1402.389 1402.672 1402.86 1402.608 1402.274 1401.734 1401.139 1400.299 1400.377 1400.612 1401.034 1401.593 1402.152 1404.003 1405.828 1407.768 1409.716 1411.709 1415.609 1417.155 1418.682 1420.222 1421.677 1424.652 1426.056 1427.415 1428.453 1429.131 1429.995 1430.15 1430.047 1429.677 1429.112 1428.349 1428.828 1429.867 1431.116 
1407.212 1406.673 1405.73 1403.588 1402.771 1402.054 1401.802 1401.846 1401.935 1401.69 1401.421 1401.03 1400.606 1400.082 1400.165 1400.55 1400.972 1401.461 1402.796 1404.037 1405.797 1407.649 1409.513 1413.352 1415.324 1416.903 1418.301 1419.74 1421.235 1424.099 1425.43 1426.802 1427.838 1428.367 1428.86 1428.878 1428.635 1428.187 1427.608 1426.886 1427.228 1428.094 1429.28 
1406.105 1405.753 1405.163 1403.289 1402.489 1401.621 1401.169 1401.049 1400.728 1400.716 1400.661 1400.335 1399.828 1399.664 1399.924 1400.408 1400.852 1401.329 1402.657 1403.784 1405.518 1407.392 1409.216 1412.978 1414.875 1416.427 1417.806 1419.168 1421.901 1423.382 1424.731 1425.85 1426.762 1427.452 1427.651 1427.518 1427.247 1426.848 1426.344 1425.905 1426.284 1426.851 1427.676 
1405.37 1404.89 1404.381 1402.893 1402.008 1401.106 1400.749 1400.416 1399.788 1399.706 1399.757 1399.552 1399.238 1399.151 1399.476 1400.104 1400.553 1401.032 1402.522 1403.488 1405.149 1407.009 1408.833 1412.501 1414.406 1415.949 1417.233 1418.435 1420.842 1422.428 1423.763 1424.823 1425.582 1426.277 1426.314 1426.175 1425.873 1425.484 1424.849 1424.929 1425.341 1425.876 1426.514 
1404.51 1404.137 1403.661 1402.296 1401.494 1400.637 1399.938 1399.51 1399.075 1398.9 1398.702 1398.546 1398.474 1398.627 1399.028 1399.521 1400.078 1400.8 1402.382 1403.248 1404.733 1406.476 1408.261 1411.963 1413.853 1415.566 1416.938 1418.066 1420.147 1421.448 1422.653 1423.65 1424.417 1425.175 1425.182 1424.96 1424.63 1424.277 1423.82 1423.958 1424.259 1424.829 1425.311 
1403.558 1403.302 1402.792 1401.288 1400.8 1400.054 1399.211 1398.753 1398.174 1397.958 1397.847 1397.633 1397.548 1398.078 1398.587 1399.258 1399.942 1400.617 1402.168 1402.861 1404.187 1405.892 1407.694 1411.488 1413.318 1415.172 1416.564 1417.624 1419.46 1420.422 1421.41 1422.362 1423.209 1423.991 1424.159 1423.973 1423.585 1423.195 1422.518 1422.357 1422.306 1422.719 1423.181 
1402.208 1401.848 1401.425 1400.036 1399.285 1399.003 1398.491 1397.751 1397.382 1396.974 1396.657 1396.792 1397.164 1397.987 1398.68 1399.466 1400.129 1400.651 1401.941 1402.567 1403.612 1405.188 1407.066 1410.9 1412.76 1414.75 1416.215 1417.172 1418.731 1419.444 1420.3 1421.211 1422.053 1422.905 1423.06 1422.999 1422.797 1422.275 1420.861 1420.265 1419.702 1419.609 1419.913 
1400.609 1400.312 1399.902 1398.805 1398.176 1397.304 1396.87 1396.587 1396.082 1395.645 1395.383 1395.513 1395.91 1397.131 1398.044 1398.866 1399.536 1400.063 1401.363 1402.183 1403.038 1404.494 1406.406 1410.246 1412.198 1414.245 1415.811 1416.765 1418.238 1418.952 1419.61 1420.292 1420.978 1421.901 1422.127 1422.118 1421.995 1421.544 1419.378 1418.33 1417.402 1416.883 1416.925 
1398.829 1398.554 1398.202 1397.443 1396.913 1396.282 1395.702 1395.259 1394.596 1394.346 1394.181 1394.282 1394.744 1396.411 1397.33 1397.962 1398.62 1399.426 1401.036 1401.8 1402.589 1403.905 1405.7 1409.557 1411.557 1413.635 1415.315 1416.432 1418.005 1418.68 1419.271 1419.844 1420.383 1421.268 1421.455 1421.331 1421.081 1420.652 1418.485 1417.043 1415.889 1415.134 1414.961 
1396.814 1396.636 1396.522 1395.943 1395.61 1395.298 1394.81 1394.232 1393.326 1393.108 1393.027 1393.235 1393.839 1395.414 1396.318 1397.314 1398.228 1399.054 1400.646 1401.474 1402.265 1403.341 1404.933 1408.807 1410.793 1412.853 1414.776 1416.157 1417.644 1418.269 1418.856 1419.444 1419.98 1420.775 1420.862 1420.765 1420.43 1419.825 1417.598 1416.24 1414.829 1413.801 1413.311 
1395.008 1395.083 1395.231 1395.023 1394.498 1393.988 1393.597 1392.633 1392.209 1391.997 1391.994 1392.399 1393.117 1394.747 1395.732 1396.829 1397.815 1398.644 1400.304 1401.13 1401.94 1402.82 1404.12 1407.957 1409.995 1411.993 1414.09 1415.744 1417.111 1417.691 1418.225 1418.792 1419.349 1420.019 1420.274 1420.323 1419.871 1419.026 1416.788 1415.578 1413.91 1413.801 1413.311 
1393.816 1394.116 1394.305 1393.938 1393.541 1393.07 1392.516 1391.466 1391.138 1391.012 1391.213 1391.72 1393.278 1394.191 1395.153 1396.171 1397.129 1398.846 1399.698 1400.59 1401.465 1402.283 1403.405 1407.038 1409.033 1411.064 1413.152 1414.95 1416.605 1417.117 1417.67 1418.186 1418.632 1419.323 1419.623 1419.722 1419.41 1418.59 1416.238 1415.578 1413.91 1412.458 1411.802 
1393.019 1393.301 1393.381 1393.033 1392.613 1392.133 1391.566 1390.625 1390.364 1390.316 1390.594 1391.132 1392.714 1393.655 1394.544 1395.438 1396.303 1398.038 1398.991 1399.967 1400.902 1401.81 1404.221 1406.125 1408.043 1410.064 1412.016 1415.347 1416.097 1416.587 1417.052 1417.524 1417.982 1418.651 1418.856 1418.942 1418.751 1418.031 1416.238 1414.776 1412.836 1411.205 1410.24 
1392.263 1392.546 1392.391 1392.087 1391.629 1391.122 1390.651 1389.93 1389.686 1389.703 1390.075 1390.651 1392.302 1393.276 1394.15 1395.049 1395.912 1397.547 1398.544 1399.47 1400.366 1401.324 1403.404 1405.166 1407.098 1408.991 1410.792 1414.131 1415.379 1416.048 1416.44 1416.849 1417.626 1417.866 1417.98 1417.971 1418.751 1416.896 1415.781 1413.717 1411.644 1409.758 1408.137 
1391.305 1391.6 1391.471 1391.081 1390.659 1390.238 1389.799 1389.252 1389.074 1389.162 1389.596 1390.232 1391.906 1392.778 1393.698 1394.609 1395.44 1397.019 1397.965 1398.928 1399.845 1400.795 1402.814 1404.312 1406.119 1407.834 1409.5 1412.656 1413.968 1415.041 1415.813 1416.247 1416.713 1416.967 1417.98 1417.971 1417.775 1416.368 1414.897 1412.578 1410.18 1407.964 1404.914 
1390.235 1390.49 1390.355 1390.036 1389.634 1389.214 1388.821 1388.586 1388.487 1388.657 1389.104 1389.784 1391.551 1392.452 1393.272 1394.086 1394.914 1396.446 1397.345 1398.337 1399.314 1400.252 1402.279 1403.522 1405.066 1406.631 1408.12 1411.099 1412.349 1413.494 1414.436 1415.079 1416.713 1416.967 1417.141 1417.136 1416.95 1415.573 1413.638 1411.283 1408.896 1406.444 1402.999 
1389.001 1389.023 1388.892 1388.776 1388.571 1388.251 1387.92 1387.734 1387.927 1388.217 1388.684 1389.373 1391.181 1392.157 1392.904 1393.615 1394.35 1395.749 1396.608 1397.584 1398.627 1399.633 1401.624 1402.713 1403.982 1405.481 1406.998 1409.687 1410.88 1411.942 1414.436 1415.079 1415.929 1416.048 1416.149 1416.173 1415.86 1413.833 1411.949 1409.745 1407.459 1405.045 1402.306 
1387.629 1387.551 1387.428 1387.315 1387.281 1387.162 1386.949 1386.862 1387.261 1387.659 1388.171 1388.88 1390.739 1391.651 1392.435 1393.12 1393.764 1395.071 1395.786 1396.68 1397.735 1398.823 1400.83 1401.891 1402.971 1404.316 1405.789 1408.264 1409.365 1411.942 1412.759 1413.387 1414.317 1414.464 1414.427 1414.266 1413.844 1411.844 1410.283 1408.425 1406.331 1404.222 1402.098 
1386.073 1386.03 1385.892 1385.8 1385.697 1385.722 1385.813 1385.936 1386.27 1386.757 1387.355 1388.095 1389.859 1390.903 1391.72 1392.372 1393.041 1394.406 1395.053 1395.799 1396.696 1397.76 1399.941 1401.002 1402.116 1403.31 1404.534 1408.264 1409.365 1410.35 1411.07 1411.642 1412.455 1412.532 1412.486 1412.268 1411.705 1409.607 1408.317 1406.898 1405.07 1403.516 1401.846 
1384.375 1384.347 1384.385 1384.266 1384.198 1384.255 1384.392 1384.645 1384.842 1385.386 1386.096 1386.897 1388.663 1389.711 1390.702 1391.518 1392.218 1393.547 1394.199 1394.958 1395.743 1396.627 1398.788 1399.914 1401.017 1403.31 1404.534 1406.797 1407.831 1408.677 1409.211 1409.634 1410.509 1410.759 1410.472 1410.089 1409.572 1407.814 1406.566 1405.118 1403.741 1402.708 1401.451 
1382.986 1382.958 1382.957 1382.955 1382.955 1383.043 1383.125 1383.178 1383.291 1383.741 1384.37 1385.163 1387.184 1388.188 1389.252 1390.332 1391.272 1392.624 1393.274 1394.015 1394.764 1395.535 1397.456 1399.914 1401.017 1402.137 1403.302 1405.417 1406.212 1406.948 1407.58 1408.076 1408.718 1408.672 1408.568 1408.097 1407.483 1406.086 1404.897 1403.7 1402.834 1402.127 1401.029 
1381.707 1381.531 1381.555 1381.715 1381.863 1381.941 1381.886 1381.867 1381.952 1382.136 1382.536 1383.235 1385.355 1386.532 1387.657 1388.811 1389.914 1391.57 1392.218 1392.924 1393.673 1395.535 1397.456 1398.614 1399.703 1400.809 1401.985 1404.075 1404.88 1405.717 1406.343 1406.693 1406.886 1406.927 1406.83 1406.486 1405.972 1404.34 1403.367 1402.686 1401.993 1401.282 1400.808 
1380.453 1380.147 1380.302 1380.568 1380.786 1380.84 1380.656 1380.59 1380.591 1380.631 1380.882 1382.293 1383.522 1384.828 1386.072 1387.255 1389.315 1390.201 1390.996 1391.68 1393.673 1394.402 1396.108 1397.124 1398.255 1399.375 1400.475 1402.672 1403.656 1404.364 1404.789 1405.031 1405.201 1405.279 1405.108 1404.774 1404.356 1403.09 1402.478 1401.683 1400.934 1400.412 1400.456 
1379.288 1379.06 1379.219 1379.438 1379.598 1379.599 1379.388 1379.333 1379.261 1379.224 1379.25 1380.571 1381.807 1383.13 1384.399 1385.637 1387.82 1388.658 1390.996 1391.68 1392.363 1393.928 1394.699 1395.604 1396.477 1397.493 1399.728 1400.79 1401.788 1402.607 1403.141 1403.44 1403.759 1403.685 1403.511 1403.22 1402.849 1402.039 1401.531 1401.05 1400.265 1399.533 1399.802 
1378.516 1378.438 1378.495 1378.582 1378.612 1378.585 1378.516 1378.514 1378.42 1378.411 1378.431 1379.122 1380.318 1381.66 1382.949 1384.123 1387.82 1388.658 1389.474 1390.276 1391.033 1392.519 1393.254 1394.006 1394.799 1395.637 1397.451 1398.455 1399.479 1400.106 1400.588 1401.335 1401.618 1401.694 1401.675 1401.614 1401.072 1400.872 1400.488 1399.975 1399.58 1399.144 1398.856 
1377.981 1377.912 1378.057 1377.932 1377.866 1377.919 1377.923 1377.914 1377.897 1377.837 1377.846 1378.506 1379.232 1380.429 1382.949 1384.123 1386.369 1387.256 1388.078 1388.854 1389.595 1391.056 1391.719 1392.443 1393.185 1393.975 1395.407 1395.994 1396.573 1397.268 1397.878 1398.765 1399.141 1399.522 1399.746 1399.792 1399.499 1399.234 1399.112 1398.931 1398.668 1398.266 1398.015 
1377.443 1377.355 1377.229 1377.095 1377.228 1377.377 1377.306 1377.398 1377.238 1377.151 1377.312 1378.126 1378.618 1380.429 1381.69 1382.861 1384.913 1385.89 1386.742 1387.499 1388.19 1389.603 1390.262 1390.844 1391.46 1392.169 1393.531 1394.016 1394.367 1394.541 1394.841 1395.576 1396.017 1396.476 1397.019 1397.488 1397.762 1397.669 1397.482 1397.548 1397.588 1397.23 1397.199 
1376.891 1376.909 1376.414 1376.337 1376.641 1376.779 1376.783 1376.507 1376.41 1376.556 1376.835 1378.126 1378.618 1379.519 1380.626 1381.71 1383.604 1384.464 1385.364 1386.172 1386.853 1388.145 1388.721 1389.342 1389.945 1390.519 1391.549 1391.949 1392.222 1392.276 1392.198 1392.682 1393.313 1394.032 1394.781 1395.412 1396.035 1396.137 1396.23 1396.232 1396.3 1396.061 1395.872 
1376.349 1375.919 1375.636 1375.666 1375.956 1376.28 1375.782 1375.63 1375.795 1376.556 1376.835 1377.718 1378.272 1378.817 1379.684 1380.719 1382.435 1383.118 1383.854 1384.61 1385.348 1386.69 1387.255 1387.965 1388.555 1389.011 1389.97 1390.293 1390.476 1390.509 1390.447 1390.972 1391.845 1392.57 1393.215 1393.801 1394.683 1395.102 1395.317 1395.357 1395.239 1394.842 1394.731 
1375.8 1375.054 1374.941 1375.04 1375.425 1375.673 1374.933 1375.63 1375.795 1376.075 1376.404 1377.301 1377.886 1378.335 1378.797 1379.569 1381.299 1381.964 1382.63 1383.23 1383.867 1385.238 1385.804 1386.363 1386.986 1387.58 1388.334 1388.881 1389.134 1389.257 1389.392 1390.139 1390.777 1391.578 1392.324 1392.94 1393.987 1394.312 1394.424 1394.366 1394.211 1393.704 1393.505 
1374.755 1374.13 1374.146 1374.422 1374.511 1375.673 1374.933 1375.044 1375.281 1375.608 1375.998 1376.876 1377.393 1377.888 1378.323 1378.774 1380.143 1380.687 1381.216 1381.827 1382.48 1383.775 1384.347 1384.901 1385.531 1386.094 1386.778 1387.484 1387.937 1388.12 1388.311 1389.402 1390.06 1390.778 1391.552 1392.191 1393.223 1393.504 1393.536 1393.394 1393.152 1392.466 1392.263 
1372.83 1372.841 1373.109 1373.024 1374.511 1374.449 1374.641 1374.611 1374.746 1375.087 1375.52 1376.462 1376.885 1377.365 1377.822 1378.236 1378.906 1379.138 1379.752 1380.482 1381.12 1382.414 1382.914 1383.392 1383.809 1384.26 1385.308 1386.172 1386.664 1386.951 1387.355 1388.654 1389.244 1389.999 1390.812 1391.456 1392.322 1392.615 1392.61 1392.376 1392.058 1391.311 1391.128 
1371.589 1371.674 1373.109 1373.024 1373 1373.767 1374.113 1374.027 1374.168 1374.561 1375.478 1375.956 1376.444 1376.883 1377.298 1377.689 1378.245 1378.48 1378.7 1379.171 1379.865 1381.068 1381.561 1381.974 1382.36 1382.749 1383.53 1384.2 1384.884 1385.595 1386.433 1387.824 1388.483 1389.231 1389.995 1390.627 1391.559 1391.576 1391.49 1391.253 1390.929 1390.466 1390.359 
1371.589 1371.674 1371.616 1371.633 1371.954 1372.816 1373.215 1373.553 1373.809 1374.13 1374.947 1375.422 1375.927 1376.365 1376.78 1377.378 1377.618 1377.932 1378.197 1378.471 1379.258 1379.812 1380.235 1380.566 1380.818 1381.047 1381.865 1382.402 1383.076 1383.973 1385.103 1386.933 1387.771 1388.684 1389.395 1389.892 1390.607 1390.652 1390.582 1390.391 1390.127 1389.731 1389.67 
1370.445 1370.399 1370.583 1370.801 1371.059 1371.961 1372.44 1372.928 1373.274 1373.607 1374.516 1374.997 1375.425 1375.829 1376.261 1376.76 1377.076 1377.408 1377.741 1378.02 1378.59 1378.741 1378.873 1379.142 1379.367 1379.865 1380.31 1380.869 1381.671 1382.788 1385.182 1386.355 1387.375 1388.122 1388.689 1389.127 1389.603 1389.682 1389.678 1389.501 1389.248 1388.941 1389.024 
1369.165 1369.43 1369.701 1370.043 1370.476 1371.199 1371.668 1372.242 1372.829 1373.265 1374.081 1374.488 1374.969 1375.42 1375.792 1376.337 1376.657 1376.913 1377.213 1377.508 1377.977 1378.221 1378.394 1378.483 1378.547 1378.786 1378.938 1379.611 1380.573 1381.664 1384.02 1385.471 1386.406 1387.206 1387.903 1388.621 1388.7 1388.665 1388.701 1388.667 1388.47 1388.215 1388.354 
1368.244 1368.529 1368.903 1369.272 1369.648 1370.782 1371.43 1371.728 1372.158 1372.679 1373.668 1374.073 1374.476 1374.885 1375.314 1375.826 1376.216 1376.497 1376.788 1377.09 1377.351 1377.58 1377.685 1377.806 1378.029 1378.452 1378.705 1379.031 1379.855 1380.941 1383.223 1384.464 1385.417 1386.358 1387.049 1387.574 1387.734 1387.662 1387.615 1387.677 1387.618 1387.536 1387.653 
1367.415 1367.754 1368.168 1368.59 1368.972 1369.858 1370.428 1371.186 1371.964 1372.329 1372.929 1373.428 1373.926 1374.374 1374.748 1375.293 1375.61 1375.948 1376.237 1376.388 1376.638 1376.876 1377.068 1377.308 1377.578 1378.206 1378.548 1378.913 1379.568 1380.381 1382.516 1383.783 1384.787 1385.507 1385.974 1386.58 1386.709 1386.693 1386.707 1386.724 1387.039 1387.051 1387.083 
1366.947 1367.23 1367.553 1368 1368.44 1369.388 1369.889 1370.454 1370.932 1371.715 1373.283 1373.06 1373.44 1373.977 1374.327 1374.887 1375.209 1375.543 1375.829 1376.004 1376.29 1376.565 1376.91 1377.32 1377.714 1378.411 1378.699 1378.996 1379.6 1380.317 1382.046 1382.76 1383.731 1384.499 1384.931 1385.548 1385.693 1385.747 1385.785 1385.871 1386.111 1386.299 1386.49 
1366.647 1366.837 1367.049 1367.453 1367.944 1368.961 1369.459 1370.014 1370.544 1371.029 1372.125 1373.56 1374.488 1374.238 1373.98 1374.696 1375.015 1375.298 1375.559 1375.878 1376.556 1377.047 1377.502 1377.87 1378.196 1378.867 1378.974 1379.376 1380.07 1381.001 1382.884 1382.914 1383.266 1383.607 1383.938 1384.369 1384.51 1384.63 1384.748 1384.872 1385.085 1385.153 1385.437 
1366.238 1366.509 1366.744 1367.075 1367.539 1368.73 1369.159 1369.682 1370.224 1370.711 1371.679 1372.125 1372.472 1374.058 1375.811 1375.032 1375.24 1375.6 1376.044 1376.566 1377.624 1377.975 1378.26 1378.552 1378.824 1379.092 1379.429 1380.279 1381.171 1382.013 1383.282 1383.515 1383.674 1383.575 1383.451 1383.466 1383.412 1383.411 1383.534 1383.665 1383.903 1383.933 1384.14 
1366.05 1366.215 1366.443 1366.653 1367.056 1368.422 1369.081 1369.701 1370.126 1370.506 1371.48 1371.963 1372.537 1373.092 1373.508 1377.059 1377.708 1377.25 1377.292 1377.89 1378.576 1378.78 1378.873 1378.923 1379.042 1379.788 1380.468 1381.45 1382.191 1382.637 1383.295 1383.498 1383.467 1383.297 1383.158 1382.823 1382.641 1382.4 1382.29 1382.372 1382.556 1382.577 1382.789 
1365.757 1365.986 1366.303 1366.556 1367.552 1368.203 1368.936 1369.633 1370.231 1370.959 1371.647 1372.169 1372.727 1373.422 1374.335 1376.351 1377.26 1378.37 1378.91 1378.86 1378.978 1379.001 1379.059 1379.26 1379.602 1381.105 1381.657 1382.124 1382.501 1382.738 1383.057 1383.135 1383.218 1383.094 1382.792 1382.261 1382.004 1381.754 1381.438 1381.201 1381.226 1381.303 1381.474 
1365.45 1365.758 1366.101 1366.405 1367.261 1368.062 1368.82 1369.567 1370.27 1371.831 1372.819 1373.918 1374.053 1374.475 1375.669 1377.873 1378.63 1378.932 1378.989 1379.03 1379.232 1379.389 1379.685 1380.173 1380.676 1381.62 1381.837 1381.899 1382.035 1382.231 1382.583 1382.638 1382.655 1382.714 1382.605 1381.76 1381.462 1381.148 1380.768 1380.386 1379.976 1379.974 1380.227 
1365.243 1365.548 1365.949 1366.348 1367.247 1367.956 1368.619 1369.447 1370.29 1371.788 1372.798 1373.961 1375.179 1376.316 1377.928 1378.66 1378.942 1379.097 1379.292 1379.536 1379.703 1380.035 1380.6 1380.963 1381.1 1381.313 1381.341 1381.32 1381.376 1381.554 1381.96 1382.04 1382.124 1382.151 1382.071 1381.451 1380.909 1380.475 1380.078 1379.642 1379.055 1378.953 1379.178 
1364.956 1365.383 1365.857 1366.241 1367.13 1367.848 1368.602 1369.334 1370.005 1371.526 1372.652 1373.954 1375.22 1376.377 1378.449 1378.939 1379.133 1379.338 1379.55 1379.723 1380.01 1380.543 1380.674 1380.578 1380.531 1380.57 1380.56 1380.552 1380.661 1381.135 1381.331 1381.55 1381.644 1381.605 1381.497 1380.968 1380.452 1379.941 1379.486 1379.069 1378.49 1378.414 1378.59 
1365.011 1365.275 1365.676 1366.183 1367.039 1367.817 1368.58 1369.254 1369.848 1371.163 1372.163 1373.698 1375.184 1376.426 1378.566 1379.082 1379.271 1379.4 1379.481 1379.62 1379.96 1379.889 1379.798 1379.808 1379.75 1379.732 1379.749 1379.831 1380.023 1380.516 1380.806 1381.074 1381.234 1381.182 1380.74 1380.316 1379.836 1379.355 1378.936 1378.325 1378.067 1378.068 1378.271 
1364.85 1365.126 1365.592 1366.077 1367.016 1367.705 1368.368 1369.044 1369.682 1371.363 1372.482 1373.667 1374.919 1376.148 1378.385 1379.012 1379.169 1379.2 1379.172 1379.338 1379.312 1379.216 1379.183 1379.176 1379.024 1379.008 1379.073 1379.206 1379.4 1380.012 1380.343 1380.615 1380.814 1380.755 1380.058 1379.628 1379.217 1378.846 1378.461 1377.854 1377.655 1377.682 1378.271 
1364.709 1365.098 1365.582 1366.08 1366.9 1367.493 1368.117 1368.907 1369.735 1371.007 1371.788 1373.043 1374.435 1375.698 1377.679 1378.493 1378.761 1378.794 1378.819 1378.735 1378.688 1378.633 1378.585 1378.514 1378.322 1378.351 1378.411 1378.553 1378.82 1379.543 1379.932 1380.177 1380.276 1380.177 1379.401 1379.028 1378.691 1378.365 1377.974 1377.344 1377.655 1377.682 1377.889 
1364.885 1364.962 1365.38 1365.99 1366.794 1367.298 1367.855 1368.455 1369.009 1370.019 1370.759 1372.206 1373.618 1374.767 1376.689 1377.311 1377.693 1377.908 1378.002 1377.92 1377.85 1377.838 1377.805 1377.724 1377.589 1377.615 1377.708 1377.933 1378.295 1379.148 1379.466 1379.676 1379.709 1379.547 1378.95 1378.609 1378.269 1377.934 1377.535 1377.344 1377.225 1377.264 1377.468 
1364.781 1364.807 1365.173 1365.76 1366.657 1367.086 1367.625 1368.186 1368.689 1369.823 1370.854 1371.694 1372.655 1373.78 1375.361 1376.012 1376.44 1376.721 1376.924 1376.985 1377.013 1377.01 1377.038 1377.02 1376.982 1377.018 1377.138 1377.403 1377.774 1378.728 1379.052 1379.153 1379.111 1378.937 1378.402 1378.124 1377.786 1377.934 1377.535 1376.919 1376.888 1376.95 1377.093 
1364.648 1364.713 1365.019 1365.546 1366.417 1366.78 1367.266 1367.757 1368.245 1369.713 1370.315 1370.685 1371.547 1372.639 1373.829 1374.735 1375.171 1375.526 1375.894 1376.11 1376.19 1376.233 1376.266 1376.28 1376.368 1376.441 1376.609 1376.895 1377.274 1378.076 1378.376 1378.481 1378.435 1378.279 1377.867 1378.124 1377.786 1377.483 1377.22 1376.508 1376.487 1376.562 1376.688 
1364.434 1364.473 1364.778 1365.312 1366.099 1366.47 1366.829 1367.235 1367.862 1369.064 1369.471 1369.964 1370.688 1371.381 1372.233 1373.353 1373.943 1374.256 1374.662 1375.245 1375.372 1375.449 1375.492 1375.537 1375.752 1375.871 1376.091 1376.359 1376.663 1377.357 1377.502 1377.585 1377.604 1378.279 1377.867 1377.619 1377.344 1377.028 1376.724 1376.256 1376.097 1376.132 1376.27 
1364.14 1364.074 1364.368 1365.404 1365.804 1366.152 1366.441 1366.861 1367.418 1368.393 1368.689 1369.386 1370.057 1370.406 1371.029 1372.067 1372.695 1372.944 1373.391 1374.268 1374.468 1374.654 1374.761 1374.833 1375.144 1375.365 1375.552 1375.75 1376.043 1376.497 1376.576 1377.585 1377.604 1377.561 1377.282 1377.021 1376.816 1376.584 1376.298 1375.975 1375.876 1375.77 1375.885 
1363.771 1363.741 1363.932 1365.2 1365.594 1365.757 1365.986 1366.364 1367.265 1367.664 1368.047 1368.626 1369.175 1369.793 1370.174 1370.907 1371.414 1371.738 1372.133 1373.186 1373.52 1373.757 1374.016 1374.249 1374.466 1374.629 1374.886 1375.156 1375.397 1375.656 1376.576 1376.665 1376.629 1376.654 1376.682 1376.484 1376.304 1376.074 1375.827 1375.577 1375.48 1375.494 1375.63 
1363.358 1363.535 1363.819 1365.036 1365.198 1365.187 1365.396 1365.797 1366.574 1366.99 1367.453 1367.872 1368.282 1368.923 1369.293 1369.876 1370.325 1370.694 1371.48 1372.192 1372.648 1372.976 1373.112 1373.55 1373.731 1373.933 1374.195 1374.488 1375.397 1375.656 1375.662 1375.667 1375.694 1375.723 1375.964 1375.882 1375.765 1375.616 1375.419 1375.162 1375.139 1375.193 1375.315 
1362.838 1363.074 1363.684 1364.525 1364.694 1364.557 1364.709 1365.193 1365.975 1366.292 1366.682 1367.025 1367.355 1368.099 1368.424 1368.909 1369.397 1369.847 1370.807 1371.301 1371.657 1371.995 1372.214 1372.693 1373.078 1373.348 1374.195 1374.488 1374.675 1374.745 1374.809 1374.756 1374.756 1374.9 1375.081 1375.226 1375.183 1375.059 1374.95 1374.844 1374.833 1374.872 1375.043 
1362.464 1362.615 1362.774 1363.835 1363.966 1363.856 1364.137 1364.677 1365.144 1365.492 1365.903 1366.254 1366.565 1367.266 1367.582 1368.074 1368.642 1369.186 1369.935 1370.328 1370.899 1371.271 1371.494 1371.995 1373.078 1373.348 1373.552 1373.657 1373.833 1373.911 1373.992 1373.945 1373.822 1374.065 1374.079 1374.194 1374.361 1374.418 1374.369 1374.437 1374.507 1374.629 1374.83 
1361.957 1361.925 1361.83 1362.808 1362.778 1362.995 1363.591 1363.952 1364.354 1364.708 1365.132 1365.568 1365.943 1366.499 1366.908 1367.464 1368.017 1368.527 1369.402 1369.815 1370.247 1370.741 1371.097 1371.995 1372.227 1372.556 1372.728 1372.768 1372.921 1372.994 1373.07 1373.086 1373.006 1373.054 1373.123 1373.427 1373.459 1373.5 1373.76 1373.826 1373.959 1374.234 1374.574 
1361.017 1361.021 1360.806 1361.46 1361.912 1362.472 1362.677 1362.626 1363.54 1364.114 1364.706 1364.959 1365.096 1365.897 1366.423 1367.047 1367.644 1368.167 1369.178 1369.606 1369.866 1370.741 1371.097 1371.444 1371.553 1371.601 1371.773 1371.944 1372.072 1372.145 1372.228 1372.256 1372.193 1372.129 1372.269 1372.293 1372.442 1372.601 1372.949 1373.185 1373.42 1373.702 1374.129 
1359.655 1359.647 1359.506 1359.94 1360.76 1361.227 1361.252 1361.633 1362.963 1363.307 1363.75 1364.057 1364.493 1365.459 1366.152 1366.871 1367.495 1368.047 1368.966 1369.606 1369.866 1370.37 1370.863 1371.008 1370.956 1370.989 1371.03 1371.123 1371.34 1371.417 1371.432 1371.426 1371.369 1371.291 1371.443 1371.449 1371.594 1371.815 1372.128 1372.439 1372.69 1373.019 1373.537 
1358.19 1358.03 1358.121 1358.705 1359.29 1359.794 1360.408 1361.062 1362.078 1362.442 1362.862 1363.345 1363.926 1365.17 1366.107 1366.811 1367.388 1368.047 1368.966 1369.33 1369.657 1369.921 1370.238 1370.599 1370.427 1370.459 1370.52 1370.469 1370.61 1370.617 1370.603 1370.593 1370.58 1370.55 1370.539 1370.664 1370.763 1370.905 1371.29 1371.521 1371.897 1372.304 1372.795 
1357.238 1356.966 1356.906 1357.554 1358.088 1358.714 1359.387 1359.972 1361.167 1361.836 1362.367 1362.872 1363.439 1364.931 1365.873 1366.811 1367.388 1367.922 1368.758 1369.036 1369.306 1369.497 1369.75 1370.119 1370.167 1370.057 1369.94 1369.859 1369.802 1369.876 1369.818 1369.76 1369.755 1369.734 1369.796 1369.865 1369.981 1370.18 1370.664 1370.906 1371.199 1371.614 1372.202 
1356.478 1356.117 1355.994 1356.533 1357.184 1357.756 1358.345 1359.056 1360.621 1361.308 1361.874 1362.458 1363.131 1364.717 1365.873 1366.659 1367.258 1367.735 1368.479 1368.736 1368.937 1369.058 1369.132 1369.574 1369.613 1369.602 1369.436 1369.227 1369.069 1368.98 1368.948 1368.941 1368.928 1368.904 1368.965 1369.099 1369.318 1369.528 1369.942 1370.259 1370.586 1370.942 1371.456 
1355.933 1355.417 1355.228 1355.702 1356.408 1357.11 1357.799 1358.509 1360.09 1360.841 1361.498 1362.135 1363.131 1364.717 1365.645 1366.482 1367.052 1367.416 1368.088 1368.355 1368.475 1368.587 1368.705 1369.076 1369.101 1369.023 1368.934 1368.772 1368.35 1368.25 1368.155 1368.108 1368.096 1368.17 1368.244 1368.373 1368.582 1368.832 1369.319 1369.551 1369.915 1370.314 1370.782 
1355.523 1354.946 1354.731 1355.11 1355.835 1356.573 1357.3 1358.795 1359.56 1360.318 1361.498 1362.135 1363.598 1364.433 1365.236 1365.951 1366.57 1367.034 1367.581 1367.763 1367.912 1368.076 1368.216 1368.289 1368.357 1368.314 1368.215 1368.094 1367.733 1367.633 1367.477 1367.331 1367.265 1367.347 1367.498 1367.657 1367.856 1368.138 1368.688 1368.924 1369.223 1369.534 1369.955 
1355.062 1354.571 1354.468 1354.742 1355.324 1356.067 1356.865 1358.377 1359.56 1360.318 1361.059 1361.795 1363.189 1363.95 1364.648 1365.314 1365.943 1366.931 1367.171 1367.331 1367.492 1367.615 1367.761 1367.756 1367.754 1367.695 1367.552 1367.363 1367.103 1366.935 1366.821 1366.679 1366.546 1366.63 1366.776 1367.001 1367.246 1367.482 1367.968 1368.207 1368.503 1368.878 1369.319 
1354.716 1354.279 1354.226 1354.499 1354.976 1355.646 1356.389 1358.377 1359.127 1359.897 1360.605 1361.312 1362.77 1363.443 1364.034 1364.68 1365.278 1366.252 1366.573 1366.819 1367.001 1367.117 1367.151 1367.138 1367.059 1366.961 1366.873 1366.57 1366.394 1366.29 1366.2 1366.108 1365.946 1366.019 1366.169 1366.39 1366.581 1366.79 1367.339 1367.575 1367.869 1368.237 1368.675 
1354.397 1353.995 1354.031 1354.363 1354.776 1355.646 1356.389 1357.852 1358.534 1359.157 1359.788 1360.529 1362.169 1362.834 1363.488 1364.116 1364.62 1365.43 1365.759 1366.006 1366.251 1366.411 1366.533 1366.523 1366.44 1366.347 1366.213 1365.86 1365.768 1365.682 1365.522 1365.419 1365.435 1365.511 1365.651 1365.808 1366.016 1366.397 1366.621 1366.861 1367.139 1367.501 1368.587 
1354.088 1353.655 1353.747 1354.363 1354.776 1355.385 1356.113 1357.476 1358.141 1358.747 1359.324 1360.004 1361.54 1362.208 1362.815 1363.345 1363.793 1364.592 1364.841 1365.148 1365.377 1365.479 1365.615 1365.683 1365.613 1365.576 1365.492 1365.248 1365.153 1365.059 1364.97 1364.87 1364.919 1364.996 1365.056 1365.254 1365.466 1365.884 1366.042 1366.267 1366.507 1366.852 1367.982 
1353.866 1353.655 1353.747 1354.173 1354.577 1355.161 1355.899 1357.243 1357.916 1358.462 1359.019 1359.574 1360.906 1361.509 1362.011 1362.567 1363.04 1363.669 1363.991 1364.252 1364.431 1364.581 1364.776 1364.767 1364.755 1364.746 1364.737 1364.717 1364.559 1364.448 1364.354 1364.297 1364.404 1364.481 1364.56 1364.749 1364.95 1365.368 1365.55 1365.773 1366.098 1366.434 1367.512 
1353.866 1353.386 1353.334 1353.856 1354.399 1354.993 1355.668 1357.027 1357.628 1358.148 1358.656 1359.165 1360.184 1360.688 1361.182 1361.68 1362.141 1362.833 1363.075 1363.236 1363.447 1363.615 1363.842 1363.928 1364.005 1364.031 1364.02 1364.008 1364 1363.933 1363.85 1363.806 1363.886 1363.961 1364.112 1364.275 1364.433 1364.881 1365.154 1365.415 1365.778 1366.208 1367.358 
1353.447 1353.029 1353.008 1353.507 1354.214 1354.895 1355.512 1356.716 1357.304 1357.836 1358.29 1358.709 1359.546 1359.883 1360.268 1360.745 1361.173 1361.801 1362.124 1362.233 1362.451 1362.69 1362.916 1363.076 1363.171 1363.249 1363.337 1363.391 1363.308 1363.279 1363.335 1363.389 1363.397 1363.485 1363.62 1363.785 1363.989 1364.504 1364.835 1365.187 1365.593 1366.071 1367.37 
1352.965 1352.644 1352.704 1353.26 1354.077 1354.81 1355.377 1356.492 1357.008 1357.52 1357.985 1358.371 1358.936 1359.256 1359.443 1359.727 1360.157 1360.859 1361.101 1361.265 1361.456 1361.714 1361.993 1362.134 1362.295 1362.469 1362.607 1362.76 1362.776 1362.769 1362.758 1362.794 1362.97 1363.132 1363.232 1363.42 1363.645 1364.191 1364.548 1364.975 1365.458 1366.002 1367.178 
1352.456 1352.27 1352.26 1352.82 1353.727 1354.523 1355.082 1356.096 1356.595 1357.041 1357.463 1357.863 1358.314 1358.542 1358.779 1359.079 1359.338 1359.82 1360.074 1360.24 1360.423 1360.707 1361.065 1361.205 1361.348 1361.542 1361.769 1362.038 1362.135 1362.159 1362.204 1362.289 1362.469 1362.624 1362.809 1363.032 1363.292 1363.916 1364.325 1364.811 1365.335 1365.895 1367.021 
1351.681 1351.651 1352.339 1352.946 1353.565 1354.203 1355.28 1355.682 1356.168 1356.625 1357.003 1357.303 1357.781 1357.95 1358.079 1358.384 1358.726 1359.013 1359.238 1359.419 1359.559 1359.737 1360.113 1360.268 1360.361 1360.456 1360.674 1361.265 1361.456 1361.589 1361.691 1361.781 1362.058 1362.217 1362.443 1362.712 1363.011 1363.716 1364.154 1364.641 1365.172 1365.742 1366.857 
1351.414 1351.413 1352.076 1352.661 1352.878 1353.369 1354.868 1355.267 1355.751 1356.144 1356.473 1357.021 1357.259 1357.433 1357.514 1357.658 1358.123 1358.203 1358.331 1358.486 1358.644 1358.792 1359.1 1359.244 1359.411 1359.573 1359.748 1360.309 1360.583 1360.863 1361.093 1361.274 1361.65 1361.838 1362.063 1362.339 1362.664 1363.466 1363.961 1364.461 1364.978 1365.52 1366.606 
1350.296 1350.851 1351.614 1351.547 1351.895 1352.727 1354.36 1354.841 1355.257 1355.615 1355.949 1356.486 1356.644 1356.803 1356.899 1357.006 1357.301 1357.45 1357.535 1357.653 1357.814 1358.039 1358.26 1358.359 1358.552 1358.77 1359.203 1359.441 1359.76 1360.103 1360.404 1360.677 1361.206 1361.456 1361.726 1361.995 1362.304 1363.106 1363.597 1364.091 1364.618 1365.151 1366.132 
1348.682 1349.663 1349.897 1350.465 1351.257 1351.891 1353.358 1354.245 1354.755 1355.098 1355.388 1355.859 1356.021 1356.175 1356.269 1356.384 1356.478 1356.542 1356.675 1356.771 1356.883 1357.209 1357.358 1357.531 1357.754 1358.004 1358.486 1358.727 1359.039 1359.365 1359.714 1360.353 1360.594 1360.83 1361.134 1361.471 1361.803 1362.627 1363.077 1363.6 1364.1 1364.558 1365.507 
1346.71 1347.698 1348.669 1349.103 1349.692 1350.632 1352.401 1353.2 1354.053 1354.583 1354.856 1355.235 1355.39 1355.475 1355.542 1355.613 1355.764 1355.824 1355.817 1355.908 1356.062 1356.382 1356.537 1356.788 1357.044 1357.294 1357.828 1358.099 1358.42 1358.745 1359.113 1359.738 1359.979 1360.22 1360.526 1360.862 1361.65 1362.109 1362.565 1363.056 1363.507 1364.368 1364.733 
1344.681 1346.268 1347.127 1347.948 1348.839 1349.755 1351.445 1352.167 1352.827 1353.448 1353.975 1354.478 1354.638 1354.738 1354.809 1354.881 1355.022 1355.025 1355.073 1355.142 1355.207 1355.556 1355.761 1356.052 1356.333 1356.623 1357.335 1357.668 1357.99 1358.346 1358.675 1359.306 1359.595 1359.844 1360.118 1360.398 1361.137 1361.55 1362.004 1362.43 1362.842 1363.593 1363.861 
1343.391 1345.089 1345.973 1346.802 1347.632 1348.531 1350.291 1351.014 1351.683 1352.304 1352.766 1353.407 1353.657 1353.836 1353.945 1354.017 1354.159 1354.238 1354.25 1354.28 1354.392 1354.776 1355.105 1355.376 1355.695 1356.048 1356.772 1357.133 1357.491 1357.877 1358.214 1358.778 1359.072 1359.33 1359.566 1359.819 1360.51 1360.875 1361.237 1361.601 1361.975 1362.578 1362.858 
1342.752 1344.225 1345.044 1345.858 1346.715 1347.54 1349.147 1349.878 1350.547 1351.11 1351.572 1352.264 1352.506 1352.674 1352.844 1352.98 1353.111 1353.181 1353.254 1353.353 1353.48 1354.021 1354.373 1354.752 1355.167 1355.543 1356.226 1356.642 1357.07 1357.43 1357.758 1358.311 1358.555 1358.765 1358.991 1359.263 1359.827 1360.152 1360.447 1360.729 1360.971 1361.444 1361.818 
1342.296 1343.393 1344.193 1345.028 1345.885 1346.683 1348.115 1348.831 1349.432 1350.002 1350.53 1351.151 1351.388 1351.541 1351.746 1351.94 1352.11 1352.182 1352.261 1352.44 1352.651 1353.188 1353.624 1354.119 1354.62 1355.042 1355.816 1356.231 1356.649 1357.012 1357.343 1357.908 1358.112 1358.273 1358.448 1358.668 1359.168 1359.437 1359.589 1359.735 1359.948 1360.295 1360.697 
1341.799 1342.711 1343.46 1344.308 1345.061 1345.785 1347.112 1347.71 1348.302 1348.817 1349.303 1350.125 1350.374 1350.465 1350.605 1350.825 1351.159 1351.26 1351.401 1351.568 1351.782 1352.402 1352.884 1353.407 1353.98 1354.531 1355.445 1355.863 1356.281 1356.654 1356.973 1357.439 1357.598 1357.762 1357.927 1358.101 1358.478 1358.773 1358.943 1359.086 1359.213 1359.366 1359.646 
1342.036 1342.562 1342.946 1343.581 1344.336 1345.04 1346.304 1346.773 1347.297 1347.76 1348.164 1349.035 1349.339 1349.475 1349.56 1349.733 1350.159 1350.32 1350.491 1350.703 1350.983 1351.683 1352.159 1352.718 1353.315 1353.979 1355.139 1355.556 1355.981 1356.333 1356.579 1356.922 1357.096 1357.219 1357.306 1357.45 1357.893 1358.163 1358.355 1358.523 1358.611 1359.366 1359.646 
1342.534 1342.084 1342.293 1342.914 1343.608 1345 1345.589 1346.074 1346.492 1346.848 1347.155 1347.83 1348.21 1348.483 1348.611 1348.728 1349.204 1349.399 1349.647 1349.924 1350.208 1350.954 1351.433 1352.015 1352.651 1353.392 1354.822 1355.252 1355.628 1355.944 1356.134 1356.409 1356.476 1356.577 1356.707 1356.856 1357.307 1357.553 1357.734 1357.895 1358.611 1358.615 1358.78 
1341.054 1341.545 1342.067 1342.448 1342.986 1344.377 1344.896 1345.37 1345.786 1346.146 1346.681 1346.86 1347.102 1347.368 1347.619 1347.893 1348.126 1348.344 1348.66 1349.041 1349.395 1350.238 1350.713 1351.323 1352.016 1352.759 1354.452 1354.952 1355.308 1355.543 1355.646 1355.833 1355.83 1355.941 1356.123 1356.274 1356.684 1356.933 1357.734 1357.895 1358.026 1357.978 1358.122 
1340.755 1341.21 1341.707 1342.099 1342.509 1343.731 1344.258 1344.736 1345.12 1345.442 1345.929 1346.027 1346.284 1346.405 1346.547 1346.804 1347.002 1347.118 1347.403 1347.785 1348.748 1349.37 1350 1350.599 1351.256 1352.942 1353.807 1354.557 1354.972 1355.106 1355.161 1355.235 1355.224 1355.287 1355.417 1355.592 1356.684 1356.933 1357.11 1357.266 1357.404 1357.438 1357.526 
1340.486 1340.907 1341.609 1342.088 1342.269 1343.022 1343.523 1343.999 1344.429 1344.75 1345.109 1345.243 1345.359 1345.474 1345.536 1345.679 1345.797 1345.896 1346.109 1346.41 1347.475 1348.128 1348.819 1349.52 1350.265 1351.955 1352.841 1353.681 1354.144 1354.312 1354.557 1354.599 1354.585 1354.61 1355.417 1355.822 1356.064 1356.302 1356.541 1356.743 1356.875 1356.928 1356.927 
1340.588 1340.992 1341.986 1342.472 1342.164 1342.403 1342.845 1343.291 1343.645 1343.908 1344.286 1344.358 1344.419 1344.542 1344.618 1344.519 1344.508 1344.611 1344.789 1345.126 1346.285 1346.985 1347.682 1348.438 1349.268 1350.875 1351.68 1352.36 1352.784 1353.039 1353.293 1353.417 1354.585 1354.61 1354.755 1355.207 1355.438 1355.75 1355.971 1356.13 1356.323 1356.321 1356.389 
1341.785 1342.167 1341.134 1340.853 1341.242 1341.769 1342.211 1342.584 1342.83 1343.039 1343.427 1343.505 1343.578 1343.631 1343.65 1343.507 1343.354 1343.238 1343.393 1343.903 1345.324 1346.073 1346.881 1347.61 1348.302 1349.715 1350.398 1350.949 1351.33 1351.602 1351.922 1353.417 1353.468 1353.546 1353.753 1354.552 1354.919 1355.171 1355.397 1355.604 1355.801 1355.792 1355.803 
1339.115 1339.201 1339.968 1340.61 1340.766 1341.015 1341.423 1341.743 1341.959 1342.146 1342.501 1342.581 1342.666 1342.655 1342.606 1342.477 1342.338 1342.15 1342.279 1342.857 1344.399 1345.085 1345.792 1346.518 1347.188 1348.3 1348.898 1349.436 1349.816 1351.602 1351.922 1352.065 1352.19 1352.37 1352.627 1353.504 1354.052 1354.6 1354.941 1355.069 1355.199 1355.271 1355.217 
1338.876 1338.877 1339.248 1339.903 1340.071 1340.109 1340.461 1340.765 1341.01 1341.181 1341.529 1341.621 1341.653 1341.649 1341.635 1341.563 1341.469 1341.426 1341.603 1342.052 1343.386 1344.104 1344.767 1345.451 1346.071 1347.046 1347.503 1349.436 1349.816 1350.13 1350.507 1350.719 1350.938 1351.146 1351.448 1352.284 1352.851 1353.437 1353.949 1354.337 1354.706 1354.702 1354.632 
1338.168 1337.976 1338.203 1338.914 1339.217 1339.076 1339.391 1339.742 1339.944 1340.041 1340.508 1340.55 1340.593 1340.678 1340.743 1340.755 1340.703 1340.771 1341.013 1341.413 1342.472 1343.16 1343.833 1344.506 1345.097 1347.046 1347.503 1347.822 1348.139 1348.399 1349.141 1349.322 1349.589 1349.907 1350.213 1350.951 1351.441 1351.933 1352.431 1352.834 1353.424 1353.499 1353.426 
1337.588 1336.904 1336.925 1337.608 1337.973 1338.03 1338.289 1338.511 1338.687 1338.923 1339.328 1339.433 1339.586 1339.73 1339.835 1339.942 1339.97 1340.13 1340.403 1340.798 1341.796 1342.317 1342.96 1343.603 1345.097 1346.069 1346.419 1346.736 1346.939 1347.008 1347.547 1347.862 1348.042 1348.29 1348.65 1349.525 1349.928 1350.382 1350.874 1351.324 1351.887 1352.036 1352.056 
1337.395 1336.552 1335.886 1335.994 1336.364 1336.71 1337.11 1337.19 1337.365 1337.769 1338.152 1338.377 1338.611 1338.794 1338.91 1339.041 1339.212 1339.43 1339.751 1340.163 1341.095 1341.648 1342.96 1343.603 1344.191 1345.07 1345.461 1345.767 1345.906 1345.961 1346.062 1346.221 1346.47 1346.599 1346.783 1347.694 1348.164 1348.638 1349.111 1349.588 1350.425 1350.59 1350.67 
1337.172 1336.512 1335.444 1334.78 1334.894 1335.191 1335.66 1335.923 1336.102 1336.764 1337.077 1337.372 1337.572 1337.79 1338.015 1338.245 1338.474 1338.761 1339.085 1339.476 1341.095 1341.648 1342.188 1342.747 1343.321 1344.126 1344.461 1344.743 1344.879 1344.943 1344.904 1344.978 1344.877 1344.865 1345.094 1345.917 1346.389 1346.858 1347.387 1347.928 1348.77 1349.013 1349.182 
1337.008 1336.289 1335.139 1334.084 1333.66 1333.858 1334.27 1334.588 1334.789 1335.529 1335.8 1336.1 1336.416 1336.742 1337.319 1337.525 1337.755 1338.059 1339.085 1339.956 1340.451 1340.97 1341.467 1341.974 1342.471 1343.117 1343.435 1343.651 1343.801 1343.899 1343.776 1343.613 1343.425 1343.209 1343.188 1344.23 1344.884 1345.474 1345.999 1346.402 1347.204 1347.466 1347.623 
1337.066 1335.645 1334.581 1333.588 1332.605 1332.824 1333.103 1333.343 1333.612 1334.272 1334.61 1334.986 1335.403 1335.777 1336.429 1336.791 1337.755 1338.059 1338.374 1339.259 1339.755 1340.18 1340.652 1341.126 1341.842 1342.081 1342.326 1342.506 1342.672 1342.752 1342.443 1342.329 1342.175 1341.944 1341.905 1342.962 1343.549 1344.116 1344.645 1345.101 1345.798 1346.04 1346.282 
1337.995 1335.728 1333.959 1332.645 1331.57 1331.738 1331.939 1332.223 1332.582 1333.318 1333.792 1334.164 1334.553 1334.935 1335.576 1336.791 1337.044 1337.321 1337.682 1338.521 1338.951 1339.428 1339.878 1340.261 1340.802 1341.042 1341.288 1341.474 1341.588 1341.591 1341.489 1341.389 1341.219 1341.088 1341.539 1341.947 1342.496 1343.073 1343.656 1344.173 1344.979 1345.247 1345.486 
1339.276 1336.991 1334.477 1332.559 1330.619 1330.513 1330.786 1331.16 1331.572 1332.498 1332.936 1333.33 1333.683 1334.935 1335.576 1335.988 1336.306 1336.663 1337.035 1337.8 1338.134 1338.54 1338.974 1339.299 1339.855 1340.022 1340.175 1340.337 1340.456 1340.467 1340.448 1340.431 1340.408 1340.423 1340.812 1341.214 1341.688 1342.241 1342.78 1343.753 1344.159 1344.502 1344.77 
1340.255 1338.273 1335.873 1333.639 1330.329 1329.867 1330.036 1330.297 1330.686 1331.663 1332.068 1333.33 1333.683 1334.006 1334.731 1335.075 1335.452 1335.87 1336.244 1336.902 1337.299 1337.645 1337.975 1338.307 1338.832 1338.986 1339.143 1339.243 1339.305 1339.43 1339.415 1339.387 1339.483 1339.646 1340.081 1340.479 1340.878 1341.391 1341.983 1343.02 1343.437 1343.786 1344.062 
1341.245 1339.373 1337.044 1334.639 1330.535 1329.662 1329.599 1329.802 1330.054 1331.663 1332.068 1332.484 1332.889 1333.243 1333.989 1334.313 1334.704 1335.076 1335.401 1336.046 1336.383 1336.72 1336.996 1337.227 1337.8 1337.959 1338.037 1338.099 1338.167 1338.297 1338.365 1338.51 1338.604 1338.744 1339.246 1339.641 1340.043 1340.558 1341.097 1342.173 1342.683 1343.127 1343.497 
1342.226 1340.267 1337.978 1335.561 1331.282 1329.89 1329.43 1329.45 1330.054 1330.894 1331.323 1331.68 1332.072 1332.448 1333.177 1333.573 1333.984 1334.342 1334.661 1335.316 1335.565 1335.738 1335.951 1336.156 1336.569 1336.807 1336.982 1337.016 1337.016 1337.262 1337.415 1337.57 1337.722 1337.917 1338.415 1338.802 1339.206 1339.654 1340.186 1341.238 1341.798 1342.33 1342.758 
1342.98 1340.981 1338.692 1336.304 1332.158 1330.37 1329.43 1329.45 1329.634 1330.251 1330.606 1330.894 1331.193 1331.548 1332.436 1332.852 1333.267 1333.635 1333.922 1334.409 1334.725 1334.918 1335.061 1335.222 1335.423 1335.484 1335.682 1335.884 1335.995 1336.118 1336.254 1336.469 1336.708 1336.94 1337.533 1337.856 1338.237 1338.689 1339.163 1340.24 1340.727 1341.279 1341.904 
1343.326 1341.421 1339.366 1337.108 1332.158 1330.37 1329.373 1329.182 1329.358 1329.809 1330.012 1330.107 1330.313 1330.727 1331.723 1332.142 1332.489 1332.816 1333.107 1333.577 1333.817 1334.06 1334.255 1334.37 1334.497 1334.486 1334.511 1334.687 1334.866 1334.982 1335.041 1335.158 1335.352 1335.622 1336.374 1336.783 1337.185 1337.585 1338.023 1339.087 1339.578 1340.095 1340.656 
1343.369 1341.479 1339.366 1334.8 1333.002 1331.189 1329.771 1329.042 1328.948 1329.338 1329.494 1329.706 1329.902 1330.125 1331.02 1331.446 1331.786 1332.11 1332.401 1332.872 1333.112 1333.288 1333.44 1333.562 1333.687 1333.68 1333.652 1333.674 1333.735 1333.851 1333.92 1334.044 1334.239 1334.504 1335.259 1335.662 1336.057 1336.506 1336.99 1337.889 1338.373 1338.793 1339.159 
1343.369 1341.479 1339.772 1335.656 1333.88 1332.161 1330.395 1329.227 1328.754 1328.972 1329.222 1329.407 1329.605 1329.853 1330.371 1330.768 1331.125 1331.439 1331.767 1332.212 1332.438 1332.549 1332.652 1332.785 1332.809 1332.789 1332.769 1332.742 1332.711 1332.658 1332.784 1332.93 1333.124 1333.396 1334.254 1334.687 1335.097 1335.459 1335.804 1336.5 1336.935 1337.31 1337.534 
1343.221 1341.425 1339.99 1336.652 1335.159 1333.545 1332.094 1330.769 1329.103 1328.656 1328.849 1329.166 1329.414 1329.892 1330.054 1330.286 1330.524 1330.809 1331.333 1331.559 1331.717 1331.865 1331.967 1332.026 1332.057 1332.032 1331.948 1331.833 1331.716 1331.556 1331.581 1331.693 1331.948 1332.321 1333.243 1333.703 1334.129 1334.402 1334.617 1335.308 1335.553 1335.675 1335.785 
1342.801 1341.056 1339.82 1338.589 1337.424 1336.017 1334.687 1333.503 1330.767 1329.82 1329.2 1329.009 1329.133 1329.615 1329.854 1330.022 1330.171 1330.322 1330.618 1330.842 1331.078 1331.186 1331.231 1331.346 1331.316 1331.22 1331.101 1330.992 1330.659 1330.467 1330.401 1330.524 1330.827 1331.263 1332.213 1332.545 1332.909 1333.334 1333.729 1334.204 1334.256 1334.299 1334.354 
1342.406 1341.402 1340.909 1340.358 1339.678 1338.879 1337.825 1336.586 1334.087 1332.824 1331.547 1330.491 1329.696 1329.354 1329.525 1329.687 1329.842 1330 1330.196 1330.335 1330.409 1330.459 1330.52 1330.622 1330.529 1330.491 1330.352 1330.187 1329.978 1329.873 1329.828 1329.85 1330.024 1330.759 1331.146 1331.551 1331.953 1332.341 1332.947 1333.107 1333.205 1333.277 1333.318 
1343.172 1342.843 1342.781 1342.504 1342.203 1341.748 1340.96 1339.904 1337.734 1336.472 1335.122 1333.774 1332.404 1329.995 1329.306 1329.241 1329.408 1329.579 1329.792 1329.937 1330.028 1330.036 1330.059 1330.083 1330.068 1329.985 1329.868 1329.74 1329.496 1329.401 1329.374 1329.477 1329.667 1329.998 1330.336 1330.659 1331.007 1331.356 1331.853 1332.113 1332.286 1332.341 1332.323 
1345.318 1345.003 1344.834 1344.439 1344.162 1343.847 1343.386 1342.874 1341.371 1340.264 1338.968 1337.443 1335.867 1332.585 1330.766 1329.496 1329.12 1329.195 1329.334 1329.416 1329.495 1329.585 1329.629 1329.612 1329.599 1329.592 1329.443 1329.217 1328.943 1328.927 1328.985 1329.111 1329.259 1329.672 1329.857 1329.975 1330.197 1330.451 1330.885 1331.164 1331.335 1331.375 1331.332 
1347.9 1347.174 1346.836 1346.367 1346.095 1345.725 1345.244 1344.693 1343.677 1343.162 1342.359 1341.015 1339.352 1335.792 1333.927 1331.907 1330.378 1329.472 1328.849 1328.893 1328.832 1328.868 1328.956 1329.123 1329.148 1329.158 1329.006 1328.781 1328.586 1328.548 1328.573 1328.656 1328.867 1329.315 1329.446 1329.61 1329.8 1329.916 1330.197 1330.333 1330.436 1330.509 1330.469 
1350.145 1349.715 1349.344 1348.454 1348.018 1347.529 1347.031 1346.499 1345.371 1344.758 1344.073 1343.43 1342.587 1339.39 1337.215 1335.048 1333.012 1331.301 1328.98 1328.466 1327.767 1327.541 1327.854 1328.592 1328.753 1328.883 1329.01 1328.925 1328.824 1328.75 1328.688 1328.658 1328.821 1329.013 1329.08 1329.234 1329.406 1329.567 1329.723 1329.788 1329.795 1329.87 1329.865 
1352.126 1351.849 1351.547 1350.468 1349.991 1349.458 1348.889 1348.279 1346.963 1346.256 1345.548 1344.85 1344.13 1342.405 1340.293 1337.958 1335.724 1333.638 1330.178 1329.142 1328.207 1327.532 1327.588 1328.628 1328.837 1329.167 1329.491 1329.696 1329.773 1329.695 1329.595 1329.512 1329.496 1329.217 1329.071 1328.916 1328.958 1329.126 1329.098 1329.215 1329.159 1329.127 1329.151 
1354.166 1354.082 1353.785 1352.456 1351.9 1351.3 1350.649 1350.013 1348.518 1347.715 1346.989 1346.245 1345.406 1343.47 1342.506 1340.695 1338.217 1335.754 1331.457 1329.887 1328.731 1328.241 1328.262 1329.07 1329.686 1330.214 1330.576 1330.773 1330.709 1330.595 1330.479 1330.408 1330.302 1329.835 1329.531 1329.115 1328.844 1328.792 1328.495 1328.509 1328.49 1328.428 1328.575 
1356.005 1355.797 1354.793 1354.349 1353.765 1353.143 1352.418 1351.671 1350.239 1349.452 1348.536 1347.564 1346.479 1344.458 1343.62 1342.581 1340.667 1337.894 1332.711 1330.676 1329.37 1328.686 1328.7 1330.077 1330.834 1331.533 1332.084 1332.353 1332.073 1331.97 1331.857 1331.667 1331.332 1330.517 1330.082 1329.592 1328.928 1328.51 1327.934 1327.695 1327.765 1327.883 1328.173 
1357.668 1357.329 1356.208 1355.685 1355.208 1354.712 1354.086 1352.591 1351.827 1350.991 1350.007 1348.792 1346.213 1345.418 1344.407 1343.47 1341.803 1339.167 1333.887 1331.583 1330.327 1329.914 1330.015 1331.504 1332.525 1333.401 1333.864 1333.989 1333.697 1333.66 1333.505 1333.208 1332.718 1331.42 1330.633 1329.861 1329.064 1328.523 1327.644 1327.228 1327.323 1327.71 1328.178 
1359.169 1358.864 1357.706 1357.079 1356.573 1355.973 1355.325 1354.111 1353.254 1352.344 1351.268 1349.749 1346.758 1345.819 1344.734 1343.668 1342.247 1337.77 1335.082 1333.408 1332.558 1332.195 1332.91 1333.798 1334.483 1335.163 1335.657 1335.786 1335.524 1335.135 1334.858 1334.538 1333.919 1332.225 1331.066 1329.995 1329.227 1328.636 1327.426 1326.892 1327.076 1327.707 1328.284 
1361.008 1360.471 1359.25 1358.599 1357.896 1357.15 1356.404 1354.895 1354.301 1353.388 1352.086 1350.465 1346.993 1345.723 1344.565 1343.518 1342.264 1338.566 1336.987 1336.153 1335.879 1335.778 1336.023 1336.449 1336.925 1337.287 1337.542 1337.507 1337.221 1336.699 1336.316 1335.798 1334.883 1332.737 1331.413 1330.146 1329.296 1328.695 1327.403 1327.017 1327.28 1327.806 1328.225 
1362.869 1362.202 1360.784 1359.939 1358.87 1357.962 1357.121 1355.146 1354.676 1353.836 1352.329 1350.54 1346.665 1345.375 1344.287 1343.23 1342.058 1339.65 1339.129 1338.948 1339.066 1339.135 1339.193 1339.295 1339.441 1339.524 1339.513 1339.297 1339.001 1338.599 1337.988 1337.223 1334.657 1333.458 1332.036 1330.531 1329.503 1328.314 1327.75 1327.47 1327.602 1327.839 1328.225 
1364.799 1363.953 1362.313 1361.246 1359.892 1358.523 1357.195 1355.665 1354.949 1353.824 1352.083 1349.889 1346.335 1344.834 1343.623 1342.833 1342.039 1340.646 1340.83 1341.06 1341.441 1341.853 1342.162 1342.096 1341.903 1341.732 1341.606 1341.156 1340.731 1340.241 1339.608 1338.827 1336.248 1334.689 1333.011 1331.425 1330.128 1328.566 1327.972 1327.509 1327.457 1327.839 1328.391 
1366.19 1365.461 1363.683 1362.506 1360.942 1358.742 1356.987 1355.656 1354.518 1352.947 1350.842 1348.585 1344.779 1343.668 1342.74 1342.074 1341.703 1342.406 1343.004 1343.616 1344.44 1345.105 1345.547 1345.477 1345.271 1344.949 1344.539 1343.159 1342.39 1341.743 1341.008 1340.131 1337.629 1335.891 1333.945 1332.293 1330.838 1328.797 1328.063 1327.509 1327.457 1327.459 1328.904 
1367.088 1366.49 1364.8 1363.065 1360.831 1358.456 1356.615 1354.307 1353.056 1350.734 1348.257 1346.198 1343.302 1342.532 1342.077 1342.075 1342.632 1344.963 1346.12 1347.154 1348.162 1348.835 1349.389 1349.415 1349.44 1348.928 1348.011 1344.977 1343.916 1342.96 1342.085 1341.294 1338.829 1336.871 1334.773 1332.968 1331.505 1328.797 1328.063 1327.423 1327.103 1328.112 1327.769 
1367.648 1366.931 1364.498 1362.579 1360.207 1357.865 1355.917 1353.033 1350.546 1347.913 1345.396 1343.606 1342.231 1342.428 1343.19 1344.348 1345.489 1348.058 1349.5 1350.673 1351.555 1352.057 1352.368 1352.462 1352.477 1351.892 1350.588 1346.894 1345.354 1344.185 1343.211 1342.295 1339.522 1337.603 1335.372 1332.968 1331.505 1328.937 1328.039 1327.132 1327.12 1326.876 1326.609 
1367.602 1366.402 1363.434 1361.139 1359.268 1357.472 1355.664 1351.293 1347.722 1344.647 1342.354 1341.072 1342.356 1344.303 1346.275 1348.044 1349.323 1351.483 1352.728 1353.639 1354.178 1354.286 1354.624 1354.266 1353.763 1353.065 1351.862 1348.457 1346.545 1345.21 1344.077 1342.954 1340.111 1337.603 1335.372 1333.586 1332.163 1329.291 1328.121 1327.022 1326.055 1326.391 1325.508 
1367.076 1365.884 1361.891 1359.86 1358.186 1356.687 1355.165 1349.787 1345.981 1343.025 1341.138 1340.717 1343.87 1346.872 1349.001 1350.54 1351.563 1353.771 1354.612 1355.1 1355.315 1355.393 1355.701 1355.257 1354.437 1353.579 1352.489 1349.281 1347.362 1345.895 1344.62 1343.401 1340.111 1338.18 1336.212 1334.45 1332.931 1329.891 1328.452 1327.105 1325.911 1325.514 1324.908 
