NCOLS 38
NROWS 47
XLLCORNER 474360.24
YLLCORNER 4078266.8
CELLSIZE 10
NODATA_VALUE -9999
230.5859 230.7514 230.8578 230.8945 231.0884 231.1393 231.2266 231.2766 231.3864 231.4183 231.442 231.4493 231.4332 231.331 231.229 231.1028 230.9754 230.8588 230.6965 230.657 230.6287 230.6143 230.6287 230.6531 230.6778 230.7074 230.7379 230.7318 230.7364 230.7147 230.666 230.6118 230.4421 230.3343 230.2147 230.0909 229.9756 229.7653 
230.2091 230.2859 230.3569 230.4863 230.6194 230.6853 230.7614 230.8319 230.9365 230.98 231.0089 231.0258 231.0208 230.9318 230.8659 230.7796 230.6783 230.5807 230.436 230.3873 230.3507 230.3233 230.3098 230.3086 230.3318 230.3592 230.3751 230.3874 230.3806 230.3618 230.3284 230.2799 230.1209 230.0224 229.9107 229.7955 229.6866 229.4936 
229.8322 229.8681 229.8896 230.0174 230.1573 230.2184 230.2951 230.3717 230.4751 230.518 230.5484 230.5641 230.5629 230.5159 230.4767 230.418 230.3391 230.2555 230.1275 230.0886 230.0456 230.0008 229.9803 229.9792 229.9905 230.0028 230.0122 230.0354 230.03 230.0099 229.9811 229.9408 229.7627 229.6795 229.9107 229.7955 229.6866 229.4936 
229.3578 229.429 229.5215 229.6203 229.7467 229.7921 229.8414 229.8976 229.9942 230.0185 230.0466 230.0805 230.1013 230.0706 230.0466 230.0095 229.9651 229.9181 229.8072 229.7551 229.7191 229.6883 229.6308 229.6199 229.6277 230.0028 230.0122 230.0354 230.03 230.0099 229.9811 229.9408 229.7627 229.6795 229.5923 229.4896 229.3891 229.2042 
228.9835 229.0547 229.1341 229.3336 229.349 229.3635 229.4073 229.4532 229.4996 229.5129 229.5428 229.5909 229.629 229.6414 229.6292 229.6099 229.9651 229.9181 229.8072 229.7551 229.7191 229.6883 229.6308 229.6199 229.6277 229.6457 229.6587 229.6734 229.6517 229.649 229.6344 229.5818 229.4309 229.3411 229.2595 229.1727 229.0822 228.9158 
228.6511 228.6965 228.7795 228.9528 228.9087 228.9349 228.9999 229.4532 229.4996 229.5129 229.5428 229.5909 229.629 229.6414 229.6292 229.6099 229.59 229.5605 229.4668 229.4218 229.3802 229.3358 229.2884 229.2799 229.2738 229.2868 229.3054 229.3022 229.2966 229.2709 229.2355 229.1991 229.0735 228.9978 228.9227 228.8482 228.772 228.6051 
228.6511 228.6965 228.7795 228.9528 228.9087 228.9349 228.9999 229.0244 229.0356 229.0374 229.0759 229.1393 229.186 229.2066 229.2079 229.202 229.1897 229.1699 229.1201 229.0752 229.032 228.9953 228.9471 228.9385 228.9347 228.9324 228.9366 228.9426 228.9339 228.9095 228.874 228.8391 228.7227 228.6536 228.582 228.5093 228.441 228.2916 
228.4506 228.3764 228.4294 228.5257 228.5354 228.5639 228.6057 228.6251 228.6022 228.6102 228.6537 228.7115 228.754 228.7835 228.7899 228.7985 228.8001 228.7908 228.7587 228.7134 228.6692 228.6393 228.5976 228.5869 228.5774 228.5711 228.5734 228.5798 228.5651 228.5433 228.5098 228.4659 228.3666 228.3088 228.242 228.162 228.0823 227.9411 
228.3786 228.1606 228.0505 228.1433 228.1685 228.2098 228.2527 228.2563 228.2098 228.2349 228.2736 228.3193 228.3604 228.3899 228.3912 228.4001 228.4111 228.4105 228.3873 228.3481 228.3134 228.2923 228.2479 228.2356 228.2267 228.2205 228.2234 228.2206 228.1964 228.1768 228.1417 228.0845 227.9934 227.9369 227.8723 227.8097 227.7524 227.6123 
228.3233 228.0552 227.8376 227.8019 227.8292 227.858 227.8926 227.8807 227.8519 227.89 227.9205 227.9574 227.9886 228.001 228.0076 228.0201 228.0335 228.0393 228.0247 228.0011 227.9753 227.9501 227.8979 227.8867 227.8775 227.8707 227.8728 227.8613 227.8368 227.7994 227.7615 227.7223 227.6276 227.5694 227.505 227.4523 227.3345 227.2752 
228.2648 227.9908 227.7442 227.4989 227.4985 227.5337 227.5321 227.5034 227.5505 227.5751 227.6112 227.6389 227.6384 227.6511 227.6537 227.6613 227.6714 227.6716 227.6824 227.6568 227.6285 227.6133 227.562 227.555 227.5445 227.5284 227.5214 227.501 227.4692 227.441 227.4093 227.3631 227.2551 227.1962 227.1419 227.0919 226.9839 226.9182 
228.19 227.9228 227.6541 227.2957 227.2209 227.2148 227.2251 227.2233 227.2652 227.2888 227.3199 227.3395 227.3274 227.3109 227.3156 227.3182 227.3262 227.3368 227.3465 227.3257 227.2987 227.2757 227.2417 227.222 227.2104 227.1971 227.1842 227.1468 227.119 227.0886 227.0455 226.9943 226.902 226.8472 226.7872 226.7326 226.6317 226.5767 
228.0952 227.8242 227.5442 227.1377 227.0354 226.9572 226.9253 226.94 226.9892 227.0122 227.0375 227.0486 227.0305 226.9813 226.9875 226.9966 227.0061 227.0178 227.0255 227.0096 226.9868 226.9675 226.9246 226.8992 226.8833 226.8707 226.8556 226.8088 226.7805 226.7401 226.6908 226.6436 226.5461 226.4839 226.4293 226.3835 226.2755 226.2243 
227.989 227.7057 227.4386 226.9796 226.8495 226.7665 226.709 226.6832 226.7218 226.7394 226.7554 226.7609 226.7436 226.6916 226.705 226.7185 226.7164 226.7162 226.7226 226.704 226.6817 226.6611 226.6171 226.5929 226.5705 226.5529 226.5356 226.4725 226.4367 226.3976 226.3466 226.2919 226.2072 226.146 226.0855 226.0364 225.9367 225.8795 
227.9066 227.625 227.3415 226.8214 226.6924 226.6003 226.5131 226.454 226.4548 226.4754 226.4825 226.4771 226.464 226.4321 226.4227 226.4328 226.4452 226.4385 226.4304 226.4153 226.3925 226.366 226.3147 226.2875 226.2603 226.2388 226.2162 226.1477 226.1129 226.062 226.0083 225.9614 225.8599 225.7988 225.7389 225.6904 225.5871 225.5369 
227.7987 227.5311 227.2553 226.7149 226.5419 226.4216 226.3282 226.2531 226.2023 226.2207 226.2095 226.2019 226.2177 226.188 226.1754 226.181 226.1882 226.1698 226.1582 226.1364 226.1084 226.0818 226.0293 225.9955 225.9654 225.9386 225.909 225.8429 225.7931 225.7413 225.6881 225.6292 225.525 225.463 225.4038 225.3529 225.2451 225.193 
227.7055 227.4271 227.1552 226.606 226.3836 226.2447 226.1478 226.0626 225.9692 225.9651 225.9688 225.9792 225.9919 225.9452 225.9382 225.9395 225.9377 225.9239 225.899 225.8734 225.8419 225.8084 225.7464 225.7145 225.6782 225.6406 225.606 225.5328 225.4808 225.4239 225.3677 225.3094 225.1913 225.1284 225.0697 225.018 224.9183 224.8706 
227.5937 227.3227 227.0459 226.487 226.2225 226.0662 225.9719 225.8812 225.7606 225.7342 225.7273 225.7349 225.7461 225.7121 225.705 225.7036 225.7 225.6681 225.6428 225.6188 225.5841 225.5439 225.4737 225.4431 225.4031 225.3596 225.3183 225.2189 225.1718 225.1115 225.0433 224.9806 224.8651 224.7937 224.7334 224.6877 224.591 224.5464 
227.4673 227.1992 226.9187 226.3437 226.0518 225.8853 225.7984 225.7047 225.5756 225.5316 225.5106 225.5034 225.4909 225.4749 225.4677 225.4591 225.455 225.4135 225.386 225.3623 225.3306 225.2897 225.2111 225.1659 225.1281 225.0874 225.0349 224.9227 224.867 224.8038 224.7294 224.6568 224.5383 224.4725 224.4104 224.357 224.2596 224.211 
227.345 227.0683 226.7842 226.2033 225.9025 225.7132 225.6132 225.5239 225.382 225.3273 225.2982 225.291 225.279 225.224 225.2076 225.2035 225.1973 225.1564 225.1343 225.1077 225.0778 225.0481 224.9627 224.9112 224.8622 224.8125 224.7574 224.6345 224.5664 224.4953 224.4185 224.3404 224.2126 224.1473 224.0872 224.035 223.9283 223.886 
227.1932 226.913 226.6266 226.0508 225.7533 225.5455 225.4246 225.3304 225.1875 225.1361 225.093 225.0701 225.0622 224.9954 224.9696 224.9536 224.9342 224.8961 224.8799 224.8555 224.8288 224.8016 224.7171 224.6655 224.6088 224.5484 224.4842 224.3445 224.2641 224.1904 224.1131 224.0224 223.8849 223.8241 223.7603 223.7013 223.5929 223.5585 
227.0278 226.7378 226.45 225.8777 225.5795 225.362 225.2381 225.1463 224.9942 224.9404 224.8856 224.8468 224.8325 224.7817 224.7569 224.7318 224.6969 224.6326 224.6142 224.6022 224.5857 224.5562 224.4723 224.4131 224.3473 224.282 224.213 224.0516 223.9612 223.8753 223.7886 223.6939 223.5452 223.4794 223.4146 223.355 223.2433 223.2182 
226.8757 226.5842 226.295 225.7168 225.4204 225.1859 225.0481 224.9637 224.7984 224.7398 224.6857 224.6346 224.5984 224.5596 224.5368 224.5153 224.4823 224.3908 224.3668 224.3559 224.3373 224.3065 224.2232 224.1629 224.0907 224.0155 223.9391 223.7601 223.6635 223.5635 223.4645 223.367 223.1877 223.1142 223.0445 222.9819 222.8961 222.8678 
226.7274 226.4307 226.138 225.5569 225.2677 225.0159 224.8583 224.7759 224.5998 224.5396 224.4873 224.4324 224.3856 224.3374 224.3171 224.2981 224.271 224.1847 224.1528 224.1237 224.0949 224.0632 223.9715 223.9162 223.849 223.7681 223.6772 223.4897 223.3786 223.2607 223.1427 223.0228 222.8037 222.7171 222.6481 222.5876 222.5253 222.5004 
226.5735 226.2722 225.9738 225.3794 225.091 224.83 224.6626 224.5824 224.4076 224.3453 224.2932 224.2405 224.1907 224.1173 224.0969 224.0746 224.0471 223.9763 223.9415 223.9033 223.8677 223.8312 223.7263 223.6705 223.6005 223.5152 223.4214 223.1952 223.0728 222.9431 222.8014 222.6568 222.4068 222.2929 222.2113 222.1663 222.1162 222.1047 
226.4176 226.1026 225.7916 225.1906 224.8947 224.63 224.4659 224.3891 224.2131 224.1514 224.0997 224.0466 223.9965 223.9061 223.8815 223.8538 223.8228 223.7548 223.7233 223.6976 223.6621 223.6108 223.4933 223.4335 223.3588 223.269 223.1699 222.9174 222.7722 222.6131 222.444 222.1175 221.9736 221.8477 221.759 221.7182 221.701 221.7175 
226.2554 225.9379 225.6246 225.0055 224.6903 224.4209 224.2631 224.1889 224.0233 223.9561 223.9015 223.853 223.8029 223.7044 223.6779 223.6531 223.6173 223.5502 223.5219 223.4962 223.4566 223.3958 223.2641 223.1941 223.1191 223.0336 222.9294 222.6552 222.4841 222.2964 222.0927 221.6863 221.5093 221.3623 221.284 221.2527 221.3272 221.3984 
226.0979 225.7814 225.4599 224.8134 224.4884 224.2159 224.06 223.9905 223.8333 223.7637 223.7062 223.6575 223.6081 223.5064 223.4744 223.4515 223.4209 223.3635 223.3189 223.2718 223.2206 223.1597 223.0363 222.9671 222.8959 222.8098 222.6996 222.3994 222.2172 222.0057 221.7677 221.1857 221.0013 220.8861 220.8291 220.839 221.0219 221.123 
225.9343 225.6146 225.2867 224.6277 224.2933 224.0166 223.8631 223.799 223.6457 223.5757 223.5226 223.4756 223.4209 223.3205 223.2699 223.2251 223.1842 223.0997 223.0479 223.0046 222.961 222.9052 222.7948 222.7407 222.6738 222.5889 222.4888 222.1917 221.9911 221.7528 221.488 220.8709 220.6665 220.496 220.439 220.5293 220.7743 220.8789 
225.7755 225.4456 225.1041 224.4456 224.1091 223.8279 223.6667 223.5994 223.4566 223.3849 223.3348 223.2897 223.2306 223.1365 223.0817 223.0258 222.9761 222.8751 222.8141 222.7638 222.7194 222.6685 222.5592 222.5188 222.4677 222.3934 222.2969 221.9995 221.8017 221.5659 221.3039 220.7392 220.5296 220.3926 220.3301 220.3414 220.5253 220.6423 
225.6282 225.2771 224.9285 224.2549 223.9201 223.6318 223.466 223.4002 223.26 223.1966 223.1407 223.0877 222.9925 222.9467 222.8915 222.8328 222.7816 222.6814 222.6254 222.5685 222.5141 222.4644 222.3608 222.3234 222.2942 222.2266 222.1089 221.8406 221.6474 221.4201 221.1827 220.6451 220.5392 220.4631 220.3779 220.3048 220.3309 220.3997 
225.481 225.1283 224.7789 224.0683 223.7296 223.4384 223.2682 223.2064 223.0657 223.0045 222.9462 222.8926 222.8022 222.7526 222.697 222.6365 222.5816 222.4834 222.4326 222.3804 222.332 222.2869 222.1928 222.1586 222.126 222.0715 221.9717 221.697 221.5249 221.3207 221.0589 220.7244 220.6196 220.5132 220.4301 220.3638 220.2073 220.2005 
225.3494 224.9877 224.6288 223.9148 223.5699 223.2587 223.0744 223.019 222.8786 222.8125 222.7499 222.6987 222.6078 222.5586 222.5016 222.446 222.3913 222.28 222.2364 222.188 222.1407 222.0994 222.009 221.9676 221.9339 221.8867 221.8116 221.5883 221.4315 221.2465 221.0547 220.7928 220.675 220.5679 220.4828 220.4131 220.294 220.1854 
225.2156 224.8555 224.4989 223.7885 223.4398 223.0949 222.8797 222.8275 222.6874 222.6231 222.5639 222.5096 222.4126 222.3552 222.3074 222.2585 222.1996 222.0754 222.0312 221.9896 221.945 221.9087 221.8074 221.7479 221.7081 221.673 221.6302 221.4824 221.3597 221.237 221.1182 220.8571 220.7263 220.6149 220.5217 220.4455 220.3519 220.261 
225.0851 224.7326 224.3774 223.6682 223.3176 222.958 222.7141 222.6384 222.4988 222.4386 222.3811 222.3224 222.2161 222.1722 222.1207 222.0664 222.0135 221.8882 221.8297 221.7903 221.7607 221.701 221.542 221.5163 221.4972 221.4777 221.4577 221.39 221.3392 221.2683 221.1685 220.9516 220.8323 220.6517 220.5921 220.6251 220.408 220.3399 
224.9685 224.6181 224.2565 223.5383 223.2012 222.8412 222.5688 222.4533 222.3142 222.2475 222.1907 222.1378 222.0381 221.984 221.9302 221.8811 221.8302 221.6949 221.6273 221.5645 221.5098 221.4583 221.3551 221.3269 221.3065 221.2947 221.2905 221.3152 221.3148 221.2897 221.2394 221.079 220.9755 220.8579 220.7574 220.6736 220.4715 220.3786 
224.8838 224.5276 224.1642 223.4529 223.1079 222.7471 222.4355 222.2592 222.1296 222.0685 222.0046 221.9469 221.8482 221.8029 221.7503 221.6907 221.6359 221.524 221.4518 221.3761 221.3134 221.2654 221.1729 221.1483 221.1467 221.0961 221.0367 221.2448 221.3033 221.3244 221.3123 221.2087 221.1131 220.9994 220.8663 220.7353 220.5323 220.4307 
224.7931 224.4413 224.0842 223.3747 223.0199 222.6602 222.3145 222.0697 221.9449 221.8833 221.8295 221.7771 221.6614 221.61 221.566 221.5153 221.458 221.358 221.296 221.2058 221.1231 221.0718 220.9797 220.9634 220.9091 220.8914 220.9817 221.1688 221.2696 221.3316 221.359 221.2889 221.1948 221.0732 220.9319 220.7989 220.5853 220.49 
224.6892 224.3466 223.996 223.2843 222.9359 222.5796 222.2029 221.903 221.7589 221.6987 221.6416 221.5832 221.4738 221.43 221.3908 221.3403 221.2843 221.1933 221.1324 221.0437 220.9438 220.8626 220.7673 220.7032 220.6896 220.7418 220.8269 221.0886 221.2018 221.289 221.3383 221.3031 221.2121 221.0983 220.9739 220.8541 220.6658 220.5697 
224.5679 224.2311 223.8872 223.191 222.8476 222.4886 222.117 221.8012 221.5699 221.5137 221.4551 221.3987 221.3069 221.2667 221.213 221.1599 221.1189 221.0285 220.9675 220.8793 220.7762 220.6815 220.5353 220.4631 220.4296 220.5047 220.6765 220.9575 221.0825 221.1847 221.2415 221.2328 221.1651 221.0759 220.9833 220.8897 220.69 220.5977 
224.4418 224.1057 223.7598 223.0811 222.7361 222.3921 222.0438 221.7062 221.3777 221.3294 221.2688 221.2152 221.132 221.0821 221.042 221.0108 220.9704 220.8629 220.8011 220.7268 220.6201 220.4908 220.3242 220.2645 220.2655 220.3361 220.4474 220.7961 220.9303 221.026 221.1029 221.1281 221.0853 221.0759 220.9833 220.8897 220.69 220.5977 
224.3058 223.968 223.6276 222.9588 222.615 222.2765 221.9428 221.5957 221.1797 221.139 221.0875 221.0423 220.9663 220.9314 220.8851 220.8481 220.8138 220.6977 220.643 220.5772 220.4821 220.3642 220.191 220.0943 220.2655 220.3361 220.6061 220.7961 220.9303 221.026 221.1029 221.1281 221.0853 221.0176 220.9373 220.8521 220.7305 220.662 
224.1379 223.7972 223.4701 222.8094 222.456 222.1178 221.7954 221.4568 221.0031 220.9428 220.8993 220.8663 220.817 220.7938 220.7696 220.8481 220.8138 220.6977 220.643 220.5772 220.4821 220.3642 220.191 220.0943 220.0834 220.1825 220.4225 220.5724 220.7496 220.8817 220.9489 221.0017 220.9695 220.9091 220.839 220.7809 220.6558 220.5922 
223.9536 223.6134 223.2849 222.6604 222.2805 221.9326 221.7954 221.4568 221.0031 220.9428 220.8993 220.8663 220.817 220.7938 220.7696 220.7351 220.6783 220.5007 220.431 220.3871 220.3723 220.3669 220.1556 219.9676 219.8725 219.9335 220.2695 220.399 220.5483 220.7167 220.8356 220.8684 220.8494 220.7838 220.7089 220.6493 220.4978 220.4371 
223.9536 223.6134 223.2849 222.6604 222.2805 221.9326 221.6071 221.2353 220.8158 220.7634 220.7222 220.6974 220.6822 220.6595 220.6408 220.6156 220.5676 220.4009 220.2895 220.1944 220.2079 220.3277 220.2062 219.9649 219.7068 219.6104 220.0094 220.213 220.3619 220.5068 220.6506 220.7429 220.6789 220.6139 220.5713 220.5295 220.39 220.2503 
223.7526 223.4005 223.0601 222.4528 222.1028 221.7652 221.4318 221.0593 220.6201 220.583 220.5716 220.5671 220.5771 220.5809 220.5697 220.555 220.5271 220.39 220.2493 220.0595 220.0278 220.2316 220.3079 220.0283 219.7264 219.4828 219.5977 219.8711 220.1227 220.3172 220.4471 220.5516 220.5263 220.4536 220.3925 220.374 220.2334 220.0256 
223.5363 223.1502 222.7919 222.2471 221.9101 221.5165 221.1657 220.5381 220.4259 220.4305 220.4595 220.4841 220.5103 220.5436 220.5356 220.5057 220.4877 220.4024 220.2288 219.9541 219.8456 220.0662 220.39 220.1504 219.819 219.4964 219.1407 219.3685 219.6848 219.9566 220.1651 220.3371 220.3412 220.2493 220.1353 220.082 219.8982 219.7385 
