NCOLS 90
NROWS 113
XLLCORNER 384957.98
YLLCORNER 3868211.5
CELLSIZE 10
NODATA_VALUE -9999
892.2136 892.1925 892.2023 892.1635 892.0963 892.1113 892.1871 892.0825 892.0925 892.0545 891.9807 891.9797 891.9119 891.8135 891.7681 891.7781 891.7593 891.6811 891.6033 891.5648 891.53 891.4661 891.4568 891.4692 891.4155 891.3267 891.258 891.1564 890.993 890.7564 890.5822 890.4132 890.2081 889.9631 889.4033 889.0769 888.8367 888.6199 888.459 888.3601 888.1385 888.0192 887.9424 887.8501 887.7365 887.5579 887.5187 887.5513 887.6087 887.6359 887.6283 887.6871 887.7047 887.7282 887.7365 887.7737 887.8082 887.8262 887.8448 887.8707 887.8658 887.9167 887.9508 888.0006 888.0562 888.0616 888.1477 888.247 888.2542 888.2407 888.2546 888.3168 888.3412 888.3331 888.366 888.4198 888.4195 888.4177 888.445 888.4611 888.3941 888.3586 888.5029 888.439 888.3908 888.3947 888.4533 888.4422 888.4358 888.3496 
892.0944 892.103 892.0417 891.9859 891.9922 891.9802 891.9017 891.9554 891.9448 891.8701 891.8983 891.969 891.804 891.712 891.6702 891.6434 891.5695 891.5643 891.4647 891.4164 891.3531 891.4661 891.4568 891.3624 891.3049 891.2606 891.25 891.1472 890.9945 890.7614 890.5815 890.3729 890.1241 889.8691 889.3656 889.1193 888.8597 888.6229 888.4296 888.2552 888.0849 888.0024 887.9202 887.8197 887.678 887.5022 887.447 887.4241 887.4364 887.491 887.5325 887.52 887.5465 887.5772 887.5825 887.6223 887.6545 887.6694 887.6584 887.6693 887.7233 887.8074 887.8187 887.8217 887.8664 887.9193 887.9431 888.0481 888.0295 888.0628 888.1247 888.144 888.1292 888.1792 888.2211 888.2463 888.302 888.3036 888.2595 888.2507 888.265 888.2286 888.1874 888.2677 888.2709 888.2686 888.298 888.2329 888.2354 888.1851 
891.9908 891.8903 891.8893 891.8929 891.8657 891.7872 891.7797 891.7875 891.7263 891.6999 891.7799 891.7678 891.669 891.622 891.5237 891.4597 891.4666 891.4582 891.3575 891.4164 891.3531 891.363 891.3466 891.2505 891.1964 891.1566 891.1374 891.0494 890.9694 890.7497 890.5289 890.308 890.1141 889.8595 889.3491 889.0944 888.8384 888.5857 888.358 888.0673 887.9765 887.8928 887.8066 887.7227 887.6436 887.4736 887.3764 887.3267 887.3306 887.3279 887.3774 887.4101 887.4343 887.4212 887.4251 887.4626 887.5037 887.5281 887.5178 887.5196 887.5575 887.6414 887.6949 887.7203 887.7138 887.7495 887.8087 887.8884 887.9197 887.9216 887.926 887.9348 888.0237 888.0159 888.0585 888.1184 888.1166 888.1035 888.1263 888.0936 888.0983 888.1503 888.1258 888.2151 888.1132 888.1422 888.183 888.1193 888.1303 888.0847 
891.7991 891.7846 891.7924 891.7489 891.6788 891.6788 891.6795 891.6149 891.5601 891.6064 891.6559 891.5771 891.4957 891.4612 891.4251 891.365 891.4666 891.3856 891.3575 891.3104 891.2607 891.2427 891.1593 891.0822 891.0448 891.0548 891.0165 890.9293 890.763 890.6269 890.46 890.2531 890.006 889.7514 889.242 888.9876 888.7263 888.4962 888.3356 887.9865 887.8703 887.7921 887.7062 887.6208 887.5355 887.3647 887.2759 887.2026 887.1878 887.2301 887.2159 887.2487 887.2673 887.283 887.3279 887.3177 887.3428 887.353 887.3777 887.4234 887.4143 887.4991 887.5313 887.5746 887.6187 887.6078 887.6301 887.7346 887.7325 887.761 887.8125 887.8152 887.8262 887.8735 887.9208 887.9083 887.9174 887.9846 887.9125 887.9452 887.9673 887.9814 888.0156 887.9935 887.9625 887.9627 887.9949 888.0145 888.0258 887.9384 
891.6829 891.6896 891.6307 891.5731 891.5777 891.5764 891.5775 891.5121 891.4647 891.469 891.4678 891.4584 891.3591 891.3059 891.4251 891.365 891.3529 891.2599 891.1963 891.1475 891.158 891.1304 891.0621 890.981 890.9453 890.8979 890.8024 890.7452 890.593 890.4781 890.3036 890.0834 889.9103 889.6548 889.1434 888.8894 888.6267 888.3931 888.2231 887.8697 887.7729 887.6907 887.6052 887.5198 887.4348 887.2637 887.179 887.0825 887.0236 887.072 887.1281 887.1187 887.1133 887.1234 887.1666 887.2215 887.217 887.2089 887.2186 887.2605 887.3175 887.3251 887.3822 887.4226 887.4534 887.5132 887.5127 887.5282 887.5131 887.5552 887.6279 887.6194 887.6869 887.7158 887.7522 887.8084 887.7967 887.8004 887.8148 887.7919 887.744 887.8245 887.9538 887.7447 887.7877 887.8586 887.8948 887.9025 887.8353 887.7752 
891.5826 891.5127 891.4705 891.4761 891.4744 891.4731 891.3934 891.3613 891.3687 891.3699 891.3458 891.2679 891.3591 891.3059 891.2528 891.2632 891.2426 891.1484 891.092 891.0575 891.0274 890.9474 890.9313 890.8373 890.7817 890.6777 890.6188 890.6157 890.4502 890.3028 890.1407 889.9885 889.7819 889.556 889.0448 888.7874 888.5462 888.3353 888.1242 887.7625 887.6733 887.5897 887.5045 887.4189 887.3337 887.1627 887.078 886.9843 886.9118 886.9174 887.012 887.0276 887.0187 887.0151 887.0176 887.0463 887.095 887.1235 887.1094 887.111 887.1411 887.2122 887.2131 887.2617 887.319 887.3246 887.3198 887.374 887.4141 887.4061 887.427 887.502 887.5086 887.5634 887.6179 887.6131 887.6013 887.5938 887.6114 887.6282 887.6602 887.6157 887.5233 887.7643 887.8048 887.7946 887.7634 887.7122 887.7239 887.6765 
891.4755 891.3691 891.3741 891.3773 891.3495 891.2701 891.2664 891.2665 891.2681 891.2305 891.3458 891.2679 891.1926 891.1503 891.1616 891.1273 891.0556 890.9787 890.9343 890.9413 890.9142 890.819 890.7304 890.6633 890.5667 890.4752 890.4122 890.4037 890.2429 890.0931 889.9686 889.8478 889.614 889.4144 888.9537 888.6897 888.4556 888.2515 888.0322 887.6863 887.5673 887.489 887.4033 887.3179 887.2326 887.0624 886.9688 886.9006 886.8693 886.8217 886.839 886.8954 886.9301 886.9224 886.9145 886.9104 886.9232 886.9782 887.0211 887.0082 887.0056 887.0898 887.1127 887.1036 887.1411 887.2061 887.1992 887.2072 887.207 887.2385 887.3049 887.3074 887.375 887.4145 887.4086 887.3987 887.4059 887.4972 887.5159 887.4863 887.4464 887.4931 887.4445 887.5527 887.6087 887.5899 887.5186 887.5894 887.5412 887.5181 
891.2709 891.2721 891.2755 891.233 891.1618 891.1649 891.1643 891.1708 891.2681 891.2305 891.1574 891.1598 891.0897 891.0598 891.023 890.9478 890.9545 890.8679 890.7784 890.7353 890.7004 890.6077 890.5248 890.4562 890.3635 890.2717 890.2073 890.2002 890.0116 889.8724 889.7594 889.6584 889.4803 889.2541 888.8066 888.5735 888.3376 888.092 887.9327 887.5837 887.4671 887.388 887.3027 887.217 887.1317 886.957 886.8991 886.8671 886.8061 886.7229 886.7114 886.7308 886.744 886.7608 886.8196 886.8125 886.8057 886.8125 886.8567 886.9167 886.9148 886.9099 886.9688 887.0136 887.0084 887.0104 887.0801 887.1091 887.0982 887.0941 887.1154 887.1927 887.2025 887.1928 887.232 887.3017 887.2971 887.2966 887.3171 887.2664 887.2609 887.3655 887.3445 887.45 887.5027 887.5111 887.4277 887.4871 887.4016 887.4133 
891.1711 891.17 891.1158 891.0567 891.0649 891.0641 891.1643 891.1708 891.1202 891.0511 891.0601 891.0459 890.9393 890.9466 890.9077 890.8373 890.8286 890.6452 890.6253 890.5917 890.4924 890.4035 890.3206 890.2526 890.16 890.0682 890.0029 889.9974 889.7526 889.6303 889.5618 889.4509 889.2791 888.8983 888.6467 888.4146 888.2094 887.995 887.7852 887.4896 887.3654 887.2872 887.2015 887.1162 886.9456 886.8475 886.8151 886.7983 886.701 886.6205 886.6234 886.6156 886.6063 886.6143 886.6342 886.6956 886.716 886.7029 886.7093 886.7212 886.7248 886.8122 886.811 886.808 886.8286 886.8972 886.9006 886.897 886.9424 887.0024 886.9912 886.9948 887.0622 887.0992 887.0942 887.0956 887.0904 887.0997 887.1019 887.1016 887.1331 887.2044 887.2367 887.3471 887.3495 887.3027 887.3232 887.4871 887.4016 887.4133 
891.0618 890.9542 890.9624 890.9612 891.0649 891.0641 891.054 891.0544 891.0151 890.9556 890.9335 890.8602 890.7701 890.7263 890.6954 890.624 890.6159 890.4421 890.415 890.3819 890.2892 890.1996 890.1047 890.0496 889.9565 889.8651 889.7982 889.7928 889.5566 889.4311 889.3599 889.2534 889.075 888.7429 888.5089 888.2648 888.0565 887.8383 887.6286 887.3691 887.2686 887.186 887.1005 887.0153 886.8409 886.7943 886.7579 886.6897 886.6017 886.5167 886.4307 886.4791 886.5206 886.508 886.5048 886.5159 886.5775 886.6143 886.6015 886.5994 886.5994 886.6072 886.652 886.6994 886.692 886.7076 886.8009 886.7916 886.7858 886.8203 886.8865 886.8888 886.8933 886.8902 886.8831 886.9054 886.981 886.9945 886.9936 887.0467 887.1434 887.242 887.3653 887.2838 887.2051 887.3027 887.3232 887.3945 887.2962 887.2476 
890.8538 890.9542 890.9624 890.9612 890.9521 890.9516 890.8829 890.8364 890.8432 890.8186 890.7334 890.6522 890.5577 890.5215 890.4916 890.4191 890.4114 890.2383 890.2096 890.1784 890.0842 889.9999 889.9109 889.8437 889.7533 889.662 889.5941 889.5887 889.3542 889.2344 889.1403 889.008 888.8713 888.5333 888.3351 888.1188 887.9018 887.7026 887.5352 887.2531 887.1793 887.0932 887.006 886.9144 886.7372 886.7227 886.6869 886.5862 886.5013 886.4146 886.2991 886.3129 886.3599 886.4154 886.4064 886.4006 886.4046 886.4548 886.5121 886.506 886.4979 886.4872 886.5441 886.6049 886.5955 886.5888 886.5884 886.6447 886.6866 886.7115 886.7875 886.7861 886.674 886.7311 886.7902 886.7813 886.7873 886.8959 886.8962 887.0079 887.148 887.1294 887.156 887.2838 887.2051 887.1953 887.2172 887.2852 887.1991 887.1566 
890.8538 890.8534 890.8585 890.8203 890.739 890.736 890.7343 890.6763 890.6217 890.5955 890.5175 890.4187 890.3603 890.3161 890.2877 890.2143 890.2068 890.0345 890.0048 889.9748 889.878 889.8033 889.73 889.6357 889.5502 889.4586 889.3904 889.3893 889.1616 889.009 888.8745 888.756 888.6674 888.323 888.1611 887.9771 887.7561 887.5405 887.3713 887.1074 886.9979 886.9135 886.8375 886.81 886.6409 886.5628 886.524 886.4897 886.4011 886.3134 886.1971 886.2042 886.2046 886.2381 886.3066 886.3021 886.2968 886.3029 886.3061 886.3179 886.3915 886.3907 886.3948 886.3918 886.409 886.4802 886.4774 886.5391 886.5913 886.5848 886.5804 886.5795 886.5762 886.6265 886.6866 886.6813 886.6845 886.9299 887.0226 887.0418 887.0657 887.1294 887.156 887.1893 887.2377 887.2548 887.1824 887.175 887.1344 887.1073 
890.639 890.6423 890.6392 890.5996 890.5338 890.532 890.4562 890.4217 890.3873 890.3149 890.3104 890.2162 890.1558 890.1109 890.0839 890.0099 890.0023 889.8309 889.8 889.7713 889.675 889.5986 889.5244 889.4329 889.347 889.2578 889.1804 889.1379 888.9058 888.7445 888.6349 888.5599 888.4651 888.171 887.981 887.7775 887.6013 887.3943 887.2274 887.0405 886.8979 886.794 886.7701 886.7115 886.537 886.4924 886.4578 886.3859 886.2972 886.2141 886.1323 886.1015 886.1063 886.1019 886.1124 886.1763 886.2056 886.194 886.1927 886.1907 886.1996 886.2969 886.287 886.2802 886.2991 886.3759 886.3801 886.3737 886.4165 886.4847 886.4771 886.4761 886.5412 886.5889 886.5779 886.6169 886.7641 886.8489 886.9023 887.0418 887.0657 887.0807 887.1218 887.1283 887.1642 887.1384 887.1354 887.067 887.0322 887.0047 
890.4384 890.4437 890.3898 890.3197 890.3285 890.3276 890.2491 890.2221 890.1861 890.1173 890.1064 890.0112 889.9523 889.9059 889.8801 889.8055 889.7982 889.6274 889.5952 889.5679 889.472 889.3945 889.3214 889.2297 889.1436 889.0576 888.9702 888.8802 888.6431 888.5157 888.4393 888.3582 888.268 888.0004 887.8422 887.6422 887.4749 887.2991 887.1323 886.916 886.7701 886.7039 886.7008 886.6131 886.4337 886.4086 886.3769 886.2833 886.1952 886.1124 886.047 885.9493 885.9357 886.0048 885.9979 885.9955 886.0541 886.1045 886.0953 886.0893 886.0862 886.1478 886.1912 886.1771 886.1951 886.2728 886.2767 886.2697 886.3115 886.3807 886.3718 886.4604 886.4796 886.5688 886.6899 886.7014 886.7649 886.8489 886.9023 886.9753 887.0754 887.0689 887.0365 887.0421 887.0045 887.0344 887.0124 886.9805 886.9447 886.9175 
890.2333 890.2262 890.1767 890.1214 890.1259 890.1213 890.0074 890.0242 889.9839 889.9128 889.9047 889.8063 889.7485 889.7026 889.6794 889.6019 889.5975 889.4234 889.3931 889.3682 889.2688 889.1909 889.1244 889.0324 888.9468 888.8591 888.7678 888.6824 888.4519 888.3232 888.2471 888.1486 888.0052 887.801 887.6659 887.4769 887.3213 887.2066 886.9467 886.7875 886.6907 886.6755 886.6033 886.5107 886.332 886.3098 886.2799 886.1818 886.0938 885.9999 885.9459 885.8459 885.7886 885.819 885.8934 885.8899 885.894 885.8907 885.9122 885.9839 885.9781 886.0425 886.0893 886.0788 886.0743 886.0776 886.1723 886.2232 886.2803 886.2714 886.2816 886.5353 886.5953 886.5716 886.6008 886.7014 886.7649 886.7708 886.8419 886.931 886.9464 886.9642 886.975 886.9573 886.9506 886.9265 886.939 886.9553 886.8959 886.8602 
890.0343 889.9659 889.9096 889.922 889.9197 889.8942 889.8112 889.8042 889.7582 889.7025 889.6707 889.6061 889.55 889.4804 889.4444 889.3916 889.3109 889.2286 889.1633 889.1267 889.0682 888.9855 888.8629 888.7728 888.6814 888.6108 888.5699 888.3996 888.2104 888.0487 887.9744 887.8786 887.7602 887.54 887.4053 887.3005 887.1857 887.0297 886.7599 886.6595 886.5756 886.4995 886.4194 886.4021 886.2365 886.1503 886.1068 886.0838 885.9937 885.8972 885.8445 885.7456 885.6871 885.6891 885.7009 885.7954 885.7865 885.7798 885.8029 885.8799 885.8802 885.8724 885.9187 885.9756 885.9866 886.0639 886.0645 886.1247 886.175 886.2138 886.3741 886.4771 886.5953 886.5716 886.6008 886.6708 886.6659 886.693 886.7092 886.7493 886.8271 886.8694 886.8631 886.7951 886.8495 886.9089 886.8477 886.8583 886.7989 886.7664 
889.812 889.7542 889.7134 889.7132 889.6799 889.605 889.5956 889.5377 889.4988 889.4853 889.3994 889.3756 889.3293 889.2491 889.186 889.1835 889.0482 889.0111 888.931 888.876 888.8733 888.7878 888.603 888.5146 888.426 888.3497 888.3077 888.2106 887.9907 887.8023 887.7253 887.6401 887.5574 887.3615 887.2693 887.1583 887.0147 886.8953 886.619 886.5407 886.4492 886.3895 886.3746 886.3074 886.1247 886.0858 886.0602 885.9799 885.8907 885.7925 885.7437 885.6412 885.5806 885.5877 885.5864 885.6538 885.6922 885.6764 885.6989 885.7769 885.7769 885.7688 885.8134 885.8719 885.8817 885.9571 886.0264 886.1769 886.2887 886.2754 886.3741 886.4771 886.4651 886.5139 886.572 886.5633 886.5749 886.6853 886.6862 886.7007 886.7224 886.7291 886.7772 886.7897 886.8564 886.8198 886.7761 886.772 886.7283 886.6986 
889.5331 889.5042 889.5204 889.49 889.4029 889.4134 889.3393 889.2878 889.3056 889.2867 889.2043 889.1208 889.0881 889.0603 888.976 888.9378 888.7989 888.7807 888.7433 888.6614 888.6104 888.5229 888.39 888.3253 888.2308 888.1422 888.057 887.9351 887.7148 887.564 887.5366 887.4407 887.3535 887.1825 887.0997 886.998 886.8884 886.8026 886.6113 886.5279 886.4423 886.3636 886.2925 886.205 886.0855 886.0486 885.9646 885.8726 885.7911 885.7226 885.6277 885.5848 885.5583 885.4865 885.4848 885.4763 885.5287 885.5858 885.5782 885.574 885.6436 885.6721 885.7081 885.7708 885.7822 885.8624 886.0751 886.1105 886.2887 886.2754 886.2768 886.3625 886.4204 886.4704 886.4598 886.4867 886.5587 886.5613 886.5694 886.5824 886.6021 886.6492 886.7169 886.7521 886.7358 886.7381 886.7722 886.6894 886.6295 886.5909 
889.3019 889.3119 889.3013 889.2602 889.2061 889.1793 889.1221 889.0961 889.0908 889.0466 888.9941 888.911 888.8658 888.8255 888.7643 888.6796 888.6092 888.5415 888.5037 888.4487 888.3618 888.2745 888.1202 888.0899 888.0402 887.9484 887.8549 887.6901 887.4784 887.3017 887.2713 887.2367 887.1518 886.9718 886.8762 886.8201 886.7911 886.7048 886.5339 886.4479 886.3621 886.2766 886.1865 886.0987 886.0347 885.9484 885.8541 885.785 885.7776 885.6184 885.5254 885.4842 885.4655 885.3712 885.2913 885.3847 885.3698 885.4042 885.4765 885.4731 885.5406 885.5714 885.5972 885.7194 885.8683 885.8715 886.0751 886.1105 886.163 886.1819 886.2605 886.261 886.3262 886.379 886.4001 886.4666 886.4521 886.4507 886.4751 886.4891 886.4615 886.4255 886.5513 886.6282 886.6614 886.7335 886.6879 886.5795 886.5599 886.5187 
889.1021 889.1138 889.0692 888.9917 888.996 888.9044 888.891 888.8835 888.8293 888.7845 888.7874 888.6479 888.6054 888.5585 888.5192 888.4748 888.3889 888.3076 888.2705 888.242 888.1037 888.0104 887.9044 887.8297 887.7576 887.6848 887.656 887.4903 887.2844 887.081 887.0334 887.0311 886.9406 886.8137 886.7557 886.7019 886.6898 886.6038 886.4312 886.3412 886.2518 886.1626 886.0901 886.0815 885.9321 885.8362 885.7821 885.77 885.6893 885.5165 885.4219 885.3793 885.3632 885.2692 885.2476 885.2816 885.2667 885.3004 885.3698 885.3797 885.4774 885.5208 885.6107 885.6896 885.8683 885.9347 885.9649 886.0105 886.0596 886.0757 886.1483 886.24 886.3298 886.3684 886.3613 886.36 886.3786 886.3787 886.4176 886.4453 886.3862 886.3882 886.5027 886.5276 886.5543 886.617 886.5986 886.4982 886.5013 886.4608 
888.9068 888.89 888.8394 888.7989 888.7905 888.6851 888.6713 888.6154 888.5804 888.584 888.541 888.4099 888.376 888.3472 888.2706 888.2695 888.1719 888.1192 888.0502 887.96 887.7946 887.7608 887.6254 887.574 887.5267 887.4328 887.3721 887.2861 887.0671 886.9103 886.8951 886.8288 886.8034 886.7036 886.6578 886.6005 886.5878 886.5024 886.3184 886.2858 886.2527 886.1616 886.0779 885.9114 885.8172 885.7816 885.7594 885.6725 885.5858 885.406 885.3783 885.3488 885.2569 885.1663 885.1429 885.1781 885.1655 885.1962 885.2845 885.369 885.4681 885.5184 885.6107 885.6896 885.7577 885.8276 885.9255 885.9664 885.9547 885.9844 886.064 886.2332 886.2606 886.2569 886.2802 886.2878 886.3608 886.35 886.3427 886.3457 886.363 886.359 886.4051 886.4191 886.4237 886.4666 886.4919 886.4258 886.3897 886.3766 
888.6808 888.6219 888.5856 888.5868 888.5477 888.4937 888.429 888.3734 888.3725 888.3273 888.2816 888.1974 888.1511 888.104 888.066 888.012 887.925 887.8859 887.8077 887.663 887.5477 887.4599 887.3897 887.3068 887.2585 887.2419 887.2119 887.1343 886.9577 886.7578 886.7171 886.7052 886.6293 886.6006 886.5564 886.4976 886.486 886.3996 886.2869 886.2435 886.1572 886.0697 885.978 885.8823 885.8287 885.739 885.6553 885.5646 885.4855 885.4177 885.326 885.2402 885.1548 885.0644 885.0382 885.0679 885.1034 885.2014 885.2687 885.369 885.4681 885.5184 885.5699 885.5824 885.6616 885.7524 885.8087 885.8611 885.8896 885.9742 886.0493 886.1219 886.1594 886.2029 886.2603 886.2562 886.2365 886.2535 886.2526 886.2406 886.2558 886.2845 886.3392 886.3429 886.3088 886.295 886.3787 886.3632 886.3153 886.3032 
888.4085 888.381 888.3965 888.3751 888.2858 888.2533 888.2007 888.1833 888.1627 888.0736 887.9783 887.9341 887.8897 887.8455 887.7988 887.758 887.6632 887.6805 887.5735 887.37 887.3397 887.2476 887.183 887.1237 887.0902 887.0311 887.03 886.968 886.8195 886.66 886.5999 886.5938 886.4987 886.509 886.4588 886.3967 886.3895 886.2987 886.192 886.1478 886.0471 885.9825 885.9742 885.81 885.726 885.6323 885.5775 885.5674 885.4842 885.3099 885.2239 885.1379 885.0525 884.9628 884.9333 884.9693 885.0059 885.2014 885.2687 885.2755 885.3666 885.4068 885.4969 885.5623 885.5724 885.6579 885.7038 885.7947 885.8591 885.8788 885.9595 886.0612 886.1091 886.1478 886.1425 886.1741 886.1689 886.2043 886.2156 886.1838 886.2113 886.2869 886.2924 886.2774 886.2529 886.1913 886.2672 886.3011 886.2477 886.1913 
888.1774 888.1923 888.1788 888.1278 888.0853 888.0073 887.9719 887.9664 887.8983 887.8128 887.7687 887.703 887.6601 887.6333 887.5585 887.5516 887.4522 887.3978 887.2443 887.1368 887.1357 887.0365 887.0325 886.9795 886.9214 886.9142 886.9092 886.8278 886.6669 886.4929 886.5035 886.4979 886.3955 886.3456 886.2997 886.2699 886.2017 886.1868 886.0885 886.0388 885.9825 885.9663 885.882 885.7093 885.6158 885.5767 885.5567 885.4665 885.3815 885.2115 885.1264 885.0417 884.9556 884.8607 884.8192 884.9693 885.0059 885.0961 885.1844 885.2697 885.3433 885.3807 885.4102 885.5057 885.5874 885.658 885.702 885.7332 885.8157 885.9087 885.968 886.0798 886.1233 886.1282 886.1478 886.2085 886.2058 886.2084 886.1988 886.1929 886.215 886.2598 886.2285 886.1934 886.1749 886.1255 886.1584 886.1873 886.1776 886.138 
887.983 887.9657 887.9134 887.8733 887.8737 887.7941 887.7481 887.6989 887.6415 887.5637 887.5681 887.5026 887.4581 887.4312 887.3556 887.3508 887.2913 887.1486 887.0236 887.0007 886.9363 886.8519 886.8235 886.8268 886.7887 886.7239 886.7266 886.662 886.5035 886.3912 886.3874 886.311 886.3034 886.239 886.1895 886.1655 886.0913 886.0833 885.9854 885.9365 885.881 885.8671 885.7802 885.6014 885.5765 885.5439 885.4474 885.3768 885.3708 885.216 885.131 885.0521 884.9495 884.8607 884.8192 884.926 885.0182 885.0981 885.1722 885.2572 885.3754 885.4144 885.499 885.5795 885.6404 885.7469 885.8475 885.8743 885.9047 885.9858 886.0071 886.1622 886.2033 886.2734 886.2642 886.2533 886.2441 886.2515 886.2316 886.1906 886.1708 886.1721 886.1553 886.155 886.1389 886.127 886.1091 886.0808 886.066 886.023 
887.7871 887.7336 887.6653 887.6755 887.6705 887.5271 887.4822 887.4642 887.4451 887.3652 887.3635 887.2994 887.2532 887.2278 887.1504 887.1481 887.0444 886.8967 886.8349 886.8384 886.8107 886.7141 886.7154 886.6758 886.6168 886.5965 886.5228 886.5232 886.4153 886.2612 886.199 886.1931 886.1277 886.0849 886.0955 886.067 885.9889 885.9805 885.882 885.8346 885.778 885.7612 885.6838 885.6122 885.5143 885.473 885.4563 885.3689 885.283 885.2153 885.1226 885.0521 884.9495 884.7664 884.682 884.8896 885.0281 885.0809 885.0923 885.2466 885.3323 885.3553 885.3763 885.442 885.4639 885.7189 885.8047 885.8617 885.8894 885.9578 886.0458 886.0524 886.1028 886.1409 886.1362 886.1339 886.1285 886.1287 886.1465 886.1364 886.0657 886.039 886.0577 886.07 886.0724 886.0732 886.0619 885.9738 885.9713 885.9268 
887.5816 887.5335 887.4656 887.4719 887.4736 887.2909 887.2524 887.2661 887.2419 887.1612 887.1592 887.0963 887.0486 887.0242 886.9456 886.9437 886.828 886.6703 886.623 886.6371 886.6274 886.5198 886.5283 886.523 886.4845 886.4142 886.4006 886.3174 886.2181 886.0857 886.093 886.0901 885.9831 885.9946 885.9521 885.8813 885.8832 885.8036 885.7787 885.7329 885.6693 885.6766 885.672 885.4991 885.4736 885.4366 885.3722 885.3631 885.1993 885.2153 885.1226 885.046 884.957 884.7703 884.6321 884.8929 885.0159 885.0886 885.1648 885.2355 885.2607 885.239 885.2731 885.3814 885.4721 885.6325 885.6999 885.7767 885.8533 885.8791 885.9293 885.9984 886.0459 886.0325 886.0323 886.0341 886.0297 886.0289 886.039 886.0266 885.9631 885.9514 885.9576 885.9646 885.955 885.9568 885.9551 885.8669 885.8898 885.8846 
887.3772 887.3304 887.2644 887.2587 887.2097 887.095 887.0503 887.0611 887.0384 886.9574 886.9545 886.8927 886.8438 886.8201 886.7456 886.7354 886.5396 886.5272 886.4833 886.42 886.4246 886.3416 886.3095 886.3187 886.3163 886.2937 886.2015 886.145 886.0458 885.9929 885.9774 885.8978 885.892 885.834 885.7758 885.7839 885.771 885.671 885.6818 885.6305 885.5662 885.5728 885.5663 885.4728 885.4212 885.3704 885.3722 885.3631 885.1993 885.1121 885.0206 884.9733 884.9509 884.7419 884.468 884.8434 884.9722 884.9716 885.0457 885.1044 885.14 885.1444 885.2111 885.3555 885.439 885.6094 885.6556 885.6845 885.7564 885.8407 885.8553 885.9091 885.9337 885.9296 885.9318 885.9335 885.931 885.9293 885.9362 885.9202 885.8555 885.8536 885.8504 885.8422 885.8523 885.858 885.8536 885.793 885.7698 885.7912 
887.1729 887.1272 887.0621 887.0494 886.9558 886.8944 886.8457 886.8562 886.8346 886.7532 886.7562 886.6937 886.638 886.6158 886.5412 886.445 886.3519 886.3232 886.3256 886.2933 886.2192 886.2142 886.1517 886.1005 886.1132 886.0985 885.9919 886.0078 885.9067 885.7796 885.7869 885.7873 885.7159 885.6724 885.6838 885.6568 885.5771 885.5729 885.576 885.526 885.4636 885.4665 885.4677 885.4002 885.4212 885.3704 885.3495 885.2762 885.1968 885.1144 885.0375 884.9557 884.8262 884.5325 884.3076 884.7052 884.8531 884.8708 884.9468 884.9306 885.0045 885.1165 885.2073 885.3089 885.3898 885.5251 885.6029 885.6479 885.6814 885.7332 885.8209 885.8361 885.8254 885.8291 885.8306 885.8327 885.8304 885.8287 885.8328 885.8324 885.7993 885.7118 885.7515 885.7683 885.7819 885.7639 885.7594 885.7578 885.7123 885.6779 
886.977 886.9289 886.8574 886.846 886.7523 886.691 886.6409 886.6513 886.6308 886.5505 886.4893 886.4421 886.4385 886.4157 886.327 886.2333 886.1599 886.1093 886.1205 886.1185 886.1007 886.006 886.0101 885.9632 885.8955 885.8983 885.8951 885.8387 885.7377 885.6821 885.67 885.5895 885.5771 885.5822 885.5405 885.4686 885.4701 885.4701 885.4066 885.3571 885.3658 885.3644 885.4677 885.4002 885.3654 885.3326 885.262 885.2585 885.0891 885.0676 885.0336 884.9233 884.7158 884.3632 884.0466 884.3961 884.6575 884.7486 884.8182 884.842 884.9637 885.0999 885.2167 885.362 885.4666 885.5319 885.5707 885.5867 885.6296 885.6341 885.734 885.725 885.7252 885.7278 885.7301 885.7315 885.7283 885.7278 885.731 885.7388 885.7413 885.6666 885.6413 885.631 885.631 885.6846 885.6644 885.6748 885.6293 885.5656 
886.6895 886.6805 886.6627 886.6433 886.5476 886.4876 886.4354 886.4487 886.4341 886.3474 886.2667 886.2231 886.2344 886.2121 886.1209 886.0162 886.017 885.9633 885.9032 885.9134 885.9069 885.7958 885.8026 885.8027 885.7732 885.6943 885.6895 885.6917 885.6484 885.5509 885.4773 885.4741 885.4786 885.4224 885.3633 885.3723 885.3582 885.2559 885.2628 885.264 885.3658 885.3644 885.364 885.2921 885.2603 885.2265 885.1567 885.1493 885.0661 885.0069 884.9183 884.8125 884.5998 884.252 883.7922 884.0797 884.3561 884.5051 884.599 884.8109 884.9275 885.0465 885.2084 885.3183 885.423 885.5353 885.5724 885.5713 885.5729 885.578 885.6256 885.6238 885.6241 885.6271 885.6285 885.6279 885.6265 885.6271 885.6292 885.6347 885.6345 885.5963 885.5742 885.5524 885.5532 885.5114 885.562 885.5643 885.5639 885.5287 
886.4459 886.4208 886.3943 886.4435 886.3424 886.2837 886.236 886.2181 886.1537 886.1334 886.0635 886.0185 886.0289 886.0078 885.9167 885.8073 885.8138 885.8118 885.7758 885.7055 885.7015 885.6287 885.5861 885.5931 885.5929 885.5793 885.4757 885.4867 885.4387 885.3702 885.3743 885.3699 885.2615 885.2651 885.2676 885.2446 885.1656 885.1638 885.2628 885.264 885.2621 885.264 885.2591 885.1483 885.1631 885.1306 885.0656 885.0549 884.9899 884.8963 884.8149 884.6696 884.3904 884.0447 883.6324 883.8327 884.0685 884.2601 884.4579 884.8197 884.9277 885.0441 885.219 885.3405 885.4473 885.5151 885.5344 885.5306 885.5315 885.5306 885.5211 885.5224 885.5223 885.5265 885.5275 885.5275 885.5251 885.524 885.5262 885.5304 885.5342 885.5452 885.5273 885.5217 885.4814 885.433 885.4561 885.4616 885.4701 885.4731 
886.2429 886.2089 886.1365 886.1623 886.1484 886.0842 886.032 886.0071 885.928 885.9255 885.8629 885.8116 885.826 885.806 885.7196 885.6349 885.6 885.6104 885.5776 885.4957 885.4935 885.4958 885.4398 885.3785 885.3829 885.3807 885.382 885.3204 885.2712 885.2477 885.1697 885.1639 885.1708 885.1154 885.0538 885.0588 885.1656 885.1638 885.1623 885.1611 885.1603 885.1598 885.0753 885.0496 885.0532 885.0607 885.0435 884.9584 884.8878 884.8064 884.6785 884.4512 884.1624 883.5065 883.4337 883.6364 883.9229 884.1871 884.4681 884.8257 884.9466 885.0759 885.1935 885.2672 885.4048 885.431 885.4202 885.421 885.4216 885.4216 885.4193 885.4208 885.4209 885.4247 885.426 885.4258 885.4234 885.4203 885.4209 885.428 885.4371 885.4579 885.4365 885.4333 885.4184 885.4205 885.3779 885.3566 885.3668 885.375 
886.0818 886.0324 886.0002 885.9398 885.8805 885.8373 885.8418 885.8096 885.7265 885.718 885.6165 885.6194 885.5867 885.5169 885.5081 885.4295 885.3906 885.398 885.3981 885.3791 885.298 885.285 885.2882 885.2503 885.1752 885.1729 885.1689 885.1741 885.1312 885.0625 885.066 885.0627 884.998 884.9539 885.0538 885.0588 885.0621 885.048 885.0465 885.0444 885.0459 885.0319 884.9471 884.9527 884.9514 884.9568 884.9372 884.8572 884.7643 884.6725 884.4997 884.2058 883.8886 883.3699 883.2551 883.4507 883.7962 884.0934 884.4642 884.8792 885.0011 885.1404 885.2372 885.2758 885.3165 885.3163 885.3157 885.3127 885.3183 885.319 885.3175 885.319 885.3191 885.3228 885.3242 885.3242 885.3201 885.3179 885.3174 885.3262 885.3382 885.3535 885.3405 885.3312 885.3266 885.3363 885.2764 885.2488 885.2653 885.2733 
885.8945 885.8348 885.8217 885.7338 885.6323 885.5791 885.5336 885.5311 885.5211 885.4391 885.4036 885.4156 885.3781 885.3019 885.2994 885.2988 885.2374 885.1825 885.1882 885.188 885.1049 885.0715 885.0754 885.0729 885.0717 885.071 884.9995 884.9579 884.9626 884.9631 884.95 885.0627 884.998 884.9539 884.9597 884.9529 884.9448 884.8454 884.8495 884.8482 884.8467 884.8467 884.8536 884.8546 884.8425 884.8315 884.8169 884.7291 884.5234 884.3925 884.174 883.9106 883.6632 883.1914 883.0923 883.2534 883.5981 883.9931 884.4152 884.9252 885.0323 885.1329 885.2448 885.2834 885.2872 885.2194 885.2292 885.2581 885.2095 885.2075 885.2128 885.2174 885.2168 885.2212 885.2226 885.2229 885.2175 885.2138 885.2169 885.2236 885.2394 885.2427 885.2402 885.2283 885.2329 885.2308 885.2414 885.195 885.1578 885.1667 
885.6788 885.6226 885.6164 885.5286 885.4218 885.3677 885.309 885.3171 885.3052 885.2053 885.2041 885.2092 885.1718 885.0927 885.0925 885.0898 885.0927 885.0486 884.9774 884.9778 884.98 884.914 884.8613 884.8658 884.8633 884.8607 884.8587 884.8659 884.8217 884.9631 884.95 884.8527 884.8531 884.8558 884.8198 884.7368 884.7337 884.7402 884.7383 884.7363 884.7345 884.7332 884.7106 884.7084 884.6548 884.5853 884.5784 884.4875 884.2089 884.066 883.8448 883.6021 883.3546 883.0478 882.9652 883.1005 883.4489 883.8845 884.3047 884.9326 885.037 885.1158 885.1868 885.2236 885.2606 885.2529 885.2197 885.2004 885.1727 885.1715 885.1312 885.1052 885.116 885.1199 885.1204 885.1198 885.1161 885.1136 885.1143 885.1255 885.1315 885.1128 885.1426 885.1522 885.152 885.1412 885.1473 885.0995 885.0471 885.0626 
885.5121 885.4899 885.4116 885.3227 885.2136 885.1641 885.1043 885.1121 885.0983 884.9944 884.9993 884.9962 884.9972 884.9749 884.894 884.8835 884.8802 884.8833 884.8574 884.776 884.7728 884.7079 884.655 884.6592 884.6569 884.6544 884.6498 884.8659 884.8217 884.7448 884.745 884.7449 884.6796 884.6298 884.5976 884.532 884.5283 884.5139 884.5021 884.5004 884.497 884.4958 884.4324 884.3898 884.347 884.2954 884.2631 884.1736 883.8828 883.6984 883.4844 883.3016 883.092 882.8438 882.7443 882.9075 883.2986 883.7357 884.1961 884.8621 884.9876 885.0679 885.1274 885.1111 885.1839 885.2299 885.2058 885.1546 885.1085 885.113 885.0966 885.0422 885.0029 885.0177 885.0181 885.0172 885.014 885.0129 885.0153 885.0187 885.0138 884.9926 885.0267 885.0461 885.0646 885.0527 885.0408 885.0474 885.0139 884.9566 
885.3778 885.293 885.1964 885.1144 885.0478 884.9526 884.8985 884.9019 884.9017 884.8224 884.7858 884.7899 884.7872 884.7869 884.779 884.6703 884.6737 884.6764 884.6514 884.5699 884.5668 884.5028 884.4487 884.4529 884.4507 884.6544 884.6498 884.6486 884.6053 884.5397 884.5405 884.4587 884.4302 884.3892 884.3176 884.3263 884.327 884.2426 884.2038 884.2087 884.2091 884.2046 884.1844 884.1186 884.0683 884.0533 883.9589 883.871 883.5261 883.35 883.1967 883.0549 882.8948 882.6404 882.5638 882.7506 883.1196 883.5264 884.0331 884.7136 884.8947 884.9536 885.0314 885.0739 885.098 885.1116 885.1122 885.1066 885.0683 885.0004 885.0133 885.0047 884.9579 884.9071 884.9135 884.916 884.9119 884.9116 884.9131 884.9128 884.8989 884.9361 884.9581 884.9713 884.9727 884.9502 884.9402 884.95 884.9186 884.8531 
885.1678 885.1042 885.09 885.0073 884.842 884.7446 884.6888 884.699 884.688 884.5833 884.5858 884.583 884.5803 884.5801 884.5739 884.4633 884.4669 884.4697 884.4459 884.3644 884.3605 884.2979 884.2426 884.4529 884.4507 884.4481 884.4512 884.3915 884.3273 884.3365 884.3351 884.2538 884.2302 884.189 884.1198 884.1203 884.0984 884.0066 884.0171 884.0051 883.9833 883.9745 883.8765 883.8285 883.784 883.7408 883.6478 883.3923 883.2268 883.07 882.9437 882.8198 882.687 882.4114 882.4266 882.6475 882.9562 883.3077 884.1705 884.4924 884.7275 884.8723 884.9299 884.9575 885.0129 885.0068 885.0059 885.0078 885.0081 884.9132 884.8968 884.9114 884.91 884.8852 884.819 884.8234 884.8195 884.8162 884.8148 884.8128 884.8698 884.9081 884.876 884.8687 884.8535 884.8499 884.8387 884.8528 884.8204 884.7524 
885.0005 884.9811 884.8979 884.8105 884.6266 884.5897 884.5594 884.4874 884.4869 884.4117 884.3721 884.3763 884.3734 884.373 884.3678 884.2568 884.2604 884.2631 884.2404 884.1589 884.1545 884.2979 884.2426 884.2466 884.2446 884.2405 884.2354 884.1813 884.1279 884.1341 884.1251 884.0171 884.0177 883.9681 883.9202 883.9072 883.8051 883.8146 883.8025 883.7523 883.6959 883.6969 883.5895 883.559 883.5303 883.4352 883.3342 883.0679 882.9194 882.7891 882.6923 882.5651 882.4771 882.1827 882.2535 882.4711 882.7437 883.0991 883.8974 884.2271 884.4805 884.6554 884.7663 884.8165 884.9203 884.9086 884.9031 884.9025 884.9048 884.8964 884.8362 884.8076 884.7967 884.7408 884.717 884.6349 884.6337 884.6274 884.62 884.6288 884.7273 884.715 884.7287 884.7286 884.7516 884.7437 884.7484 884.7045 884.6516 884.6404 
884.8607 884.7797 884.692 884.6042 884.4876 884.4492 884.351 884.2794 884.2799 884.2065 884.1652 884.1694 884.1669 884.1661 884.0839 884.0504 884.0539 884.0568 884.2404 884.1589 884.1545 884.0932 884.0366 884.0408 884.0383 884.0402 883.9671 883.9177 883.929 883.9252 883.9013 883.8218 883.761 883.7037 883.7108 883.679 883.6058 883.5928 883.5361 883.494 883.5009 883.463 883.3066 883.2726 883.2162 883.1295 883.0298 882.7606 882.643 882.5268 882.4468 882.3685 882.2764 881.9796 882.0391 882.2571 882.5222 882.8251 883.6524 883.9726 884.2169 884.4202 884.5704 884.6552 884.7449 884.7775 884.8234 884.8209 884.8123 884.7275 884.7308 884.6896 884.6013 884.5363 884.529 884.4235 884.4261 884.4192 884.4104 884.416 884.5269 884.5589 884.5684 884.582 884.5625 884.5346 884.5488 884.5103 884.415 884.3496 
884.6608 884.5743 884.4844 884.3846 884.3314 884.2317 884.178 884.1619 884.0817 884.0033 883.9604 883.9629 883.9604 883.9594 883.8767 883.8444 884.0539 884.0568 884.0353 883.9534 883.9487 883.8888 883.8308 883.835 883.8333 883.8198 883.7589 883.7186 883.7275 883.7056 883.6178 883.6231 883.5631 883.5098 883.4867 883.4017 883.4117 883.3391 883.2902 883.2944 883.2523 883.1922 883.0632 882.9976 882.9008 882.8174 882.7299 882.4613 882.3971 882.3462 882.2535 882.1631 882.076 881.7957 881.8586 882.1013 882.3076 882.5739 883.3117 883.6402 883.9219 884.1496 884.2947 884.3742 884.5165 884.5551 884.5577 884.5542 884.5496 884.5257 884.4809 884.4377 884.4006 884.3286 884.327 884.2528 884.2049 884.2007 884.2186 884.2986 884.3153 884.3273 884.3343 884.3365 884.3285 884.3326 884.2743 884.2378 884.215 884.1442 
884.4561 884.3647 884.287 884.2117 884.1201 884.0267 883.9724 883.9563 883.8771 883.8707 883.8121 883.7494 883.7574 883.7443 883.8767 883.8444 883.848 883.8502 883.8304 883.7485 883.743 883.6844 883.6252 883.6291 883.6298 883.5443 883.5103 883.5197 883.5225 883.5048 883.4219 883.3956 883.3408 883.3076 883.2879 883.2061 883.176 883.124 883.0786 883.0373 882.9859 882.948 882.8051 882.7374 882.6514 882.5529 882.425 882.2113 882.1381 882.0773 882.0046 881.9677 881.881 881.6229 881.7131 881.9269 882.0884 882.2972 882.9651 883.3076 883.612 883.8366 883.9796 884.0566 884.2513 884.2899 884.3337 884.321 884.3196 884.3291 884.268 884.2175 884.1978 884.1248 884.1188 884.1123 884.1005 884.0974 884.0984 884.107 884.1126 884.1063 884.1271 884.1256 884.1356 884.0465 884.0157 884.0356 884.0128 883.9241 
884.2451 884.1813 884.1722 884.0015 883.9084 883.8703 883.8425 883.766 883.7595 883.6557 883.6051 883.5438 883.7574 883.7443 883.6397 883.6449 883.6416 883.6442 883.6255 883.5434 883.5377 883.4802 883.42 883.4244 883.4224 883.3385 883.311 883.3155 883.309 883.2742 883.2153 883.1349 883.0926 883.094 883.0518 883.0013 882.9175 882.8906 882.8564 882.7737 882.7383 882.6866 882.5551 882.4941 882.4056 882.3065 882.1772 882.0021 881.9121 881.8203 881.7477 881.6967 881.6078 881.4763 881.5676 881.7055 881.8772 882.049 882.6487 882.997 883.3044 883.5289 883.6809 883.9341 884.0063 884.0339 884.0649 884.1265 884.1268 884.0555 884.013 884.0198 883.9941 883.9199 883.9146 883.9131 883.9046 883.9006 883.9 883.8988 883.8946 883.9351 883.9762 883.9503 883.8515 883.8082 883.8245 883.7816 883.7239 883.7178 
884.0396 883.9752 883.9664 883.79 883.7665 883.7313 883.6306 883.5583 883.5502 883.4499 883.6051 883.5438 883.5506 883.5403 883.4398 883.4378 883.4358 883.4385 883.4207 883.3387 883.3332 883.2772 883.2145 883.2228 883.2128 883.1046 883.1115 883.1171 883.0842 882.9983 883.0007 882.9385 882.9 882.8661 882.7871 882.793 882.7099 882.6727 882.6075 882.5226 882.4789 882.4415 882.2676 882.1778 882.0911 882.0036 881.9142 881.7856 881.7198 881.6249 881.538 881.4487 881.2592 881.3403 881.4705 881.5485 881.6624 881.842 882.3603 882.6898 882.9634 883.1514 883.3689 883.6024 883.7094 883.7833 883.828 883.8275 883.8246 883.8083 883.8049 883.818 883.7948 883.7137 883.709 883.7043 883.7 883.6945 883.691 883.6942 883.688 883.6863 883.6488 883.632 883.624 883.6039 883.6124 883.5765 883.5201 883.5106 
883.8341 883.7686 883.76 883.5848 883.5577 883.5236 883.4278 883.36 883.5502 883.4499 883.4003 883.3378 883.3415 883.3406 883.2621 883.2266 883.2303 883.233 883.2175 883.1345 883.1116 883.0582 883.0126 883.012 882.9835 882.9043 882.9083 882.8967 882.8536 882.8018 882.7723 882.7197 882.6756 882.6342 882.584 882.5452 882.4566 882.381 882.3055 882.2706 882.2206 882.0402 881.9533 881.866 881.7757 881.6994 881.6582 881.515 881.4857 881.4318 881.3356 881.248 881.1159 881.1838 881.2813 881.3865 881.529 881.6386 882.0501 882.3229 882.5851 882.803 882.976 883.2895 883.3994 883.476 883.5577 883.6137 883.612 883.6003 883.6104 883.5768 883.5062 883.5031 883.5028 883.4999 883.4902 883.4864 883.481 883.4855 883.5995 883.5375 883.4602 883.4172 883.4098 883.4066 883.3492 883.2997 883.3175 883.3086 
883.6293 883.5621 883.5543 883.3849 883.3558 883.3117 883.4278 883.36 883.268 883.2426 883.2023 883.1422 883.1383 883.1295 883.0272 883.0268 883.0262 883.0218 882.9926 882.9187 882.8488 882.8002 882.8171 882.7928 882.7056 882.7036 882.711 882.6631 882.5864 882.5971 882.5121 882.4876 882.4421 882.3824 882.3766 882.2888 882.2009 882.1234 882.0505 882.0154 881.9685 881.7975 881.7122 881.6229 881.5262 881.4609 881.4636 881.2858 881.2157 881.177 881.1348 881.045 880.9271 881.0342 881.1614 881.2484 881.3481 881.4316 881.8292 882.0392 882.2466 882.4891 882.6482 882.9805 883.0897 883.165 883.2509 883.317 883.3092 883.3698 883.3602 883.2943 883.2949 883.2979 883.2962 883.287 883.3239 883.384 883.3797 883.3751 883.3886 883.3322 883.2593 883.216 883.2029 883.1993 883.1497 883.2997 883.3175 883.3086 
883.4303 883.3565 883.347 883.3849 883.3558 883.3117 883.2478 883.2417 883.069 883.0366 883.0444 883.0106 882.9286 882.9283 882.8582 882.8132 882.8265 882.7957 882.7104 882.7195 882.6519 882.6003 882.6109 882.5906 882.5093 882.5009 882.4827 882.4334 882.3923 882.3887 882.3004 882.2928 882.2489 882.1694 882.1209 882.0358 881.9391 881.9057 881.8414 881.7551 881.7073 881.5339 881.4415 881.3875 881.3415 881.2504 881.1945 881.0925 880.9929 880.9453 880.9321 880.8405 880.7825 880.8838 880.981 881.0613 881.1396 881.2249 881.5579 881.7798 882.0014 882.1675 882.33 882.6697 882.7806 882.8528 882.9316 883.0178 883.0909 883.0939 883.0947 883.0916 883.0895 883.0898 883.0905 883.086 883.0732 883.0952 883.1647 883.1733 883.1786 883.1266 883.0582 883.0146 882.997 883.1993 883.1497 883.0972 883.1105 883.095 
883.225 883.3565 883.347 883.2528 883.2048 883.1006 883.0405 883.0286 882.9402 882.8764 882.8282 882.8 882.7227 882.7218 882.669 882.6229 882.6188 882.5934 882.5142 882.4889 882.4321 882.3982 882.4058 882.3869 882.3054 882.3012 882.2387 882.1779 882.1936 882.1842 882.0783 882.0583 882.0167 881.9586 881.8574 881.7762 881.7094 881.6339 881.6022 881.5558 881.4586 881.2849 881.1964 881.124 881.0828 881.0405 880.9581 880.8947 880.7899 880.7459 880.7355 880.6367 880.5884 880.6811 880.7623 880.845 880.925 881.0101 881.3438 881.511 881.7205 881.9565 882.1105 882.3514 882.4639 882.586 882.7009 882.7064 882.7846 882.783 882.7772 882.814 882.8862 882.8854 882.8838 882.8742 882.9102 882.9716 882.9625 882.9589 882.9654 882.9096 882.8553 883.0146 882.997 882.9929 882.9409 882.9033 882.8823 882.8022 
883.225 883.1509 883.1416 883.0422 882.9968 882.8969 882.8348 882.824 882.7286 882.6686 882.6219 882.6028 882.5389 882.5177 882.5264 882.4675 882.4082 882.3893 882.3116 882.2233 882.1896 882.199 882.2013 882.1832 882.1016 882.0962 882.0398 881.9819 881.9775 881.9348 881.8823 881.8212 881.7468 881.7119 881.6622 881.5781 881.483 881.4172 881.3369 881.295 881.2566 881.0861 881.0003 880.9056 880.8473 880.8388 880.756 880.6552 880.5982 880.5112 880.4548 880.4316 880.4731 880.5632 880.6465 880.7296 880.813 880.8956 881.1312 881.3023 881.4726 881.6467 881.8096 882.076 882.1432 882.2705 882.4255 882.4839 882.5544 882.5812 882.5756 882.5709 882.59 882.6692 882.6687 882.7273 882.7728 882.7584 882.756 882.756 882.6971 882.9096 882.8553 882.8134 882.7977 882.7847 882.7417 882.6948 882.6799 882.605 
883.0121 882.9435 882.9252 882.8373 882.7924 882.6927 882.6295 882.6192 882.5234 882.4648 882.4111 882.4235 882.4108 882.3226 882.3156 882.259 882.2054 882.1883 882.1075 882.0267 881.989 881.9934 881.9977 881.9838 881.8988 881.892 881.8364 881.781 881.7617 881.6771 881.6859 881.6295 881.5232 881.4643 881.4573 881.3763 881.2881 881.2145 881.1125 881.0471 881.0492 880.8825 880.7964 880.7039 880.6448 880.6355 880.457 880.4373 880.3981 880.2985 880.2278 880.2256 880.2802 880.3686 880.4507 880.5331 880.6155 880.7745 880.915 881.0914 881.261 881.4315 881.593 881.7518 881.8987 881.9916 882.0231 882.1829 882.2742 882.259 882.3102 882.3749 882.3675 882.3695 882.4664 882.5139 882.565 882.5536 882.5482 882.756 882.6971 882.6385 882.6382 882.6271 882.5969 882.5877 882.5361 882.4874 882.476 882.4005 
882.7335 882.7241 882.6374 882.6384 882.5886 882.4887 882.4242 882.4146 882.3182 882.2612 882.2065 882.2158 882.1993 882.1176 882.1132 882.0602 881.9869 881.9513 881.9009 881.8233 881.7843 881.7919 881.7805 881.7371 881.6887 881.6874 881.6335 881.5765 881.5583 881.4742 881.4296 881.3887 881.3244 881.2588 881.2515 881.1613 881.0964 881.0346 880.9938 880.911 880.8501 880.6792 880.593 880.5003 880.4402 880.4309 880.2542 880.2385 880.199 880.0954 880.0204 880.0161 880.1624 880.2509 880.3382 880.4209 880.5042 880.6649 880.8115 880.9396 881.0519 881.2058 881.2948 881.5606 881.5809 881.6013 881.7116 881.8701 882.0402 882.0663 882.0545 882.087 882.161 882.1626 882.2129 882.3103 882.3563 882.5536 882.5482 882.5441 882.48 882.4534 882.4319 882.4142 882.3709 882.3666 882.319 882.2855 882.2729 882.1954 
882.5332 882.5201 882.4396 882.4183 882.3713 882.2864 882.2194 882.2101 882.1132 882.0576 882.0014 882.0115 881.9981 881.8982 881.8824 881.8378 881.7604 881.6848 881.6909 881.6199 881.5796 881.5912 881.5602 881.4771 881.4783 881.4828 881.4307 881.3687 881.3666 881.3329 881.2345 881.1854 881.1428 881.1097 881.0579 880.9714 880.9335 880.8956 880.8267 880.7376 880.6487 880.4756 880.3899 880.2932 880.2281 880.226 880.0547 879.9741 879.9359 879.8916 879.8277 879.897 880.0735 880.103 880.1312 880.2191 880.3026 880.4664 880.6111 880.736 880.8436 881.0023 881.0824 881.2406 881.3205 881.4032 881.4796 881.5687 881.8351 881.8553 881.8505 881.8481 881.8654 881.9401 882.2129 882.3103 882.3563 882.3484 882.345 882.2661 882.2309 882.1876 882.1932 882.163 882.1841 882.0981 882.0617 882.0782 882.0463 881.9651 
882.3287 882.3155 882.2224 882.1532 882.1116 882.0875 882.0152 882.0056 881.9084 881.8541 881.7989 881.7974 881.761 881.7023 881.6315 881.5871 881.5639 881.488 881.4869 881.4169 881.3751 881.3864 881.3589 881.2794 881.2736 881.2791 881.2241 881.1596 881.1599 881.1133 881.0642 881.047 881.0049 880.9352 880.8513 880.7714 880.746 880.7143 880.6151 880.524 880.4437 880.2631 880.171 880.1177 880.0984 880.0258 879.852 879.7568 879.7224 879.6914 879.617 879.6961 879.8664 879.9434 880.0238 880.1145 880.1877 880.2492 880.4006 880.5347 880.6103 880.6929 880.7706 880.9297 881.0109 881.0938 881.1709 881.2603 881.5259 881.5499 881.5372 881.5705 881.8654 881.9401 881.9384 882.0316 882.1403 882.1404 882.1407 882.0549 881.9607 881.9403 881.9532 881.999 881.9857 881.8997 881.8687 881.8416 881.7344 881.6749 
882.1284 882.1142 882.0167 881.955 881.9133 881.8853 881.8104 881.8013 881.7036 881.6503 881.5989 881.5756 881.4919 881.4662 881.412 881.3906 881.3604 881.2838 881.2821 881.2137 881.1703 881.1816 881.1555 881.0756 881.069 881.0695 881.0554 881.0174 880.9474 880.856 880.8569 880.864 880.8215 880.7379 880.713 880.623 880.5759 880.4877 880.4301 880.3917 880.2437 880.153 880.0603 879.9827 879.9091 879.8213 879.6476 879.5602 879.4683 879.4306 879.4997 879.584 879.7508 879.8438 879.8928 879.9042 879.9873 880.1533 880.2371 880.3201 880.4017 880.4841 880.5632 880.7236 880.8042 880.888 880.9696 881.0488 881.2814 881.3502 881.5372 881.5705 881.65 881.6571 881.7545 881.7241 881.7776 881.9106 881.8951 881.7454 881.7195 881.761 881.7739 881.7609 881.7366 881.6962 881.6528 881.5964 881.4697 881.4695 
881.8972 881.8872 881.8179 881.7561 881.6924 881.6556 881.6058 881.5977 881.499 881.447 881.3936 881.3737 881.2964 881.2051 881.1724 881.1912 881.157 881.08 881.0775 881.0106 880.966 880.9771 880.9522 880.8719 880.8643 880.8713 880.8461 880.7888 880.7546 880.7216 880.6442 880.6525 880.6425 880.6059 880.5493 880.4571 880.4236 880.378 880.2954 880.2213 880.113 879.9584 879.8697 879.7855 879.7034 879.6166 879.4429 879.3575 879.2488 879.2344 879.3995 879.488 879.6579 879.6894 879.7102 879.8002 879.8774 879.9421 880.0304 880.1066 880.2167 880.376 880.4602 880.5588 880.5929 880.6802 880.7618 880.8434 881.2814 881.3502 881.3418 881.3711 881.4554 881.5474 881.5416 881.5374 881.524 881.511 881.5077 881.5264 881.5413 881.5313 881.5569 881.551 881.5466 881.4784 881.3931 881.331 881.2708 881.2711 
881.5987 881.5764 881.5548 881.5272 881.4587 881.3889 881.4008 881.3954 881.2944 881.2441 881.1891 881.1704 881.0916 881.0513 881.0011 880.982 880.9539 880.8763 880.8729 880.8105 880.761 880.7726 880.7488 880.6681 880.67 880.6302 880.5716 880.5496 880.5535 880.5541 880.4716 880.4396 880.4498 880.4257 880.3373 880.3258 880.2711 880.1873 880.0955 880.0206 880.0074 879.8356 879.7609 879.6458 879.4905 879.4037 879.2367 879.1428 879.0806 879.1059 879.1973 879.3635 879.4461 879.5271 879.6141 879.6782 879.6823 879.8423 879.9253 880.0088 880.0912 880.1718 880.3328 880.4196 880.4524 880.4761 880.7618 880.8434 881.001 881.0903 881.1918 881.2449 881.2499 881.3392 881.3371 881.3327 881.316 881.2982 881.2946 881.3132 881.3492 881.3491 881.3309 881.3317 881.3131 881.2338 881.1645 881.145 881.1027 881.0698 
881.3889 881.3032 881.2374 881.2434 881.2407 881.194 881.2007 881.1959 881.0896 881.041 880.9847 880.967 880.8875 880.8521 880.799 880.7774 880.7506 880.6739 880.6672 880.5788 880.5608 880.5706 880.5521 880.4662 880.4126 880.3626 880.3472 880.3499 880.3476 880.3577 880.2861 880.2321 880.239 880.235 880.2102 880.1276 880.1257 880.0771 879.9837 879.8918 879.8071 879.7558 879.6162 879.467 879.3777 879.2946 879.0544 878.9818 878.9876 879.0037 879.0872 879.2549 879.3381 879.4211 879.5096 879.5746 879.5794 879.7372 879.8206 879.9037 879.9869 880.0701 880.2375 880.2585 880.4524 880.4761 880.5637 880.6464 880.791 880.9432 881.0501 881.0338 881.0579 881.1301 881.1298 881.1343 881.0885 881.0002 880.9909 881.048 881.1383 881.2255 881.2212 881.1684 881.0411 881.0424 881.0293 880.9948 880.965 880.9127 
881.186 881.1025 881.11 881.0409 880.983 880.9828 880.9508 880.9443 880.8917 880.8412 880.78 880.7633 880.685 880.6009 880.5622 880.577 880.5472 880.4708 880.384 880.3527 880.3685 880.3481 880.2852 880.2571 880.1834 880.1396 880.1473 880.1449 880.1444 880.0836 880.0416 880.0337 880.0325 880.0342 880.0261 879.9153 879.9303 879.8872 879.8163 879.7956 879.6279 879.5462 879.454 879.3621 879.2809 879.1931 878.9251 878.7772 878.6972 878.8185 878.9796 879.15 879.2338 879.3179 879.4021 879.4917 879.5734 879.6422 879.7341 879.8201 879.904 880.0701 880.2375 880.2585 880.2927 880.3822 880.4662 880.533 880.596 880.7271 880.8248 880.8637 880.9328 880.9351 880.9313 880.9207 880.8927 880.8293 880.8246 880.817 880.8523 880.9028 880.9958 880.987 880.8967 880.8798 880.8821 880.8488 880.8043 880.7668 
880.9895 880.9352 880.8971 880.8353 880.7855 880.7634 880.6752 880.6829 880.6552 880.6028 880.5807 880.5661 880.4816 880.4023 880.3604 880.3751 880.3503 880.2672 880.1843 880.1551 880.1299 880.073 880.0498 880.0469 879.9514 879.9421 879.9419 879.9398 879.9402 879.8519 879.8204 879.8306 879.8276 879.8258 879.8239 879.7415 879.7138 879.6791 879.6021 879.6041 879.5246 879.4321 879.3467 879.2661 879.1633 878.9998 878.7559 878.606 878.6254 878.8192 878.9691 879.1171 879.2399 879.3076 879.4237 879.5859 879.6725 879.8436 879.9268 879.8201 879.904 879.9833 880.1407 880.2315 880.2763 880.3018 880.3649 880.3762 880.5354 880.5663 880.6245 880.7744 880.7839 880.8283 880.8126 880.7476 880.7308 880.7398 880.731 880.7285 880.7167 880.7269 880.7442 880.8046 880.7717 880.7513 880.7371 880.6913 880.6535 880.6123 
880.7935 880.7934 880.6835 880.6611 880.6132 880.5721 880.5251 880.4808 880.413 880.3665 880.3603 880.309 880.2723 880.2017 880.16 880.1432 880.0876 880.061 879.9834 879.9526 879.908 879.8403 879.8501 879.8499 879.7336 879.7393 879.7369 879.7349 879.733 879.7198 879.6555 879.6133 879.6224 879.6198 879.6178 879.6116 879.5568 879.4993 879.4999 879.4894 879.3904 879.3373 879.2451 879.1593 879.0758 878.9852 878.6411 878.5512 878.6288 878.8132 878.9757 879.2311 879.2278 879.201 879.3275 879.473 879.5584 879.8436 879.9268 880.0219 880.0783 880.0908 880.1734 880.2125 880.3067 880.3668 880.3688 880.4367 880.5033 880.5365 880.6045 880.7216 880.7407 880.7219 880.7313 880.6936 880.6352 880.6365 880.6316 880.6227 880.6287 880.6175 880.5639 880.5391 880.5721 880.5669 880.5832 880.543 880.5016 880.4205 
880.6256 880.5834 880.4917 880.486 880.4513 880.38 880.3736 880.2733 880.2132 880.1727 880.1464 880.0629 880.0607 879.97 879.9677 879.9288 879.8511 879.8477 879.7542 879.7582 879.7113 879.6418 879.633 879.571 879.5346 879.5339 879.5317 879.5294 879.5273 879.5247 879.5195 879.4664 879.4064 879.4132 879.4119 879.4143 879.3553 879.2906 879.2949 879.2929 879.2903 879.2357 879.1431 879.0572 878.9738 878.8868 878.4621 878.4352 878.6381 878.8297 879.0728 879.1823 879.2227 879.3677 879.4644 879.473 879.5584 879.7342 879.811 879.9351 880.0692 880.0851 880.1637 880.1467 880.1782 880.2329 880.2269 880.2379 880.33 880.3757 880.4157 880.4245 880.5143 880.5042 880.5054 880.5067 880.5014 880.4951 880.4898 880.4545 880.4406 880.4206 880.4229 880.4 880.3714 880.4188 880.4315 880.3907 880.3557 880.2653 
880.4846 880.4342 880.3491 880.3064 880.2379 880.1686 880.164 880.0693 880.0151 879.9374 879.8903 879.8647 879.8641 879.7523 879.7258 879.6706 879.6529 879.642 879.5429 879.5047 879.4507 879.4443 879.4332 879.3438 879.331 879.3286 879.3263 879.3242 879.3219 879.3174 879.3162 879.3143 879.279 879.2089 879.2035 879.2012 879.1957 879.1889 879.185 879.1837 879.1889 879.1345 879.0408 878.9552 878.8738 878.7816 878.2975 878.4842 878.8326 878.9169 879.0738 879.3348 879.3477 879.3677 879.4644 879.398 879.6337 879.7336 879.8141 879.9064 879.9882 880.0583 880.0479 880.0471 880.0429 880.0352 880.0455 880.1119 880.1741 880.2194 880.2044 880.2205 880.2799 880.3301 880.3259 880.2934 880.2805 880.2827 880.2883 880.2418 880.1945 880.2124 880.2625 880.3046 880.2953 880.2819 880.2803 880.2443 880.2073 880.1184 
880.2784 880.2803 880.1765 880.1334 880.0533 880.0176 879.9639 879.8707 879.8193 879.7128 879.6532 879.6501 879.5956 879.5565 879.5021 879.4391 879.4485 879.4387 879.3406 879.2829 879.232 879.217 879.151 879.1295 879.134 879.1271 879.1202 879.1185 879.1163 879.1116 879.1089 879.1132 879.082 878.9991 879.0008 878.9966 878.9855 879.0168 879.0856 879.0856 879.0103 878.9763 878.9443 878.8594 878.7496 878.2077 878.2481 878.5615 878.8519 879.0195 879.1829 879.3348 879.3477 879.3071 879.4233 879.5964 879.6948 879.6834 879.7729 879.904 879.9446 879.9523 879.9467 879.9456 879.9345 879.9183 879.9156 879.9008 879.9651 880.0114 880.0046 880.0031 880.0052 880.158 880.1345 880.097 880.1234 880.125 880.0817 880.0667 880.0754 880.0942 880.0939 880.1165 880.1227 880.1324 880.1312 880.0997 880.0513 879.9622 
880.1219 880.0735 879.9963 879.9149 879.862 879.8564 879.7654 879.6133 879.5779 879.5167 879.4542 879.4413 879.3433 879.3539 879.3001 879.2367 879.2432 879.2344 879.1356 879.0803 879.0297 879.0067 878.9287 878.8585 878.818 878.864 878.9202 878.9133 878.9102 878.9056 878.9031 878.9008 878.901 878.8846 878.7056 878.7418 878.7853 878.8083 878.8804 878.8792 878.8796 878.8264 878.7361 878.6284 878.4399 877.9748 878.2332 878.6788 878.9462 879.0195 879.1829 879.3466 879.4456 879.5097 879.5204 879.5797 879.7573 879.856 879.9108 879.8635 879.7893 879.8376 879.8354 879.8563 879.8066 879.7299 879.7296 879.6955 879.7369 879.7838 879.8024 879.8013 879.809 879.892 879.9049 879.9586 879.9843 879.9246 879.8853 879.9077 879.9238 879.9526 879.9525 879.9437 879.9651 879.9592 879.9333 879.9432 879.9119 879.8162 
879.9717 879.8826 879.7985 879.7384 879.7088 879.6478 879.5614 879.3782 879.3566 879.3212 879.2513 879.2451 879.1385 879.1489 879.0966 879.0318 879.038 879.0301 878.9305 878.8716 878.819 878.8011 878.7187 878.6315 878.654 878.7115 878.7096 878.7068 878.704 878.6994 878.6969 878.6942 878.6918 878.6912 878.6086 878.5674 878.6138 878.7071 878.7755 878.7756 878.7075 878.618 878.4929 878.3116 878.1347 877.9249 878.2332 878.6788 878.9462 879.1119 879.285 879.3808 879.4725 879.6218 879.6661 879.618 879.7352 879.8137 879.9139 879.9558 879.8801 879.7985 879.6758 879.6779 879.6646 879.6403 879.6055 879.5004 879.4766 879.5266 879.6025 879.5972 879.6022 879.6884 879.7484 879.7831 879.7167 879.7086 879.7327 879.7912 879.8262 879.8303 879.8484 879.841 879.843 879.8035 879.77 879.7347 879.7364 879.6577 
879.7683 879.7399 879.665 879.5933 879.5267 879.4355 879.3488 879.1796 879.1088 879.0651 879.0303 878.9687 878.9374 878.9435 878.8927 878.8268 878.8328 878.8251 878.7158 878.7212 878.6731 878.6092 878.5948 878.4905 878.5009 878.5068 878.5031 878.5006 878.4979 878.4931 878.4904 878.4879 878.485 878.4847 878.4051 878.3621 878.4066 878.498 878.5645 878.5637 878.5031 878.3586 878.1793 878.0129 878.1347 877.9249 878.2983 878.7256 878.9297 879.1154 879.3502 879.447 879.4778 879.491 879.6141 879.7638 879.6439 879.6934 879.7944 879.8544 879.858 879.8616 879.5925 879.4988 879.5019 879.445 879.3892 879.3507 879.3199 879.3531 879.3932 879.4009 879.4443 879.4859 879.5094 879.5227 879.5207 879.5638 879.5998 879.6237 879.6354 879.6158 879.6608 879.6929 879.7139 879.6929 879.668 879.5987 879.6027 879.5147 
879.5619 879.5673 879.5003 879.4366 879.3971 879.3088 879.2241 879.0004 878.8713 878.834 878.819 878.731 878.7314 878.7394 878.6856 878.613 878.6174 878.6227 878.5425 878.5068 878.5161 878.4833 878.4065 878.4017 878.3397 878.2877 878.2924 878.2904 878.2885 878.2844 878.2822 878.2805 878.2785 878.2758 878.2717 878.2704 878.2669 878.2617 878.2563 878.2542 878.1906 878.0428 878.1793 878.0129 877.8317 877.8448 878.246 878.6453 878.9221 879.0847 879.2419 879.4288 879.4724 879.4935 879.5571 879.6474 879.6119 879.6138 879.6725 879.7258 879.7448 879.7417 879.6592 879.6817 879.5592 879.3182 879.2886 879.1749 879.1915 879.1917 879.1862 879.1974 879.2808 879.2819 879.2983 879.3376 879.3722 879.4121 879.4907 879.4973 879.4617 879.471 879.504 879.6036 879.5763 879.519 879.517 879.4954 879.4373 879.3508 
879.3521 879.3537 879.3392 879.293 879.2189 879.1313 879.0447 878.8535 878.7546 878.675 878.6211 878.6123 878.5451 878.5176 878.5178 878.5095 878.4942 878.419 878.4126 878.3533 878.298 878.3072 878.2902 878.1888 878.1911 878.1884 878.1866 878.1848 878.183 878.1788 878.1838 878.1451 878.0712 878.0695 878.0635 878.0612 878.0588 878.0565 878.056 878.0446 878.1906 878.0428 877.9018 877.8042 877.6402 877.8221 878.2557 878.6109 878.817 878.9709 879.1356 879.3125 879.4033 879.4009 879.3633 879.5092 879.611 879.6091 879.5455 879.5531 879.641 879.6473 879.5769 879.53 879.5141 879.4448 879.3405 879.0698 879.0135 878.9674 878.98 878.9797 879.0565 879.0735 879.1198 879.1955 879.2223 879.2553 879.3176 879.3621 879.3878 879.3964 879.3914 879.4095 879.4077 879.395 879.3789 879.3207 879.3016 879.2081 
879.2228 879.1631 879.1365 879.1372 879.0967 879.0068 878.9141 878.7437 878.6589 878.5715 878.486 878.4227 878.4152 878.3547 878.3043 878.3114 878.3152 878.3008 878.195 878.2043 878.1652 878.0927 878.0907 878.0934 878.0329 877.9772 877.9823 877.9811 877.9782 877.9728 877.9703 877.968 877.9711 877.9619 877.8539 877.8547 877.8528 877.8528 878.056 877.9637 877.8758 877.7418 877.6002 877.511 877.4395 877.8317 878.2393 878.5948 878.7883 878.886 879.1285 879.1987 879.2321 879.2453 879.2798 879.3364 879.4355 879.4991 879.5301 879.4732 879.4976 879.5411 879.472 879.4302 879.405 879.3112 879.2253 879.0676 878.9388 878.8354 878.8173 878.829 878.8602 878.9065 878.9463 878.9886 879.0615 879.1089 879.1915 879.1969 879.2592 879.3094 879.2847 879.274 879.2852 879.2642 879.2128 879.1913 879.1263 879.046 
879.0515 879.0258 879.0192 878.9906 878.9067 878.8309 878.8135 878.6511 878.5654 878.4802 878.389 878.3046 878.2404 878.1986 878.2063 878.179 878.1033 878.096 878.0999 878.0486 877.9852 877.9908 877.9827 877.8789 877.8816 877.8849 877.8563 877.7771 877.7714 877.7675 877.7633 877.7611 877.7582 877.7579 877.6861 877.6417 877.8528 877.8528 877.8312 877.6587 877.5748 877.4902 877.4069 877.3121 877.2706 877.8224 878.1652 878.4777 878.7189 878.8598 879.0255 879.0388 879.0757 879.1697 879.2234 879.2429 879.3279 879.3702 879.4235 879.4371 879.4075 879.4407 879.374 879.3242 879.3168 879.2615 879.1766 879.0067 878.9285 878.8444 878.7709 878.7296 878.7087 878.75 878.79 878.8445 878.9307 879.0098 879.0682 879.0963 879.1069 879.1291 879.1052 879.0922 879.0925 879.095 879.074 879.0176 878.9996 878.8944 
878.8351 878.8322 878.8318 878.8294 878.7915 878.6998 878.5463 878.4585 878.3722 878.2806 878.2115 878.1986 878.1026 878.0493 877.9948 877.9979 877.9965 877.9171 877.8861 877.8967 877.8586 877.7832 877.7829 877.7111 877.6689 877.6741 877.6719 877.6696 877.6709 877.6066 877.5537 877.5544 877.5521 877.7579 877.6861 877.6417 877.6482 877.6179 877.5294 877.4243 877.3763 877.2902 877.1976 877.1544 877.2501 877.6995 878.049 878.3948 878.6696 878.7772 878.9223 878.9431 878.9849 879.041 879.0465 879.1315 879.1993 879.2325 879.2552 879.3622 879.4474 879.3019 879.2402 879.2227 879.2307 879.2205 879.1304 878.9554 878.8719 878.7893 878.7071 878.6188 878.5953 878.6248 878.6644 878.7327 878.7572 878.8314 878.9668 879.0089 878.9949 878.9909 878.9767 878.9617 878.9724 878.9448 878.8936 878.8875 878.8215 878.7948 
878.7084 878.712 878.7168 878.684 878.6263 878.603 878.4323 878.3467 878.2612 878.1725 878.0808 878.0096 877.9326 877.8891 877.8989 877.8728 877.7946 877.7931 877.7269 877.6755 877.6857 877.6664 877.5848 877.5729 877.5706 877.5744 877.5477 877.4645 877.4557 877.463 877.4181 877.5544 877.5521 877.5511 877.4791 877.4433 877.4042 877.3323 877.3288 877.16 877.1344 877.0852 877.0144 877.0367 877.1387 877.5919 877.9494 878.2508 878.4998 878.7195 878.7905 878.828 878.8683 878.9127 878.9443 878.9944 879.1011 879.134 879.1613 879.2443 879.2878 879.2415 879.153 879.1094 879.1246 879.1193 879.077 878.9105 878.8291 878.7477 878.6688 878.5884 878.5143 878.5225 878.5713 878.6268 878.6143 878.6939 878.8171 878.8597 878.9066 878.8993 878.8738 878.8755 878.8271 878.7786 878.761 878.6974 878.687 878.6373 
878.5331 878.5301 878.535 878.4919 878.4229 878.4147 878.2387 878.1501 878.0574 878.0016 877.9863 877.8967 877.7944 877.7432 877.6836 877.6912 877.6791 877.5768 877.5798 877.5842 877.5511 877.4739 877.4706 877.4043 877.3571 877.3643 877.3406 877.2653 877.259 877.463 877.4181 877.3502 877.345 877.3448 877.2744 877.2368 877.2021 877.1323 877.1221 877.0325 876.9771 876.8812 876.8348 876.8771 877.0291 877.4872 877.8294 878.1218 878.3522 878.5059 878.6279 878.671 878.711 878.7598 878.8353 878.8305 879.0055 879.0349 879.061 879.1311 879.1221 879.2087 879.192 879.0769 879.009 879.0211 879.0226 878.8533 878.7673 878.6852 878.606 878.5241 878.4229 878.4247 878.4348 878.4597 878.5177 878.6246 878.6685 878.7116 878.715 878.7112 878.6898 878.6773 878.6782 878.6402 878.577 878.5756 878.5233 878.4788 
878.328 878.3232 878.3288 878.2839 878.2114 878.206 878.1008 878.0488 877.9561 877.8665 877.7974 877.789 877.618 877.5786 877.5883 877.5658 877.4854 877.4828 877.4199 877.3657 877.375 877.3583 877.2767 877.2676 877.2151 877.1547 877.1579 877.2653 877.259 877.2505 877.2524 877.2275 877.1515 877.1381 877.0696 877.0291 877.0049 876.9431 876.9206 876.8261 876.7759 876.7196 876.745 876.8566 876.9362 877.3648 877.6509 877.8995 878.1375 878.297 878.4739 878.5209 878.5511 878.6163 878.6921 878.8068 878.8666 878.9004 878.9603 879.0298 879.0268 879.0954 879.1522 879.0831 878.954 878.9119 878.8325 878.7851 878.7378 878.6525 878.5742 878.4954 878.3441 878.3193 878.3176 878.3351 878.4087 878.4797 878.5037 878.551 878.6 878.5934 878.5688 878.5688 878.5219 878.4617 878.4681 878.4724 878.3745 878.3852 
878.1121 878.1151 878.1166 878.1143 878.0851 878.0134 877.9366 877.8481 877.7523 877.6912 877.6777 877.5989 877.52 877.4805 877.45 877.3788 877.3691 877.2665 877.2696 877.2734 877.2433 877.168 877.1584 877.0485 877.0509 877.1547 877.1579 877.154 877.1559 877.0977 877.0397 877.0423 877.0308 876.9435 876.879 876.8296 876.8306 876.8124 876.7256 876.6678 876.6274 876.5858 876.5959 876.7443 876.9828 877.2138 877.4531 877.6892 877.9296 878.0906 878.2579 878.3496 878.4089 878.4481 878.5349 878.7156 878.7256 878.7595 878.86 878.9273 878.9256 878.9499 878.9667 878.9485 878.9124 878.8723 878.7826 878.7418 878.6746 878.5906 878.5108 878.4323 878.2484 878.2077 878.218 878.238 878.3055 878.3791 878.4001 878.3955 878.4073 878.4023 878.3822 878.3664 878.3584 878.361 878.3527 878.2819 878.2813 878.2234 
878.0042 877.9413 877.899 877.913 877.8895 877.8094 877.7348 877.6326 877.5877 877.5643 877.4885 877.4796 877.3794 877.3322 877.274 877.2571 877.1768 877.1741 877.1125 877.057 877.0654 877.0497 876.9553 877.0485 877.0509 877.0582 877.037 876.9589 876.9365 876.9472 876.9017 876.8293 876.8205 876.7254 876.7341 876.6807 876.6145 876.6057 876.5433 876.5204 876.467 876.4642 876.5688 876.6437 876.879 877.0967 877.2852 877.4767 877.7213 877.8841 878.0529 878.1324 878.2148 878.3025 878.3846 878.552 878.6038 878.664 878.7561 878.8248 878.8243 878.8154 878.8117 878.8118 878.8201 878.8156 878.7089 878.6567 878.5668 878.4857 878.4075 878.3272 878.2058 878.1568 878.1107 878.1365 878.2121 878.2052 878.2604 878.3035 878.2919 878.2865 878.2658 878.2488 878.2618 878.2293 878.1626 878.1652 878.1064 878.0616 
877.81 877.8071 877.754 877.701 877.6827 877.6002 877.5211 877.4854 877.4487 877.3831 877.37 877.2761 877.213 877.1698 877.1423 877.0668 877.0648 876.9907 876.9493 876.9639 876.9337 877.0497 876.9553 876.8942 876.8484 876.8492 876.8425 876.84 876.732 876.7347 876.7009 876.6384 876.6261 876.5474 876.5158 876.4852 876.4274 876.415 876.4134 876.2939 876.314 876.3721 876.4619 876.5438 876.7841 876.9281 877.0654 877.27 877.5189 877.683 877.8434 877.9537 878.0649 878.1461 878.2294 878.3904 878.4781 878.5637 878.6545 878.7287 878.7229 878.7163 878.7142 878.7169 878.7005 878.6425 878.6142 878.5573 878.465 878.3853 878.3066 878.2258 878.1233 878.0717 878.0134 878.0118 878.0282 878.104 878.0955 878.0966 878.1226 878.1941 878.1806 878.0892 878.0446 878.0513 878.0578 878.0592 877.9619 877.9734 
877.5964 877.6077 877.5527 877.4861 877.4938 877.4834 877.3837 877.3379 877.238 877.1765 877.1647 877.0695 877.0097 876.9581 876.9664 876.9489 876.8646 876.7911 876.9493 876.9639 876.9337 876.8525 876.7695 876.7366 876.7526 876.714 876.6311 876.6304 876.5636 876.5175 876.5227 876.4882 876.4227 876.3391 876.3038 876.3212 876.2885 876.2053 876.2004 876.1211 876.1788 876.2595 876.3163 876.3971 876.6413 876.7449 876.8544 877.0482 877.2531 877.4188 877.6328 877.7719 877.9182 877.9869 878.075 878.3036 878.384 878.4724 878.5366 878.5654 878.6197 878.6129 878.6158 878.6259 878.5981 878.5113 878.4528 878.4177 878.3749 878.2839 878.2056 878.1237 878.0209 877.9699 877.9116 877.91 877.8995 877.9762 878.0032 877.9881 877.9882 877.9949 877.9756 877.9424 877.9429 877.9521 877.9388 877.8663 877.8729 877.8119 
877.4176 877.3856 877.3962 877.3593 877.2861 877.2782 877.1783 877.1261 877.0728 877.0526 876.9753 876.8935 876.8642 876.8217 876.7587 876.7402 876.8646 876.7911 876.7458 876.7506 876.7245 876.6455 876.5747 876.5342 876.5358 876.5099 876.4429 876.4253 876.3553 876.3159 876.2896 876.2256 876.2115 876.1586 876.1135 876.1057 876.0887 876.0303 875.9977 876.017 876.0894 876.1369 876.1404 876.2244 876.4318 876.5621 876.6814 876.8313 877.0394 877.2083 877.4669 877.5906 877.7165 877.8395 877.9213 878.1316 878.2111 878.2997 878.3788 878.4225 878.4482 878.5301 878.4821 878.4337 878.4335 878.4106 878.3032 878.2532 878.2188 878.1923 878.1049 878.0235 877.9196 877.8643 877.8029 877.8079 877.8008 877.8011 877.7909 877.8319 877.8907 877.8903 877.8398 877.7819 877.7356 877.739 877.7471 877.7543 877.6954 877.65 
877.2928 877.2291 877.1772 877.1859 877.1669 877.0862 877.0072 876.9689 876.9369 876.8679 876.8563 876.7593 876.6995 876.6517 876.7587 876.7402 876.6654 876.6544 876.6041 876.5466 876.5215 876.4517 876.4407 876.3882 876.3301 876.3281 876.3212 876.2507 876.1669 876.1355 876.1364 876.1024 876.0405 876.0216 875.9686 875.9144 875.898 875.8938 875.8381 875.8904 875.9656 876.0017 876.0458 876.1304 876.2902 876.4036 876.53 876.6811 876.8886 877.0566 877.3112 877.4376 877.5682 877.6938 877.8239 877.9896 878.0791 878.1299 878.1672 878.2581 878.345 878.3498 878.3297 878.3149 878.2989 878.2299 878.2075 878.1544 878.0656 878.0181 878.0079 877.842 877.8094 877.8112 877.7738 877.7032 877.6957 877.6879 877.6836 877.6858 877.6913 877.681 877.6584 877.638 877.6296 877.6351 877.6456 877.6512 877.5511 877.5602 
877.0831 877.0253 876.9703 876.9792 876.9618 876.8821 876.804 876.7567 876.7653 876.7474 876.6544 876.5524 876.6995 876.6517 876.6285 876.5488 876.5455 876.4365 876.445 876.4142 876.3472 876.3308 876.2247 876.2319 876.1985 876.1318 876.1201 876.1208 876.0067 876.0225 875.9938 875.9301 875.91 875.8585 875.8162 875.7729 875.7307 875.7265 875.717 875.7969 875.8281 875.8491 875.9434 876.0278 876.1953 876.2721 876.3663 876.523 876.7374 877.0306 877.158 877.2922 877.3875 877.481 877.652 877.8239 877.9089 877.9813 878.0227 878.055 878.1474 878.1377 878.1363 878.1365 878.1314 878.1049 878.011 877.9567 877.9052 877.8868 877.8238 877.7446 877.7055 877.7166 877.6868 877.5998 877.5919 877.589 877.576 877.5798 877.5812 877.5893 877.5517 877.5203 877.5351 877.5098 877.4456 877.4426 877.4596 877.4011 
876.9069 876.8745 876.8353 876.7659 876.7699 876.7654 876.663 876.6165 876.5569 876.5358 876.6544 876.5524 876.4977 876.45 876.4215 876.3515 876.3367 876.2855 876.2319 876.2338 876.2212 876.15 876.0698 876.0221 876.0244 875.9987 875.913 875.8535 875.8345 875.8194 875.8043 875.799 875.7365 875.7015 875.6685 875.6133 875.5937 875.5819 875.5965 875.697 875.7296 875.751 875.8398 875.9241 876.0914 876.1758 876.2486 876.363 876.5711 876.8827 877.0103 877.0981 877.193 877.3381 877.4481 877.6051 877.6926 877.7874 877.8452 877.8501 877.9421 877.9338 877.9264 877.9217 877.9257 877.9225 877.9001 877.8452 877.7544 877.7036 877.7104 877.6439 877.6091 877.5671 877.5041 877.4968 877.4904 877.4884 877.4792 877.4763 877.46 877.395 877.3844 877.3635 877.3193 877.337 877.3397 877.3468 877.2867 877.2386 
876.777 876.7172 876.6606 876.6689 876.6537 876.558 876.4933 876.4508 876.5569 876.5358 876.4637 876.3843 876.3495 876.311 876.2485 876.2317 876.1282 876.137 876.0966 876.0317 876.0231 876.022 875.921 875.8649 875.806 875.7941 875.7388 875.7151 875.7117 875.6789 875.6176 875.5946 875.5986 875.4958 875.4917 875.4733 875.426 875.4212 875.4976 875.5969 875.6314 875.6474 875.7361 875.8206 875.9927 876.0802 876.1552 876.2529 876.4224 876.7288 876.8065 876.9147 877.059 877.162 877.2459 877.4935 877.5276 877.5746 877.6375 877.644 877.7372 877.7166 877.7584 877.7877 877.7126 877.7063 877.6977 877.6994 877.6644 877.573 877.5111 877.518 877.5172 877.4637 877.3951 877.3941 877.3866 877.2777 877.2737 877.2708 877.261 877.2551 877.2383 877.2388 877.2382 877.2322 877.2411 877.2377 877.135 877.2386 
876.558 876.5693 876.5258 876.455 876.444 876.558 876.4933 876.4508 876.423 876.3466 876.342 876.2419 876.196 876.1447 876.1199 876.0491 875.9669 875.9233 875.9266 875.9051 875.8383 875.812 875.7197 875.6728 875.6197 875.6017 875.6114 875.555 875.504 875.4976 875.4857 875.425 875.3879 875.3536 875.2997 875.2734 875.2905 875.3248 875.3967 875.4559 875.4897 875.5474 875.633 875.718 875.8486 875.8976 876.0069 876.1621 876.327 876.5158 876.6383 876.7782 876.8736 876.9456 877.0278 877.2825 877.3438 877.3664 877.432 877.4382 877.5269 877.5674 877.6174 877.6159 877.6006 877.5973 877.5932 877.54 877.4919 877.4764 877.403 877.3425 877.3 877.2979 877.2966 877.2946 877.2827 877.171 877.1683 877.166 877.1564 877.1321 877.1409 877.159 877.1375 877.1337 877.1229 877.2377 877.135 877.1432 
876.3922 876.3528 876.3215 876.455 876.444 876.35 876.2927 876.2485 876.2169 876.1512 876.1323 876.0306 876.0395 875.9985 875.9252 875.9233 875.83 875.7766 875.7219 875.7169 875.7051 875.617 875.5406 875.503 875.4882 875.4244 875.3943 875.4041 875.3648 875.3071 875.2874 875.2861 875.2356 875.2027 875.1531 875.1161 875.1404 875.2257 875.2957 875.3199 875.3521 875.446 875.5326 875.6198 875.6874 875.7555 875.8505 875.9848 876.1495 876.363 876.49 876.5724 876.6762 876.8228 876.9084 877.0994 877.1383 877.1595 877.2262 877.2322 877.3199 877.3711 877.4246 877.418 877.4094 877.4047 877.392 877.3918 877.3557 877.2927 877.2909 877.1984 877.1967 877.1981 877.1697 877.0875 877.078 877.0753 877.0649 877.0579 877.0524 877.0504 877.09 877.0344 877.0294 877.1337 877.1229 877.0377 876.9826 876.9282 
876.1915 876.3528 876.3215 876.2527 876.2473 876.1797 876.1491 876.1064 876.0471 876.0287 875.9556 875.8766 875.8335 875.7965 875.7346 875.718 875.6641 875.6268 875.5851 875.5282 875.4957 875.4407 875.3574 875.3096 875.2978 875.2925 875.2324 875.1816 875.1941 875.1724 875.114 875.0771 875.0804 875.0521 874.9952 874.9837 875.0317 875.0687 875.1954 875.2209 875.2517 875.3475 875.428 875.4528 875.5787 875.6703 875.751 875.8345 875.9397 876.1954 876.3331 876.4563 876.5417 876.6433 876.7274 876.8411 876.8752 876.9587 877.0197 877.0193 877.1147 877.1708 877.1745 877.1271 877.1994 877.1874 877.1799 877.1792 877.1888 877.1707 877.0989 877.0995 877.1001 877.0508 876.981 876.9801 876.8984 876.9205 876.9643 876.9503 876.9541 876.9719 876.8581 877.0344 877.0294 877.0071 876.9355 876.8691 876.8347 876.8341 
876.1915 876.1451 876.1516 876.1332 876.0558 876.0467 875.9803 875.9333 875.9107 875.8294 875.8285 875.7363 875.6736 875.6148 875.608 875.5407 875.5173 875.4744 875.4265 875.3939 875.3335 875.3044 875.2122 875.1682 875.1138 875.0876 875.0867 875.0295 875.0002 874.9805 874.9737 874.9295 874.9252 874.8697 874.8401 874.8463 874.92 874.9218 875.1005 875.1226 875.1519 875.2266 875.2544 875.3977 875.4355 875.4816 875.566 875.6586 875.806 876.0806 876.1678 876.2683 876.3544 876.4351 876.6115 876.6253 876.6566 876.7477 876.8301 876.8984 876.8984 876.9575 877.0104 876.9902 877.0038 877.0858 877.0807 877.0287 876.971 876.9807 876.9887 876.9281 876.8803 876.8793 876.8792 876.8762 876.8024 876.7599 876.7516 876.754 876.7595 876.9719 876.8581 876.8433 876.8138 876.8254 876.8354 876.7649 876.7446 876.6982 
876.0525 876.0045 875.9415 875.94 875.937 875.8352 875.7839 875.7363 875.7045 875.6405 875.6198 875.5611 875.4706 875.4354 875.4364 875.4114 875.3065 875.3107 875.2669 875.1955 875.1974 875.1046 875.0561 875.0131 874.9703 874.9298 874.9261 874.8865 874.8596 874.8022 874.7689 874.7797 874.7375 874.722 874.7166 874.7493 874.8186 874.8245 874.9435 874.9799 875.0591 875.1205 875.121 875.2372 875.2744 875.3493 875.4291 875.5334 875.7041 875.9511 876.0737 876.1165 876.1426 876.23 876.3328 876.3745 876.4604 876.5451 876.6252 876.7016 876.7697 876.7493 876.7289 876.7935 876.7991 876.8849 876.87 876.8728 876.8444 876.774 876.7788 876.7898 876.7835 876.7719 876.772 876.7564 876.6634 876.6686 876.6557 876.754 876.7595 876.7405 876.7344 876.726 876.7144 876.7238 876.7147 876.6331 876.6393 876.5853 
875.8832 875.8484 875.8152 875.7427 875.7296 875.657 875.625 875.5988 875.5382 875.5173 875.4168 875.3655 875.3221 875.3145 875.3 875.2396 875.1571 875.1118 875.0703 875.0201 874.9903 874.949 874.9085 874.8653 874.8127 874.7841 874.7837 874.6844 874.6741 874.6647 874.6109 874.5635 874.5641 874.5571 874.5782 874.649 874.7164 874.7221 874.8113 874.8653 874.9324 874.9556 875.0104 875.0839 875.1635 875.2499 875.3323 875.417 875.5209 875.7915 875.8843 875.9213 875.9329 876.0134 876.0823 876.1748 876.2047 876.2573 876.4223 876.4971 876.5701 876.5451 876.5136 876.5864 876.5903 876.6719 876.7272 876.728 876.6644 876.6567 876.5839 876.6536 876.6356 876.5615 876.562 876.5574 876.5612 876.6686 876.6557 876.6487 876.6442 876.6319 876.6317 876.627 876.625 876.6027 876.5253 876.5341 876.4705 876.4255 
875.6924 875.6786 875.6147 875.6221 875.5517 875.4667 875.4216 875.4222 875.3993 875.314 875.2578 875.2217 875.1742 875.1293 875.1317 875.103 875.0099 874.9637 874.9177 874.8802 874.8271 874.7914 874.7231 874.6757 874.6735 874.6191 874.573 874.5481 874.4896 874.4637 874.4655 874.4193 874.3952 874.4113 874.4493 874.5503 874.6211 874.6203 874.7202 874.7204 874.7574 874.8284 874.9042 874.9729 875.0625 875.1451 875.2318 875.3193 875.3962 875.5791 875.6597 875.7482 875.8104 875.8192 875.899 875.9525 876.0466 876.0914 876.1203 876.2804 876.3248 876.326 876.3828 876.3986 876.4708 876.5378 876.5644 876.5605 876.5363 876.4652 876.4684 876.4726 876.4656 876.4625 876.562 876.5574 876.5612 876.5575 876.5142 876.444 876.4384 876.4511 876.5314 876.5015 876.5049 876.4885 876.4257 876.3556 876.3306 876.343 
875.4268 875.3752 875.3547 875.4206 875.4037 875.3315 875.2803 875.2264 875.1912 875.1385 875.1191 875.0597 875.0322 875.0346 874.9916 874.9362 874.8527 874.8107 874.7689 874.7213 874.6821 874.5882 874.5471 874.4998 874.4703 874.4733 874.4284 874.3674 874.3536 874.2979 874.256 874.2579 874.2856 874.316 874.3528 874.4236 874.4521 874.5063 874.586 874.6065 874.6327 874.7275 874.8018 874.8698 874.9578 875.0507 875.108 875.1356 875.2886 875.4611 875.5651 875.5806 875.5229 875.599 875.7725 875.7925 875.8267 875.9163 875.996 876.082 876.1887 876.179 876.1714 876.1907 876.2643 876.33 876.3598 876.3492 876.3548 876.3487 876.2779 876.2728 876.4656 876.4625 876.4647 876.4571 876.3832 876.3493 876.3456 876.3558 876.3578 876.3494 876.3674 876.3608 876.2887 876.2839 876.2989 876.2324 876.2461 876.2312 
875.2441 875.2355 875.225 875.2012 875.1395 875.1396 875.1113 875.0919 875.0308 875.0082 874.9522 874.9358 874.9279 874.8798 874.828 874.793 874.7028 874.6581 874.6157 874.5771 874.5273 874.4409 874.3963 874.3532 874.3074 874.2635 874.2689 874.1763 874.1569 874.1555 874.1059 874.0522 874.1892 874.2131 874.2514 874.3112 874.3201 874.3986 874.4695 874.5074 874.5308 874.6234 874.6987 874.7653 874.8604 874.9069 874.9279 875.0023 875.1002 875.3183 875.3048 875.3275 875.4072 875.4876 875.5546 875.649 875.6876 875.703 875.789 875.8745 875.9763 876.0184 876.0776 876.0674 876.0715 876.1566 876.2083 876.2166 876.1469 876.1541 876.265 876.2728 876.2598 876.2847 876.3521 876.3381 876.2515 876.2542 876.2491 876.2478 876.2563 876.2396 876.2612 876.2054 876.155 876.1086 876.1138 876.1053 876.1163 876.0779 
875.1286 875.0886 875.0356 875.0371 875.0149 874.9056 874.9014 874.894 874.8621 874.835 874.8086 874.7966 874.7712 874.7206 874.6829 874.6339 874.5487 874.5091 874.4418 874.3707 874.3759 874.291 874.2477 874.204 874.1603 874.1161 874.0604 874.0431 873.9846 873.9453 873.9385 873.9161 874.0874 874.1106 874.1475 874.2095 874.2191 874.2956 874.3665 874.405 874.4269 874.5191 874.5955 874.6608 874.7618 874.8017 874.8138 874.9045 875.0832 875.1017 875.1298 875.2212 875.287 875.2941 875.4583 875.4842 875.5115 875.6047 875.6749 875.7426 875.8372 875.8762 875.8621 875.8793 875.9538 876.02 876.0471 876.0354 876.1469 876.1541 876.1613 876.1633 876.1566 876.1418 876.1335 876.1412 876.1535 876.1483 876.145 876.1468 876.1124 876.0909 876.0626 876.038 876.0059 876.0128 875.9969 875.9294 875.9118 875.8862 
874.9399 874.9287 874.9154 874.9036 874.843 874.7614 874.7154 874.664 874.6329 874.6935 874.6338 874.6349 874.6207 874.5726 874.5253 874.4846 874.3961 874.3566 874.2948 874.2076 874.1663 874.0935 874.0639 874.0262 873.9528 873.9598 873.8624 873.8506 873.841 873.8143 873.8067 873.8139 873.9836 874.0083 874.0439 874.1066 874.116 874.1965 874.2587 874.3028 874.3231 874.4147 874.4919 874.5676 874.6049 874.6354 874.6898 874.717 874.8992 874.9418 875.0286 875.1186 875.1849 875.1878 875.2802 875.3295 875.3777 875.3949 875.4683 875.5352 875.6234 875.7132 875.7665 875.7578 875.7615 875.8481 876.0471 876.0354 876.0465 876.0396 875.957 875.965 875.9575 875.941 875.952 876.0215 876.0314 876.0225 876.0182 875.9937 875.9397 875.9529 875.9517 875.9636 875.9035 875.883 875.8269 875.8195 875.7629 875.7172 
874.8172 874.7823 874.7331 874.7325 874.6494 874.6128 874.563 874.5289 874.5324 874.4825 874.4681 874.4683 874.4313 874.4211 874.3801 874.2843 874.2449 874.1998 874.1592 874.1141 874.021 873.9342 873.8859 873.8397 873.8044 873.7495 873.7326 873.6697 873.6297 873.6593 873.7082 873.7126 873.8801 873.9058 873.9402 874.002 874.0032 874.1668 874.199 874.1897 874.2131 874.3116 874.3961 874.3887 874.4363 874.5306 874.589 874.5952 874.7599 874.8407 874.9323 874.9846 874.9952 875.0699 875.1411 875.1741 875.2001 875.2929 875.363 875.3536 875.472 875.569 875.5546 875.569 875.7615 875.8481 875.8366 875.8402 875.8428 875.8474 875.8495 875.8506 875.8536 875.8538 875.8452 875.8326 875.8412 875.8359 875.8185 875.8198 875.818 875.7943 875.8125 875.7823 875.7834 875.7197 875.7323 875.649 875.6269 875.6188 
874.6373 874.623 874.6036 874.5947 874.505 874.4504 874.4294 874.4278 874.3776 874.3279 874.2985 874.2338 874.2413 874.2581 874.1777 874.1583 874.0856 874.0471 874.006 873.9575 873.9255 873.772 873.7363 873.6953 873.642 873.6124 873.5436 873.5309 873.5035 873.5328 873.6056 873.6102 873.7763 873.8035 873.8309 873.9197 873.9818 874.0724 874.0978 874.1306 874.1905 874.1922 874.1968 874.3549 874.3844 874.4203 874.4858 874.491 874.6537 874.7438 874.7809 874.7989 874.8884 874.9686 874.9651 875.011 875.113 875.1461 875.0696 875.2417 875.2509 875.569 875.5546 875.569 875.643 875.6356 875.685 875.7355 875.7363 875.7312 875.6508 875.6401 875.6631 875.7175 875.7205 875.7127 875.7167 875.7252 875.7356 875.7165 875.7099 875.6781 875.6258 875.6245 875.5999 875.6331 875.5918 875.5269 875.546 875.4992 
874.5031 874.4761 874.431 874.4291 874.3399 874.3311 874.3201 874.2646 874.2247 874.2313 874.1349 874.1268 874.113 874.0504 874.0244 873.9962 873.9363 873.8964 873.8448 873.8083 873.754 873.6287 873.5829 873.5348 873.5035 873.4417 873.3541 873.3214 873.3555 873.4354 873.502 873.4996 873.6735 873.6966 873.7203 873.8195 873.8939 873.9667 873.9937 874.033 874.0911 874.097 874.1717 874.249 874.2859 874.3156 874.3817 874.3851 874.5484 874.6393 874.6769 874.6993 874.7701 874.7739 874.8693 874.9146 874.972 874.9593 874.9679 875.2417 875.2509 875.3281 875.4636 875.4617 875.4509 875.501 875.5392 875.5286 875.5176 875.5225 875.5441 875.4929 875.4338 875.4448 875.5063 875.5251 875.5237 875.564 875.5981 875.5844 875.5801 875.4908 875.4612 875.4561 875.4694 875.4816 875.421 875.4077 875.3861 875.361 
874.3297 874.3185 874.2924 874.2845 874.234 874.2096 874.1552 874.129 874.1273 874.0782 874.0308 874.004 873.9459 873.9183 873.9164 873.8254 873.7815 873.7321 873.718 873.7142 873.6275 873.4616 873.4302 873.3914 873.3333 873.3101 873.2076 873.1956 873.2365 873.3283 873.4116 873.4777 873.5571 873.6445 873.6874 873.713 873.7883 873.863 873.8875 873.9185 874.0146 874.0799 874.0889 874.1884 874.1745 874.2043 874.2939 874.3774 874.5511 874.5753 874.6124 874.678 874.6696 874.6736 874.7652 874.8099 874.8704 874.9593 874.9679 875.1304 875.1567 875.184 875.2656 875.345 875.3571 875.3362 875.3784 875.3984 875.332 875.3372 875.3487 875.357 875.3553 875.3358 875.3316 875.4316 875.4434 875.4281 875.4142 875.4188 875.4066 875.3408 875.3647 875.3765 875.4119 875.316 875.3381 875.272 875.2147 875.2125 
874.1917 874.1677 874.1246 874.1248 874.0801 874.0535 874.0026 873.9744 873.973 873.9293 873.8645 873.8408 873.8136 873.8246 873.8198 873.7159 873.6589 873.6094 873.6023 873.5338 873.4501 873.359 873.2718 873.2266 873.1997 873.1317 873.1056 873.0958 873.1335 873.2234 873.3098 873.3904 873.4476 873.5487 873.595 873.6089 873.684 873.7504 873.8451 873.8816 873.9047 873.98 873.9838 874.079 874.1224 874.1782 874.1888 874.2716 874.4404 874.5313 874.5784 874.5653 874.5817 874.6698 874.6622 874.8099 874.8704 874.8601 874.8663 874.9535 875.0081 875.0556 875.0648 875.1536 875.2505 875.2479 875.2362 875.2238 875.2147 875.2193 875.2281 875.2264 875.2337 875.2427 875.2325 875.2538 875.2902 875.2954 875.2853 875.2808 875.2838 875.2385 875.2582 875.2541 875.2904 875.225 875.1894 875.1439 875.1205 875.1159 
874.0303 874.0329 874.0279 873.9782 873.9252 873.9001 873.8535 873.8083 873.7623 873.761 873.717 873.7249 873.7299 873.7148 873.653 873.6189 873.5596 873.5117 873.4929 873.4012 873.3157 873.167 873.1204 873.0902 873.0312 873.0048 872.9714 872.9948 873.0242 873.1196 873.2033 873.3656 873.3877 873.4371 873.4901 873.4972 873.5854 873.6802 873.728 873.8248 873.8795 873.8886 873.9773 874.0364 874.0768 874.1034 874.17 874.1835 874.3785 874.4204 874.4692 874.4925 874.5663 874.6698 874.6622 874.7068 874.7584 874.7574 874.7627 874.8569 874.8975 874.944 874.9702 875.0303 875.1049 875.1259 875.1179 875.0859 875.0253 875.0304 875.0427 875.0388 875.0663 875.1068 875.0959 875.028 875.0507 875.108 875.1158 875.1118 875.1262 875.1563 875.1575 875.1894 875.1787 875.1179 875.083 875.0418 875.0202 875.0117 
873.8603 873.89 873.8734 873.8304 873.7911 873.7442 873.7026 873.6497 873.6163 873.6292 873.5822 873.5465 873.5517 873.5421 873.5128 873.5192 873.4535 873.403 873.3923 873.3036 873.1298 873.0424 872.9681 872.8888 872.8188 872.8204 872.8588 872.9484 872.985 873.0064 873.0975 873.2712 873.2863 873.3221 873.4188 873.48 873.4855 873.6533 873.6788 873.7076 873.8016 873.8737 873.9494 873.9734 874.0146 874.0748 874.0845 874.1658 874.3395 874.3709 874.4044 874.4925 874.5663 874.5634 874.6364 874.6173 874.5729 874.6544 874.6603 874.753 874.7435 874.7714 874.8308 874.851 874.9443 874.9305 874.9238 874.9241 874.9324 874.9387 874.9489 874.9514 874.9435 874.9249 874.9172 874.9243 874.9263 874.947 874.9968 875.0262 875.0284 875.0474 875.0576 875.0852 875.0955 875.013 875.0228 874.9683 874.9126 874.9103 
873.6401 873.6761 873.6724 873.6752 873.6431 873.5908 873.5419 873.5245 873.5192 873.4553 873.4355 873.4168 873.4189 873.4172 873.4117 873.4104 873.4058 873.3672 873.2877 873.2002 873.0273 872.9449 872.8582 872.7712 872.6832 872.6166 872.7532 872.8387 872.9235 872.9783 872.9918 873.1569 873.2435 873.2776 873.3001 873.3932 873.4705 873.5358 873.6335 873.678 873.6957 873.7704 873.8502 873.8777 873.9122 874.0083 874.0758 874.0826 874.3395 874.3709 874.4044 874.4694 874.4604 874.5403 874.572 874.5145 874.4866 874.5524 874.5529 874.6194 874.655 874.6388 874.6475 874.7228 874.8384 874.8364 874.828 874.8255 874.827 874.8325 874.8428 874.845 874.8399 874.8276 874.8172 874.822 874.8289 874.8209 874.8311 874.8739 874.9069 874.9474 874.9283 874.9132 874.8974 874.898 874.9131 874.8636 874.8075 874.8064 
873.502 873.4572 873.4601 873.4639 873.4639 873.4484 873.3951 873.3521 873.3553 873.2603 873.2368 873.2418 873.2349 873.2471 873.3111 873.3208 873.274 873.2209 873.1829 873.1008 872.9493 872.8334 872.7574 872.6749 872.582 872.4922 872.7468 872.825 872.9158 872.975 872.9849 873.1483 873.2347 873.3256 873.3775 873.3871 873.4691 873.6472 873.677 873.7088 873.7763 873.7829 873.9521 873.9792 874.0191 874.0758 874.0758 874.0826 874.2448 874.3347 874.379 874.3715 874.3893 874.4787 874.4773 874.4773 874.4773 874.4769 874.4798 874.5711 874.577 874.5767 874.5763 874.5703 874.7366 874.7745 874.7659 874.7648 874.7665 874.7732 874.7858 874.7885 874.7865 874.7737 874.7647 874.7732 874.7827 874.7855 874.7792 874.7739 874.8151 874.8501 874.826 874.7989 874.7577 874.7924 874.8052 874.7587 874.7037 874.7006 
873.3437 873.3188 873.3121 873.2609 873.2773 873.2499 873.2495 873.2056 873.1522 873.126 873.1143 873.1158 873.1134 873.1171 873.1353 873.1258 873.1125 873.1008 873.1009 873.0815 872.9233 872.7734 872.6542 872.5425 872.4188 872.5484 872.738 872.8246 872.9149 872.9749 872.9822 873.155 873.1786 873.2107 873.3013 873.3854 873.4701 873.5723 873.6187 873.6746 873.6901 873.7652 873.8308 873.9276 874.0191 874.0758 874.0864 874.1655 874.3423 874.3751 874.3632 874.394 874.466 874.4606 874.46 874.4592 874.4582 874.4573 874.4533 874.5119 874.5612 874.5514 874.5508 874.5469 874.6334 874.7206 874.7396 874.7331 874.7334 874.7526 874.7266 874.7032 874.7168 874.7358 874.7281 874.7344 874.7445 874.7424 874.7358 874.722 874.6873 874.6972 874.7127 874.6873 874.6859 874.6937 874.7076 874.6571 874.5975 874.5969 
873.2239 873.2115 873.1483 873.1158 873.1406 873.0784 873.0447 873.0298 872.9415 872.9429 872.941 872.9391 872.9345 872.9237 872.9232 873.0057 872.996 872.9908 872.9955 872.9939 872.826 872.7458 872.582 872.3566 872.3026 872.542 872.775 872.8099 872.9058 872.9956 873.0734 873.0711 873.1241 873.2157 873.3036 873.3727 873.3777 873.4717 873.509 873.6027 873.67 873.6781 873.8308 873.9276 873.9669 873.9853 874.0623 874.0624 874.2311 874.2542 874.2866 874.3621 874.3547 874.3507 874.3492 874.3484 874.3463 874.3484 874.3757 874.4146 874.4473 874.4405 874.4393 874.4391 874.4108 874.5297 874.6426 874.623 874.6248 874.609 874.5555 874.5233 874.561 874.6291 874.6207 874.6295 874.6418 874.6417 874.6398 874.627 874.5349 874.5494 874.5574 874.5475 874.5722 874.5834 874.5551 874.507 874.4962 874.4936 
873.0995 873.0381 873.0133 873.0122 872.9377 872.9351 872.8911 872.8313 872.8097 872.7283 872.7352 872.7233 872.739 872.7974 872.8028 872.8987 872.9391 872.98 872.9726 872.897 872.7161 872.6699 872.3974 872.1247 872.3834 872.6449 872.8992 872.9871 872.9753 872.9724 872.9796 873.1467 873.2386 873.2864 873.2765 873.2865 873.372 873.4314 873.4722 873.4921 873.67 873.6781 873.7702 873.8177 873.8647 873.8906 873.9512 874.1124 874.1703 874.1445 874.1788 874.2532 874.2504 874.239 874.2483 874.2458 874.2402 874.2529 874.3558 874.3439 874.3394 874.3381 874.3368 874.3365 874.323 874.4077 874.507 874.5251 874.5198 874.4414 874.431 874.4335 874.4643 874.5266 874.5205 874.5349 874.5076 874.4745 874.4759 874.4693 874.4221 874.4427 874.4391 874.4691 874.4644 874.4755 874.3924 874.3903 874.3919 874.3883 
872.9337 872.9094 872.9158 872.9189 872.8112 872.7809 872.726 872.7019 872.6407 872.5486 872.5079 872.5449 872.6328 872.7035 872.7726 872.8016 872.7999 872.8059 872.8014 872.7928 872.7404 872.5081 872.1376 872.0608 872.4719 872.8287 872.9473 872.9741 873.0334 873.181 873.1835 873.2458 873.2743 873.308 873.3838 873.3674 873.3469 873.3776 873.4722 873.4921 873.5786 873.6605 873.7309 873.7612 873.7941 873.8653 873.8535 874.0073 874.0616 874.0542 874.0939 874.1526 874.1453 874.1028 874.152 874.1432 874.1384 874.1489 874.2444 874.2383 874.2377 874.2361 874.2345 874.2338 874.225 874.2653 874.3579 874.4325 874.4136 874.3256 874.3363 874.3311 874.3625 874.4321 874.4211 874.4423 874.3914 874.3263 874.3312 874.3307 874.355 874.3395 874.3409 874.3242 874.3782 874.3784 874.2734 874.2876 874.2889 874.2842 
872.8132 872.8235 872.8122 872.7214 872.6652 872.6207 872.5955 872.5162 872.4274 872.4145 872.4043 872.4053 872.4365 872.5192 872.6846 872.7084 872.6973 872.6942 872.6888 872.6909 872.5986 872.2365 871.9277 872.0587 872.4837 872.8535 872.9925 873.1345 873.1775 873.1931 873.2682 873.2147 873.1623 873.203 873.2656 873.2805 873.3469 873.3776 873.4122 873.4688 873.4832 873.5512 873.6281 873.6533 873.6868 873.7521 873.7592 873.9319 873.9493 873.9813 874.0404 874.0452 874.0173 874.0038 874.0489 874.0408 874.0361 874.0457 874.142 874.1359 874.1353 874.1334 874.1321 874.1315 874.1222 874.1697 874.2402 874.2834 874.3104 874.2252 874.2346 874.2329 874.2424 874.274 874.3146 874.2936 874.256 874.2394 874.2374 874.2304 874.2375 874.2379 874.2322 874.2378 874.2 874.1917 874.1716 874.1804 874.1843 874.1817 
872.6893 872.6338 872.6388 872.5557 872.5212 872.4829 872.3968 872.318 872.3029 872.2119 872.2194 872.2071 872.2214 872.3143 872.4132 872.4673 872.506 872.5272 872.6045 872.5999 872.2185 871.8475 871.7637 872.149 872.4856 872.9323 873.0401 873.1241 873.1765 873.1912 873.2636 873.28 873.2299 873.203 873.2656 873.2805 873.3737 873.3727 873.3759 873.3981 873.4599 873.4599 873.5615 873.5548 873.598 873.649 873.6553 873.8055 873.8408 873.836 873.8674 873.9327 873.845 873.9051 873.9465 873.9386 873.9332 873.939 874.0402 874.0338 874.0331 874.0314 874.0299 874.0292 874.0192 874.0737 874.1206 874.133 874.2107 874.1235 874.1321 874.1352 874.1279 874.1301 874.2056 874.1693 874.1313 874.1442 874.1375 874.1255 874.1049 874.1188 874.1203 874.08 874.06 874.067 874.0671 874.0746 874.0789 874.0767 
872.5352 872.4974 872.4377 872.3503 872.3241 872.2864 872.2173 872.1948 872.1266 872.0396 871.9916 872.0333 872.1016 872.1038 872.1761 872.21 872.2034 872.2079 872.1974 872.1054 871.753 871.5779 871.7336 872.2743 872.6787 872.9529 873.0291 873.1177 873.1766 873.1711 873.1649 873.28 873.2299 873.1608 873.1794 873.2622 873.2517 873.317 873.3715 873.3602 873.3536 873.3702 873.4482 873.5012 873.5613 873.5442 873.5521 873.6372 873.694 873.7456 873.7609 873.8017 873.7468 873.8008 873.8441 873.8339 873.8402 873.8795 873.9353 873.9315 873.9308 873.929 873.9275 873.9268 873.9208 873.9381 873.9809 874.0305 874.0544 874.0247 874.0308 874.0332 874.028 874.0327 874.0754 874.0413 874.0397 874.0416 874.0348 874.0325 874.0129 874.0256 874.0204 874.0141 873.9545 873.9632 873.9655 873.9695 873.9725 873.9722 
872.3383 872.314 872.2325 872.2167 872.1652 872.0704 872.0111 872.0023 871.916 871.9022 871.8953 871.8974 871.9004 871.8979 871.9017 871.9063 871.8638 871.7643 871.6918 871.6784 871.3799 871.4694 871.8608 872.3549 872.676 872.9533 872.9714 873.0073 873.068 873.1711 873.1649 873.1619 873.1708 873.1331 873.0825 873.1514 873.1486 873.2083 873.2605 873.2476 873.2623 873.3475 873.3403 873.3928 873.4523 873.4421 873.4492 873.5422 873.5958 873.6512 873.6399 873.631 873.6322 873.697 873.7419 873.7304 873.7415 873.7946 873.8343 873.829 873.8285 873.8267 873.8253 873.823 873.8221 873.813 873.8192 873.8642 873.9117 873.9249 873.9292 873.9316 873.9249 873.9326 873.9498 873.9239 873.941 873.9377 873.9368 873.9307 873.9635 873.9711 873.9707 873.9577 873.9258 873.8782 873.8497 873.8616 873.8687 873.8671 
872.1326 872.1066 872.0203 872.0253 871.9623 871.9073 871.8795 871.8107 871.795 871.6938 871.6994 871.6974 871.7007 871.6915 871.5172 871.489 871.4464 871.3787 871.366 871.2778 871.264 871.5353 871.9658 872.4327 872.6792 872.8696 872.9187 873.0073 873.068 873.0651 873.0634 873.0588 873.0566 873.0632 873.0775 873.0734 873.0585 873.1149 873.1562 873.1454 873.1578 873.2508 873.238 873.2903 873.3515 873.341 873.3437 873.4277 873.4757 873.5051 873.5084 873.5355 873.5292 873.5933 873.6395 873.632 873.6281 873.6248 873.7133 873.7309 873.7267 873.7229 873.7167 873.7208 873.719 873.7166 873.7087 873.7104 873.7468 873.8303 873.8257 873.8321 873.8337 873.8232 873.8284 873.835 873.842 873.8394 873.835 873.8326 873.8267 873.8511 873.8656 873.8409 873.8449 873.8469 873.8406 873.8171 873.7543 873.7533 
