NCOLS 89
NROWS 112
XLLCORNER 543650.24
YLLCORNER 4083886.8
CELLSIZE 10
NODATA_VALUE -9999
1576.595 1576.655 1575.253 1574.234 1572.733 1570.903 1569.108 1565.654 1563.921 1562.217 1560.334 1558.122 1553.64 1551.585 1549.858 1548.488 1546.213 1545.551 1545.141 1544.985 1545.003 1545.742 1546.825 1548.081 1549.858 1552.932 1558.311 1560.873 1562.594 1563.745 1564.951 1567.14 1568.487 1569.787 1570.891 1572.981 1574.429 1576.519 1579.04 1581.694 1586.348 1587.948 1589.299 1590.701 1592.133 1594.121 1594.37 1594.087 1593.448 1590.2 1587.656 1585.715 1583.992 1581.622 1575.267 1572.846 1570.583 1568.048 1565.373 1560.379 1557.37 1554.327 1551.773 1547.286 1544.691 1542.28 1540.232 1538.158 1533.266 1530.595 1528.036 1525.678 1523.426 1518.971 1516.845 1514.948 1513.143 1511.394 1509.145 1508.381 1507.662 1506.967 1505.944 1504.409 1502.355 1500.379 1498.493 1495.149 1493.819 
1576.586 1576.614 1575.119 1574.095 1572.594 1570.767 1568.997 1565.629 1563.902 1562.211 1560.287 1557.973 1553.409 1551.291 1549.517 1548.191 1545.999 1545.418 1545.037 1544.924 1544.977 1545.836 1547.08 1548.452 1550.354 1552.932 1558.311 1560.873 1562.594 1563.745 1565.38 1567.832 1569.162 1570.447 1571.626 1574.333 1576.542 1579.212 1582.119 1584.841 1588.521 1589.866 1591.162 1592.499 1593.789 1595.569 1595.816 1595.277 1593.989 1589.195 1586.965 1584.821 1582.549 1579.827 1572.965 1570.052 1566.288 1562.709 1560.553 1556.201 1553.375 1550.944 1548.909 1546.82 1542.282 1540.241 1538.403 1536.435 1531.701 1529.209 1526.899 1524.601 1522.285 1518.023 1516.126 1514.286 1512.462 1510.851 1508.641 1507.927 1507.194 1506.454 1505.168 1503.523 1501.438 1499.496 1497.705 1494.459 1493.148 
1576.568 1576.461 1574.788 1573.657 1572.177 1570.479 1568.724 1565.362 1563.756 1562.096 1560.08 1557.63 1552.984 1550.837 1549.137 1547.878 1545.68 1545.252 1545.001 1544.924 1544.995 1546.04 1547.301 1548.648 1550.67 1553.51 1559.069 1561.402 1563.049 1564.243 1565.38 1567.832 1569.162 1570.447 1571.626 1576.079 1578.897 1582.012 1584.905 1587.162 1590.486 1591.913 1593.211 1594.368 1595.426 1596.971 1596.947 1595.958 1594.161 1589.181 1586.966 1584.549 1581.86 1578.898 1572.208 1568.329 1563.983 1560.427 1557.978 1551.621 1549.179 1547.439 1545.669 1543.706 1539.546 1537.633 1535.665 1533.607 1529.745 1527.51 1525.179 1522.943 1520.746 1516.852 1515.086 1513.368 1511.675 1510.039 1507.921 1507.107 1506.327 1505.503 1503.937 1502.237 1500.281 1498.432 1496.674 1493.588 1492.259 
1576.86 1576.171 1574.359 1573.078 1571.572 1570.015 1568.385 1565.106 1563.527 1561.748 1559.624 1557.173 1552.359 1550.249 1548.707 1547.529 1545.354 1545.016 1544.849 1544.861 1545.017 1546.241 1547.513 1548.974 1551.154 1554.032 1559.772 1561.869 1563.328 1564.581 1565.81 1568.441 1569.79 1571.113 1572.342 1576.079 1578.897 1582.012 1584.905 1587.162 1590.486 1593.755 1595.082 1596.279 1597.368 1598.578 1598.127 1596.646 1594.378 1589.327 1587.023 1584.48 1581.526 1578.387 1571.702 1567.659 1563.563 1560.085 1557.036 1550.153 1547.509 1545.277 1542.546 1539.567 1536.274 1534.529 1532.301 1529.971 1526.849 1525.45 1523.237 1520.614 1518.44 1515.317 1513.601 1511.842 1510.22 1508.896 1506.853 1506.034 1505.181 1504.327 1502.703 1500.977 1498.96 1497.139 1495.56 1492.544 1491.159 
1576.622 1575.986 1573.963 1572.59 1571.047 1569.474 1567.894 1564.583 1563.041 1561.261 1559.072 1556.598 1551.791 1549.74 1548.185 1547.06 1545.034 1544.769 1544.687 1544.793 1545.01 1546.42 1547.791 1549.413 1551.607 1554.367 1560.007 1562.057 1563.53 1564.818 1566.137 1568.948 1570.324 1571.595 1573.014 1578.094 1581.405 1584.699 1587.193 1588.904 1592.256 1593.755 1595.082 1596.279 1597.368 1598.578 1598.817 1596.804 1594.404 1589.432 1587.034 1584.388 1581.438 1578.336 1571.465 1567.465 1563.501 1559.998 1556.764 1550.051 1547.244 1544.149 1540.635 1537.485 1533.758 1531.367 1528.546 1526.021 1523.217 1521.9 1519.949 1517.559 1515.39 1512.984 1511.65 1510.097 1508.591 1507.308 1505.508 1504.672 1503.732 1502.761 1500.665 1499.119 1497.35 1495.593 1494.062 1491.217 1489.934 
1576.213 1575.557 1573.591 1572.094 1570.491 1568.935 1567.349 1563.956 1562.438 1560.61 1558.319 1555.838 1551.037 1549.245 1547.834 1546.623 1545.563 1544.443 1544.374 1544.556 1544.951 1546.524 1547.879 1549.556 1551.817 1554.565 1560.027 1562.045 1563.636 1565.025 1566.391 1569.48 1570.908 1572.22 1573.97 1580.361 1583.926 1586.596 1588.696 1590.675 1594.194 1595.803 1597.235 1598.389 1599.151 1599.768 1598.817 1596.804 1594.404 1589.432 1587.034 1584.302 1581.301 1578.238 1571.438 1567.438 1563.5 1559.858 1556.457 1550.033 1546.96 1543.629 1540.232 1537.252 1532.348 1529.04 1525.81 1523.398 1520.059 1518.177 1516.298 1514.334 1512.341 1509.697 1508.703 1507.527 1506.338 1505.391 1503.849 1503.076 1502.006 1500.956 1498.648 1497.104 1495.419 1493.756 1492.303 1489.824 1488.863 
1575.953 1575.218 1572.965 1571.458 1569.884 1568.31 1566.671 1563.305 1561.585 1559.503 1557.206 1554.902 1550.197 1548.542 1547.257 1546.056 1545.094 1544.213 1544.165 1544.411 1544.791 1546.53 1547.883 1549.554 1551.854 1554.665 1560.046 1562.116 1563.741 1565.15 1566.61 1569.954 1571.491 1572.907 1575.122 1582.645 1586.064 1588.469 1590.394 1592.383 1595.978 1597.711 1599.168 1600.292 1600.925 1600.213 1598.869 1596.779 1594.352 1591.884 1587.056 1584.302 1581.301 1578.238 1571.438 1567.438 1563.281 1559.703 1556.241 1550.01 1546.798 1543.422 1540.151 1537.22 1531.655 1528.356 1525.28 1522.851 1516.753 1514.146 1512.593 1511.367 1509.821 1506.031 1504.996 1504.318 1503.634 1502.971 1501.743 1500.906 1499.857 1498.76 1496.348 1494.843 1493.385 1491.945 1490.665 1488.663 1488.103 
1575.763 1574.831 1572.391 1570.91 1569.372 1567.694 1565.967 1562.585 1560.687 1558.494 1556.208 1553.938 1549.462 1547.994 1546.709 1545.428 1544.527 1543.905 1543.848 1544.187 1544.694 1546.514 1547.884 1549.552 1551.807 1554.553 1559.938 1562.069 1563.726 1565.167 1566.748 1570.34 1571.958 1573.967 1576.989 1584.99 1587.721 1589.892 1592.048 1594.135 1597.827 1599.587 1601.3 1602.501 1602.794 1600.765 1598.977 1596.858 1594.441 1591.977 1587.066 1584.217 1581.164 1578.145 1571.231 1567.109 1563.281 1559.703 1556.241 1550.01 1546.798 1543.422 1540.075 1537.213 1531.424 1528.592 1526.067 1523.402 1515.177 1511.863 1510.119 1508.894 1507.065 1501.808 1500.839 1500.755 1500.546 1500.018 1499.07 1498.407 1497.438 1496.349 1495.24 1492.659 1491.407 1490.209 1489.197 1487.757 1487.487 
1575.457 1574.504 1571.911 1570.421 1568.809 1567.089 1565.347 1561.854 1559.755 1557.52 1555.239 1552.878 1548.859 1547.464 1546.151 1544.974 1544.186 1543.57 1543.602 1543.969 1544.531 1546.446 1547.792 1549.382 1551.582 1554.339 1559.708 1561.846 1563.566 1565.149 1566.879 1570.62 1572.279 1574.741 1578.496 1586.641 1589.094 1591.332 1593.703 1595.918 1599.896 1601.923 1603.799 1605.148 1605.438 1602.003 1599.423 1596.947 1594.527 1592.05 1587.04 1584.206 1581.069 1577.857 1570.786 1566.454 1562.316 1558.775 1555.639 1549.386 1546.351 1543.209 1540.075 1537.213 1531.424 1528.592 1526.067 1523.783 1515.306 1511.965 1509.643 1507.686 1505.537 1500.348 1498.611 1497.882 1497.388 1496.633 1495.731 1495.474 1494.791 1493.82 1492.684 1490.55 1489.631 1488.835 1488.127 1487.064 1487.126 
1575.216 1574.206 1573.067 1569.98 1568.336 1566.602 1564.845 1561.158 1559.002 1556.677 1554.268 1551.799 1548.124 1546.769 1545.493 1544.585 1544.019 1543.229 1543.29 1543.721 1544.329 1546.388 1547.716 1549.158 1551.278 1554.02 1559.304 1561.594 1563.49 1565.188 1566.964 1570.764 1572.551 1575.293 1579.337 1587.107 1589.976 1592.775 1595.374 1597.669 1602.159 1604.497 1606.72 1608.701 1609.456 1603.567 1599.928 1597.1 1594.618 1592.123 1586.94 1584.004 1580.837 1577.588 1570.163 1565.725 1561.63 1558.193 1555.106 1548.848 1545.796 1542.812 1539.935 1537.177 1531.357 1528.904 1526.627 1523.783 1515.306 1511.965 1509.643 1507.686 1505.91 1500.541 1497.81 1496 1494.805 1493.608 1492.38 1492.156 1492.082 1491.374 1490.55 1488.812 1488.175 1487.68 1487.25 1486.64 1486.921 
1574.956 1573.947 1572.646 1569.535 1567.921 1566.227 1564.475 1560.685 1558.468 1556.008 1553.404 1550.895 1547.467 1546.198 1544.962 1544.083 1543.583 1542.824 1542.986 1543.501 1544.158 1546.084 1547.48 1548.901 1550.955 1553.674 1558.987 1561.426 1563.384 1565.073 1566.872 1570.661 1572.475 1575.465 1579.601 1583.72 1590.479 1593.701 1596.87 1599.625 1604.5 1607.051 1609.281 1611.085 1611.386 1604.478 1600.509 1597.461 1594.861 1592.176 1586.812 1583.749 1580.473 1577.32 1569.766 1565.285 1561.284 1557.802 1554.534 1548.284 1545.256 1542.337 1539.423 1536.576 1531.286 1528.821 1526.517 1523.757 1516.529 1513.911 1511.351 1508.634 1505.91 1500.541 1497.81 1496 1494.805 1491.807 1489.815 1489.383 1489.027 1488.83 1488.515 1487.302 1486.945 1486.681 1486.497 1486.808 1487.576 
1574.672 1573.659 1572.239 1569.198 1567.564 1565.895 1564.233 1560.507 1558.147 1555.556 1552.922 1550.491 1547.116 1545.887 1544.651 1543.705 1543.165 1542.507 1542.645 1543.199 1543.911 1545.834 1547.25 1548.554 1550.455 1553.132 1558.517 1561.032 1563.086 1564.882 1566.706 1570.501 1572.458 1575.407 1579.42 1583.555 1590.505 1594.113 1597.71 1600.803 1606.62 1609.484 1611.456 1612.429 1611.861 1605.115 1601.331 1597.999 1595.041 1592.198 1586.574 1583.432 1580.122 1576.957 1569.299 1564.974 1561.008 1557.326 1553.871 1547.546 1544.572 1541.678 1538.89 1536.204 1530.892 1528.43 1525.915 1523.286 1520.467 1514.983 1512.545 1509.752 1506.734 1501.253 1498.472 1495.775 1493.537 1491.807 1489.815 1489.383 1489.027 1488.83 1486.247 1485.818 1485.768 1485.767 1485.937 1486.959 1488.736 
1574.327 1573.243 1571.782 1568.801 1567.226 1565.634 1564.049 1560.293 1557.873 1555.313 1552.774 1550.429 1546.873 1545.539 1544.431 1543.502 1542.747 1542.153 1542.377 1542.911 1543.572 1545.658 1546.9 1548.121 1549.893 1552.378 1557.784 1560.408 1562.601 1564.504 1566.381 1570.263 1572.325 1575.219 1578.98 1582.875 1590.263 1594.043 1597.727 1601.168 1607.976 1610.897 1612.752 1613.135 1611.837 1605.373 1601.6 1598.156 1594.995 1591.952 1586.061 1582.922 1579.602 1576.241 1568.418 1564.198 1560.312 1556.62 1553.079 1546.769 1543.811 1540.977 1538.197 1535.458 1530.159 1527.656 1525.241 1522.768 1520.206 1515.445 1513.083 1510.237 1507.136 1501.67 1498.965 1496.182 1493.544 1491.3 1488.365 1487.742 1487.032 1486.498 1486.247 1485.818 1485.768 1485.767 1485.937 1486.959 1491.037 
1573.701 1572.603 1571.28 1568.439 1566.996 1565.456 1563.839 1560.119 1557.669 1555.111 1552.636 1550.367 1546.782 1545.151 1543.897 1543.029 1542.326 1541.749 1541.964 1542.514 1543.295 1545.287 1546.482 1547.792 1549.325 1551.45 1557.039 1559.727 1562.085 1564.081 1565.95 1569.967 1572.071 1574.845 1578.389 1582.158 1589.576 1593.62 1597.497 1601.208 1608.757 1611.692 1612.843 1612.851 1611.845 1605.322 1601.626 1598.175 1594.881 1591.651 1585.43 1582.261 1579.018 1575.637 1567.548 1563.081 1559.225 1555.714 1552.177 1545.777 1542.837 1539.991 1537.259 1534.562 1529.354 1526.835 1524.347 1522.019 1519.798 1515.383 1513.036 1510.243 1507.222 1501.674 1499.027 1496.288 1493.674 1491.376 1487.838 1486.624 1485.587 1484.829 1484.549 1484.396 1484.74 1485.213 1485.836 1488.429 1491.037 
1572.977 1571.845 1570.678 1567.961 1566.574 1565.154 1563.674 1559.982 1557.466 1554.921 1552.536 1550.335 1546.612 1544.717 1543.308 1542.348 1541.549 1541.124 1541.418 1542.154 1543.118 1544.038 1546.143 1547.384 1548.605 1550.418 1556.246 1559.055 1561.465 1563.432 1565.351 1569.697 1571.756 1574.416 1577.886 1581.625 1589.101 1593.132 1596.83 1600.713 1609.152 1612.082 1613.131 1613.029 1611.915 1605.253 1601.519 1597.971 1594.516 1591.169 1584.8 1581.571 1578.32 1574.928 1566.588 1562.461 1558.459 1554.619 1551.153 1544.657 1541.647 1538.803 1536.058 1533.37 1528.252 1525.759 1523.439 1521.299 1519.2 1515.154 1512.926 1510.221 1507.146 1501.641 1498.939 1496.162 1493.604 1491.36 1487.392 1485.73 1484.446 1483.539 1483.128 1483.254 1484.137 1485.28 1486.557 1490.328 1493.738 
1572.201 1571.112 1570.004 1567.393 1566.119 1564.782 1563.403 1559.681 1557.19 1554.66 1552.289 1550.151 1546.115 1544.131 1542.334 1540.973 1540.196 1540.214 1540.816 1541.72 1542.738 1543.723 1545.862 1547.047 1548.203 1549.843 1555.494 1558.115 1560.397 1562.5 1564.669 1569.491 1571.64 1574.304 1577.768 1581.516 1588.998 1592.937 1596.74 1600.913 1609.791 1612.584 1613.334 1612.947 1611.711 1604.85 1600.917 1597.312 1593.845 1590.447 1583.908 1580.571 1577.278 1573.726 1569.643 1561.056 1556.985 1553.256 1549.803 1543.285 1540.338 1537.397 1534.588 1531.975 1526.922 1524.654 1522.521 1520.441 1518.441 1514.81 1512.646 1509.817 1506.681 1501.203 1498.491 1495.741 1493.136 1490.887 1486.812 1485.02 1483.592 1482.611 1482.137 1482.674 1483.965 1485.739 1487.646 1492.788 1495.941 
1571.31 1570.284 1569.236 1566.866 1565.636 1564.328 1563.021 1559.221 1556.738 1554.269 1551.924 1549.767 1545.577 1543.377 1541.124 1539.423 1538.696 1539.498 1540.393 1541.328 1542.409 1543.556 1545.676 1546.842 1548.034 1549.659 1554.804 1557.33 1559.473 1561.63 1564.124 1569.429 1571.718 1574.493 1578.101 1581.961 1589.413 1593.229 1596.931 1601.358 1610.77 1613.102 1613.4 1612.456 1610.729 1604.021 1600.038 1596.375 1592.847 1589.363 1582.664 1579.097 1575.782 1572.181 1567.844 1559.405 1555.221 1551.509 1548.193 1541.468 1538.534 1535.802 1533.038 1530.252 1525.249 1523.269 1521.324 1519.297 1517.373 1513.862 1511.569 1508.754 1505.822 1500.443 1497.742 1495.073 1492.522 1490.122 1485.925 1484.279 1482.907 1481.958 1481.416 1482.548 1484.088 1486.039 1488.266 1490.974 1497.43 
1570.443 1569.54 1568.484 1566.265 1565.098 1563.838 1562.543 1558.652 1556.195 1553.779 1551.464 1549.274 1544.893 1542.664 1540.355 1538.351 1537.427 1538.981 1540.011 1541.099 1542.291 1543.432 1545.631 1546.83 1548.048 1549.702 1554.562 1556.917 1559.075 1561.326 1563.941 1569.676 1572.117 1575.198 1579.087 1583.07 1590.45 1594.1 1597.944 1602.729 1611.895 1613.166 1613.171 1612.112 1609.805 1603.158 1599.351 1595.678 1591.872 1587.911 1581.076 1577.161 1573.442 1569.616 1565.273 1557.302 1552.88 1549.141 1546.141 1539.42 1536.56 1534.077 1531.396 1528.435 1523.846 1522.121 1520.216 1518.181 1516.188 1512.412 1510.127 1507.45 1504.721 1499.505 1496.902 1494.304 1491.724 1489.298 1484.997 1483.467 1482.423 1481.623 1481.157 1482.623 1484.356 1486.401 1488.711 1491.695 1498.299 
1569.546 1568.726 1567.752 1565.675 1564.527 1563.301 1561.922 1557.886 1555.55 1553.151 1550.863 1548.686 1544.27 1542.002 1539.763 1537.744 1536.792 1538.793 1539.899 1541.019 1542.172 1543.328 1545.674 1546.972 1548.33 1550.035 1554.708 1556.973 1559.185 1561.505 1564.178 1570.241 1572.959 1576.369 1580.531 1584.633 1591.803 1595.36 1599.685 1605.022 1613.333 1613.827 1613.302 1611.982 1609.504 1602.796 1599.354 1595.495 1591.129 1586.863 1579.873 1575.864 1571.853 1567.424 1562.605 1555.275 1550.944 1547.479 1544.823 1537.825 1535.242 1532.887 1530.006 1526.928 1522.791 1521.155 1519.307 1517.275 1515.109 1510.784 1508.601 1506.161 1503.565 1498.572 1496.171 1493.621 1490.995 1488.526 1484.284 1482.874 1482.176 1481.543 1481.155 1482.802 1484.648 1486.724 1489.094 1492.091 1498.496 
1568.788 1567.967 1566.993 1565.107 1563.962 1562.798 1561.318 1559.256 1554.683 1552.311 1550.042 1547.875 1543.583 1541.371 1539.115 1537.249 1536.62 1538.76 1539.899 1541.023 1542.219 1543.453 1545.872 1547.22 1548.672 1550.461 1555.034 1557.387 1559.652 1562.048 1564.826 1570.902 1574.001 1577.83 1582.199 1586.291 1593.138 1596.755 1601.494 1607.024 1613.849 1614.083 1613.333 1611.818 1609.325 1602.774 1599.443 1595.452 1590.964 1586.718 1579.496 1575.958 1571.744 1566.828 1562.083 1554.655 1551.143 1547.732 1544.405 1538.117 1535.159 1532.218 1529.183 1526.313 1522.325 1520.602 1518.689 1516.705 1514.765 1510.204 1507.671 1505.087 1502.368 1497.778 1495.473 1492.91 1490.364 1487.99 1483.897 1482.561 1482.059 1481.55 1481.235 1483.035 1484.859 1486.993 1489.339 1492.047 1497.949 
1568.117 1567.335 1566.413 1564.408 1563.353 1562.176 1560.577 1558.421 1553.842 1551.571 1549.327 1547.091 1542.738 1540.658 1538.441 1536.813 1536.551 1538.753 1539.995 1541.148 1542.345 1543.627 1546.118 1547.498 1549.047 1550.934 1555.514 1557.902 1560.23 1562.784 1565.661 1571.657 1575.058 1579.19 1583.606 1587.539 1594.274 1598.15 1603.066 1608.324 1612.142 1613.84 1613.209 1611.707 1609.242 1602.539 1599.437 1595.54 1591.153 1587.063 1579.561 1575.971 1571.685 1566.775 1562.111 1554.552 1551.286 1547.834 1544.244 1537.944 1534.996 1531.963 1529.102 1526.596 1522.244 1520.206 1518.268 1516.441 1514.651 1510.103 1507.277 1504.542 1501.983 1497.379 1494.976 1492.397 1489.996 1487.84 1483.767 1482.473 1482.028 1481.58 1481.324 1483.228 1484.989 1487.077 1489.231 1491.374 1495.841 
1567.418 1566.604 1565.711 1563.689 1562.709 1561.438 1559.669 1557.536 1553.039 1550.865 1548.675 1546.414 1541.855 1539.711 1537.679 1536.449 1536.446 1538.729 1540.029 1541.258 1542.535 1543.851 1546.543 1547.976 1549.62 1551.574 1556.092 1558.468 1560.885 1563.582 1566.579 1572.573 1576.175 1580.372 1584.588 1588.364 1595.302 1599.29 1604.089 1608.945 1612.297 1613.395 1612.608 1611.083 1608.597 1601.927 1598.958 1595.215 1591.088 1587.252 1579.496 1575.855 1571.505 1566.624 1562.104 1554.171 1550.716 1547.238 1543.709 1537.212 1534.355 1531.493 1528.828 1526.458 1522.054 1519.89 1517.863 1516.111 1514.489 1509.891 1506.991 1504.293 1501.844 1499.505 1494.925 1492.496 1490.228 1488.148 1484.128 1482.74 1482.121 1481.605 1481.393 1483.424 1485.022 1486.933 1488.885 1490.577 1493.315 
1566.656 1565.851 1564.881 1563.037 1562.106 1560.582 1558.546 1556.477 1552.145 1549.979 1547.806 1545.55 1540.928 1538.707 1536.899 1536.09 1536.378 1538.731 1540.063 1541.355 1542.731 1544.121 1546.923 1548.37 1550.151 1552.262 1556.781 1559.164 1561.654 1564.483 1567.636 1574.033 1577.485 1581.432 1585.405 1589.032 1596.249 1600.306 1604.817 1609.224 1612.213 1612.588 1611.543 1609.644 1607.035 1600.827 1597.655 1594.118 1590.414 1586.745 1578.931 1575.416 1570.895 1565.763 1561.249 1553.164 1549.617 1546.083 1542.578 1536.36 1533.46 1530.708 1528.177 1525.868 1521.562 1519.325 1517.375 1515.7 1513.993 1509.469 1506.635 1504.008 1501.672 1499.441 1495.001 1492.862 1490.772 1488.698 1484.725 1483.132 1482.272 1481.639 1481.478 1483.488 1484.859 1486.434 1487.951 1489.107 1491.064 
1565.939 1565.042 1564.056 1562.299 1561.075 1559.446 1557.511 1555.411 1551.172 1549.047 1546.864 1544.609 1539.911 1537.746 1536.363 1535.957 1536.373 1538.803 1540.219 1541.528 1542.939 1544.459 1547.232 1548.683 1550.597 1552.843 1557.443 1559.829 1562.459 1565.432 1568.637 1575.407 1578.846 1582.512 1586.228 1589.772 1596.814 1600.912 1605.32 1609.458 1612.197 1611.602 1610.155 1608.07 1605.419 1599.434 1596.136 1592.643 1589.055 1585.406 1577.585 1573.675 1568.698 1563.413 1559.047 1551.337 1547.805 1544.31 1541.008 1534.985 1532.087 1529.547 1527.159 1524.822 1520.708 1518.593 1516.713 1515.122 1513.394 1508.783 1506.152 1503.7 1501.516 1499.391 1495.081 1493.097 1491.172 1489.234 1485.298 1483.568 1482.454 1481.7 1481.571 1483.233 1484.307 1485.417 1486.401 1487.165 1488.732 
1565.087 1564.116 1563.174 1561.236 1559.781 1558.07 1556.206 1554.24 1550.222 1548.117 1545.917 1543.66 1538.979 1537.003 1536.104 1536.003 1536.373 1538.907 1540.358 1541.751 1543.245 1544.793 1547.675 1549.189 1551.159 1553.462 1555.769 1560.443 1563.22 1566.359 1569.584 1576.304 1579.838 1583.417 1586.962 1590.427 1597.241 1601.328 1605.734 1609.732 1612.097 1610.498 1608.756 1606.615 1604.009 1598.015 1594.804 1591.146 1587.403 1583.853 1575.884 1571.41 1566 1560.982 1557.163 1549.163 1545.647 1541.998 1538.659 1533.085 1529.974 1527.576 1525.625 1523.606 1519.466 1517.538 1515.853 1514.333 1512.595 1507.834 1505.469 1503.332 1501.263 1499.163 1495.026 1493.148 1491.32 1489.414 1485.56 1483.762 1482.492 1481.658 1481.513 1482.608 1483.425 1484.18 1484.711 1485.119 1486.908 
1564.154 1563.226 1562.31 1559.878 1558.344 1556.673 1554.884 1553.025 1549.187 1547.211 1545.069 1542.809 1538.35 1536.638 1535.902 1535.916 1536.411 1538.955 1540.427 1541.924 1543.512 1545.118 1548.179 1549.903 1551.887 1554.087 1556.425 1561.181 1564.031 1567.22 1570.446 1577.138 1580.624 1584.17 1587.658 1591.055 1597.945 1601.798 1606.052 1609.841 1611.662 1609.315 1607.567 1605.41 1602.888 1597.219 1593.96 1590.065 1586.236 1582.879 1575.212 1570.672 1565.257 1560.269 1556.352 1548.142 1544.24 1540.043 1536.446 1533.882 1527.26 1524.976 1523.586 1522.037 1518.044 1516.23 1514.643 1513.031 1511.149 1506.59 1504.538 1502.678 1500.767 1498.747 1494.615 1492.925 1491.239 1489.356 1485.507 1483.648 1482.312 1481.447 1481.255 1481.851 1482.394 1482.826 1482.999 1483.208 1485.824 
1563.21 1562.342 1561.34 1558.435 1556.839 1555.143 1553.402 1551.671 1548.142 1546.261 1544.194 1542.015 1537.885 1536.372 1535.747 1535.807 1536.378 1538.969 1540.561 1542.168 1543.833 1545.513 1548.671 1550.536 1552.592 1554.789 1557.126 1561.992 1564.88 1568.064 1571.281 1577.907 1581.369 1584.865 1588.345 1591.751 1598.481 1601.94 1605.981 1609.383 1610.543 1608.298 1606.584 1604.54 1602.272 1596.984 1593.603 1589.861 1586.22 1582.838 1575.866 1571.409 1565.933 1560.752 1556.459 1548.048 1543.903 1539.608 1535.943 1532.987 1525.641 1523.52 1522.252 1520.548 1516.224 1514.452 1512.927 1511.229 1509.147 1504.964 1503.213 1501.513 1499.765 1497.878 1494.008 1492.488 1490.848 1489.002 1485.214 1483.391 1482.003 1481.123 1480.898 1481.123 1481.412 1481.619 1481.759 1482.269 1485.81 
1562.342 1561.349 1559.937 1556.828 1555.269 1553.553 1551.777 1550.139 1546.972 1545.216 1543.243 1541.253 1537.528 1536.197 1535.655 1535.672 1536.185 1538.955 1540.649 1542.452 1544.257 1545.939 1549.242 1551.206 1553.328 1555.511 1557.783 1562.801 1565.747 1568.87 1572.059 1578.721 1582.13 1585.531 1588.972 1592.368 1598.668 1601.901 1605.229 1607.801 1608.822 1607.242 1605.598 1603.726 1601.74 1596.843 1593.446 1589.942 1586.516 1583.167 1576.569 1572.284 1566.922 1561.607 1556.955 1548.319 1544.198 1540.154 1536.525 1533.142 1525.98 1523.618 1521.911 1519.748 1514.327 1512.348 1510.763 1508.984 1506.74 1502.693 1501.154 1499.681 1498.123 1496.391 1493.126 1491.856 1490.26 1488.394 1484.702 1482.964 1481.601 1480.743 1480.518 1480.462 1480.626 1480.798 1481.086 1481.939 1486.165 
1561.184 1559.921 1558.492 1555.28 1553.572 1551.828 1550.169 1548.701 1545.73 1544.016 1542.273 1540.574 1537.282 1536.07 1535.552 1535.55 1536.043 1538.931 1540.778 1542.719 1544.657 1546.469 1549.94 1551.885 1553.981 1556.165 1558.4 1563.524 1566.522 1569.656 1572.883 1579.551 1582.865 1586.243 1589.779 1593.36 1599.332 1601.984 1604.261 1605.936 1606.878 1605.927 1604.619 1602.924 1601.077 1596.457 1593.251 1589.961 1586.76 1583.609 1577.037 1572.992 1567.783 1562.276 1557.375 1548.806 1544.76 1540.999 1537.483 1533.881 1526.751 1524.097 1521.917 1519.418 1513.466 1511.179 1509.495 1507.109 1503.957 1500.095 1498.836 1497.593 1496.078 1494.397 1491.943 1490.794 1489.285 1487.514 1483.935 1482.291 1481.067 1480.298 1480.086 1479.88 1479.981 1480.144 1480.617 1481.831 1486.372 
1559.719 1558.365 1556.924 1553.712 1551.92 1550.162 1548.651 1547.36 1544.553 1542.966 1541.41 1539.91 1538.401 1536.008 1535.552 1535.566 1536.105 1539.08 1541.036 1543.083 1545.078 1546.919 1550.663 1552.563 1554.609 1556.777 1558.941 1564.15 1567.24 1570.405 1573.69 1580.542 1583.891 1587.299 1590.837 1594.435 1600.101 1602.228 1604.003 1604.83 1604.811 1604.708 1603.715 1602.148 1600.489 1595.994 1593.044 1590.086 1587.219 1584.198 1577.527 1574.014 1568.572 1562.546 1557.572 1548.869 1545.16 1541.744 1538.404 1534.879 1527.442 1524.537 1522.041 1519.469 1513.921 1511.629 1509.452 1506.252 1502.471 1498.483 1497.222 1495.594 1493.742 1492.211 1490.282 1489.204 1487.85 1486.296 1483.013 1481.587 1480.506 1479.824 1479.6 1479.313 1479.388 1479.655 1480.445 1482.005 1486.607 
1558.171 1556.807 1555.363 1552.143 1550.47 1548.9 1547.455 1546.096 1543.376 1542.019 1540.647 1539.182 1537.723 1535.779 1535.482 1535.646 1536.348 1539.47 1541.445 1543.438 1545.471 1547.442 1551.219 1553.189 1555.217 1557.322 1559.469 1564.76 1567.889 1571.106 1574.485 1581.568 1585.089 1588.552 1592.039 1595.484 1600.591 1602.539 1604.001 1604.339 1604.078 1603.895 1602.751 1601.228 1599.695 1597.946 1592.709 1589.999 1587.315 1584.4 1577.893 1574.658 1569.134 1562.808 1557.631 1548.775 1545.323 1542.167 1539.001 1535.604 1528 1524.939 1522.34 1519.819 1514.994 1512.835 1509.961 1506.33 1502.805 1498.23 1496.383 1493.811 1491.22 1489.675 1488.285 1487.472 1486.263 1484.847 1482.066 1480.864 1479.914 1479.301 1479.103 1478.724 1478.824 1479.259 1480.419 1482.346 1486.914 
1556.572 1555.25 1553.822 1550.674 1549.143 1547.717 1546.318 1544.941 1542.306 1541.054 1539.77 1538.399 1537.122 1535.544 1535.379 1535.77 1536.719 1539.996 1541.896 1543.847 1545.884 1547.899 1551.754 1553.666 1555.653 1557.743 1559.931 1565.401 1568.545 1571.59 1574.94 1582.676 1586.322 1589.866 1593.42 1596.683 1601.267 1602.659 1603.728 1603.955 1603.63 1602.968 1601.811 1600.438 1598.847 1597.014 1592.264 1589.78 1587.249 1584.422 1577.975 1574.648 1569.308 1563.095 1557.738 1548.753 1545.352 1542.253 1539.153 1535.875 1528.575 1525.459 1522.845 1520.388 1515.811 1513.695 1510.691 1507.041 1503.666 1498.637 1495.984 1492.797 1489.715 1487.618 1486.048 1485.452 1484.46 1483.263 1482.172 1480.086 1479.273 1478.75 1478.581 1478.145 1478.211 1478.694 1480.068 1482.315 1486.997 
1554.964 1553.73 1552.386 1549.4 1547.967 1546.581 1545.175 1543.792 1541.246 1540.014 1538.818 1537.67 1536.61 1535.367 1535.399 1535.966 1537.075 1540.436 1542.328 1544.277 1546.314 1548.368 1552.217 1554.155 1556.179 1558.255 1560.463 1566.043 1569.164 1572.299 1575.822 1583.892 1587.586 1591.148 1594.697 1597.808 1601.874 1602.911 1603.123 1603.005 1603.032 1602.015 1600.869 1599.602 1598 1596.061 1591.7 1589.441 1587.056 1584.286 1577.884 1574.569 1569.352 1563.248 1557.807 1548.653 1545.219 1542.105 1538.97 1535.711 1528.877 1525.773 1523.152 1520.751 1516.14 1513.954 1511.026 1507.6 1504.396 1498.864 1496.031 1492.726 1489.517 1486.995 1484.17 1483.432 1482.528 1481.617 1480.834 1479.264 1478.617 1478.19 1478.055 1477.545 1477.544 1477.979 1479.49 1482.019 1486.815 
1553.471 1552.315 1551.055 1548.242 1546.753 1545.321 1543.96 1542.67 1540.212 1538.904 1537.693 1536.761 1536.011 1535.093 1535.391 1536.176 1537.431 1540.866 1542.68 1544.614 1546.572 1548.49 1552.52 1554.574 1556.62 1558.716 1561.011 1566.675 1569.832 1573.157 1576.927 1585.244 1588.807 1592.319 1595.868 1598.806 1602.431 1603.106 1602.855 1602.82 1603.029 1601.157 1599.947 1598.663 1597.076 1595.133 1591.062 1588.945 1586.619 1583.847 1577.634 1574.516 1569.314 1563.229 1557.791 1548.563 1544.957 1541.674 1538.516 1535.333 1528.944 1525.953 1523.296 1520.885 1516.273 1513.972 1511.058 1507.819 1504.722 1498.948 1495.982 1492.93 1490.224 1487.68 1483.075 1481.466 1480.407 1479.844 1479.322 1478.342 1477.851 1477.52 1477.425 1476.933 1476.946 1477.473 1479.211 1482.01 1486.911 
1553.471 1552.315 1551.055 1548.242 1546.753 1544.117 1542.74 1541.529 1539.069 1537.73 1536.753 1536.01 1535.222 1534.815 1535.456 1536.455 1537.791 1541.211 1543.083 1544.99 1546.883 1548.794 1552.842 1554.9 1556.992 1559.175 1561.591 1567.407 1570.616 1574.148 1578.138 1582.422 1589.991 1593.404 1596.755 1599.455 1602.759 1603.121 1602.766 1602.605 1602.482 1600.322 1599.162 1597.822 1596.124 1594.19 1590.192 1588.172 1585.856 1583.022 1576.828 1573.567 1568.636 1562.909 1557.425 1547.968 1544.378 1541.129 1537.998 1534.861 1528.846 1526.037 1523.429 1520.974 1516.221 1513.935 1511.073 1507.798 1504.587 1498.681 1495.774 1493.023 1490.597 1488.099 1482.261 1479.567 1478.269 1477.965 1477.581 1477.22 1476.916 1476.712 1476.639 1476.287 1476.562 1477.565 1479.795 1482.843 1487.718 
1552.001 1550.942 1549.811 1546.99 1545.582 1544.117 1542.74 1541.529 1539.069 1537.73 1535.899 1535.02 1534.434 1534.672 1535.434 1536.631 1538.049 1541.444 1543.304 1545.211 1547.15 1549.133 1553.081 1555.183 1557.39 1559.575 1561.962 1568.129 1571.292 1574.929 1579.203 1583.595 1590.897 1594.18 1597.229 1599.742 1602.314 1602.912 1602.575 1602.195 1601.996 1599.651 1598.469 1596.97 1595.191 1593.312 1589.015 1586.942 1584.502 1581.595 1575.735 1571.967 1567.341 1562.134 1556.584 1547.117 1543.589 1540.368 1537.311 1534.29 1528.544 1525.86 1523.353 1520.897 1518.394 1513.909 1511.048 1507.643 1504.231 1498.299 1495.547 1492.987 1490.625 1488.106 1481.878 1478.882 1476.99 1476.137 1475.759 1475.899 1475.866 1475.814 1475.772 1475.753 1476.42 1478.019 1480.713 1483.841 1488.604 
1550.509 1549.441 1548.26 1545.622 1544.218 1542.881 1541.568 1540.277 1537.812 1536.765 1535.899 1535.02 1534.434 1534.672 1535.434 1536.631 1538.274 1541.755 1543.557 1545.37 1547.218 1549.17 1553.293 1555.413 1557.62 1559.785 1562.234 1568.768 1571.983 1575.788 1580.136 1584.355 1591.631 1594.952 1597.831 1600.128 1602.3 1602.124 1601.891 1601.83 1601.497 1599.212 1597.806 1596.238 1594.507 1592.53 1587.843 1585.471 1582.896 1580.027 1574.072 1569.757 1565.163 1560.339 1555.104 1546.139 1542.624 1539.177 1536.127 1533.443 1528.03 1525.481 1523.007 1520.568 1518.123 1513.844 1510.839 1507.241 1503.733 1497.902 1495.25 1492.791 1490.585 1488.114 1481.428 1478.338 1476.034 1474.641 1474.102 1474.661 1474.876 1474.98 1475.016 1475.396 1476.375 1478.266 1481.036 1484.074 1488.932 
1549.035 1547.815 1546.582 1544.045 1542.733 1541.48 1540.26 1539.033 1536.564 1535.519 1534.545 1533.893 1533.812 1534.38 1535.376 1536.746 1538.274 1541.755 1543.557 1545.37 1547.218 1549.175 1553.398 1555.611 1557.832 1560.075 1562.668 1569.282 1572.822 1576.689 1580.855 1584.978 1592.25 1595.619 1598.397 1600.512 1602.237 1601.859 1601.92 1601.786 1600.961 1598.873 1597.477 1595.801 1593.921 1591.872 1587.481 1584.862 1581.703 1578.243 1571.135 1566.639 1562.066 1557.539 1552.975 1544.722 1541.356 1538.258 1535.267 1532.36 1527.174 1524.718 1522.312 1519.946 1517.589 1513.477 1510.321 1506.576 1503.079 1497.334 1494.766 1492.401 1490.351 1487.931 1480.922 1477.524 1475.076 1473.692 1473.097 1473.672 1474.023 1474.205 1474.31 1475.086 1476.179 1478.026 1480.57 1483.403 1488.645 
1547.201 1546.046 1544.795 1542.466 1541.257 1540.082 1538.953 1537.749 1535.259 1533.928 1532.974 1532.647 1532.815 1534.169 1535.376 1536.806 1538.393 1541.873 1543.756 1545.541 1547.285 1549.175 1553.398 1555.611 1557.832 1560.075 1563.021 1569.724 1573.17 1577.211 1581.699 1585.928 1592.926 1596.265 1598.907 1600.78 1602.069 1601.565 1601.507 1601.327 1600.538 1598.639 1597.068 1595.253 1593.409 1591.459 1587.354 1584.63 1581.048 1577.016 1568.532 1563.219 1558.792 1554.503 1550.024 1542.629 1539.368 1536.496 1533.721 1530.916 1525.811 1523.46 1521.197 1518.952 1516.762 1512.316 1509.043 1505.427 1502.119 1496.571 1494.087 1491.807 1489.572 1486.96 1480.341 1477.149 1474.656 1473.084 1472.456 1473.047 1473.375 1473.564 1473.74 1474.742 1475.794 1477.412 1479.492 1481.855 1487.245 
1545.25 1544.085 1542.865 1540.89 1539.781 1538.624 1537.422 1536.087 1532.892 1531.423 1530.934 1531.232 1531.819 1533.91 1535.336 1536.817 1538.431 1540.254 1543.792 1545.608 1547.406 1549.289 1553.512 1555.723 1558 1560.335 1563.021 1569.724 1573.17 1577.211 1581.699 1586.39 1593.739 1597.13 1599.692 1601.258 1601.698 1601.64 1601.286 1600.646 1599.943 1598.139 1596.629 1594.771 1592.901 1591.051 1587.211 1584.465 1580.732 1576.678 1572.438 1562.052 1557.031 1552.01 1547.522 1539.921 1536.885 1534.379 1531.842 1529.217 1524.332 1522.034 1519.729 1517.518 1515.57 1510.879 1507.368 1503.761 1500.643 1495.514 1493.034 1490.849 1488.498 1485.668 1479.526 1476.545 1474.168 1472.587 1471.931 1472.512 1472.815 1473.009 1473.22 1474.224 1475.199 1476.487 1478.041 1479.886 1484.75 
1542.807 1541.744 1540.999 1539.234 1538.192 1536.866 1535.214 1533.413 1530.13 1528.788 1528.217 1528.765 1530.23 1533.961 1535.391 1536.78 1538.488 1540.421 1544.057 1545.766 1547.47 1549.258 1553.51 1555.814 1558.233 1560.709 1563.45 1570.325 1573.972 1577.991 1582.263 1586.39 1593.739 1597.13 1599.692 1601.258 1601.698 1600.91 1600.502 1599.915 1599.275 1597.358 1595.918 1594.275 1592.444 1590.553 1586.993 1584.104 1580.376 1576.456 1572.193 1561.853 1556.606 1551.507 1546.749 1537.617 1535.009 1532.816 1530.036 1527.091 1522.696 1520.507 1518.017 1515.666 1513.597 1508.395 1505.056 1501.823 1499.031 1494.032 1491.792 1489.695 1487.14 1484.122 1478.54 1475.476 1473.188 1471.952 1471.508 1472.053 1472.296 1472.471 1472.679 1473.05 1474.463 1475.48 1476.593 1477.892 1482.172 
1539.801 1539.339 1538.946 1537.284 1536.094 1534.296 1532.246 1530.32 1527.104 1525.96 1525.662 1527.221 1530.12 1534.532 1536.077 1537.406 1539.023 1540.989 1544.429 1545.924 1547.381 1549.037 1553.6 1556.191 1558.563 1560.951 1563.806 1570.762 1574.475 1578.542 1582.769 1586.833 1594.541 1597.892 1600.148 1601.384 1601.302 1600.91 1600.502 1599.915 1599.275 1597.358 1595.077 1593.536 1591.893 1590.15 1586.673 1583.76 1580.087 1576.228 1571.966 1561.798 1556.578 1551.407 1546.368 1537.12 1534.256 1531.695 1528.91 1526.098 1521.501 1519.172 1516.579 1513.88 1511.237 1505.393 1502.134 1499.478 1497.141 1492.231 1490.068 1487.732 1485.036 1482.17 1476.807 1473.885 1472.073 1471.349 1471.094 1471.646 1471.872 1472.07 1472.312 1472.675 1473.882 1474.68 1475.501 1476.513 1480.882 
1536.617 1536.528 1536.317 1533.895 1532.321 1530.551 1528.731 1527.053 1524.428 1524.018 1524.848 1527.279 1530.605 1535.544 1537.276 1538.862 1540.45 1542.091 1545.079 1546.385 1547.577 1548.987 1553.822 1556.519 1558.892 1561.31 1564.273 1571.237 1574.929 1578.993 1583.194 1587.326 1595.328 1598.468 1600.497 1601.072 1600.765 1600.138 1599.527 1599.029 1598.421 1596.504 1595.077 1593.536 1591.893 1590.15 1586.673 1583.5 1579.788 1575.999 1571.74 1561.761 1556.493 1551.28 1546.175 1536.872 1533.882 1531.15 1528.401 1525.787 1520.726 1518.25 1515.811 1513.131 1510.041 1502.723 1499.813 1497.665 1495.431 1489.964 1487.622 1485.317 1482.736 1479.984 1474.58 1471.764 1470.786 1470.912 1470.866 1471.205 1471.408 1471.617 1471.877 1472.317 1473.495 1474.111 1474.767 1475.753 1480.197 
1533.599 1532.745 1532.145 1531.034 1528.05 1526.59 1525.261 1524.155 1523.271 1524.423 1526.565 1529.44 1532.522 1537.077 1538.865 1540.478 1542.119 1543.777 1546.267 1547.369 1548.516 1549.946 1554.553 1557.116 1559.295 1561.648 1564.754 1572.057 1575.813 1579.703 1583.711 1587.946 1596.584 1599.497 1600.731 1600.698 1599.882 1599.268 1598.654 1598.05 1597.347 1595.442 1594.185 1592.692 1591.153 1589.665 1586.529 1583.5 1579.788 1575.999 1571.74 1561.761 1556.137 1551.071 1545.908 1536.541 1533.4 1530.639 1528.112 1525.632 1520.116 1517.445 1515.088 1512.482 1509.128 1501.962 1499.051 1496.61 1494.2 1488.861 1486.055 1483.143 1480.196 1477.474 1472.22 1470.926 1470.671 1470.652 1470.637 1470.851 1470.996 1471.197 1471.508 1471.969 1472.943 1473.533 1474.25 1475.271 1479.585 
1530.923 1529.209 1527.982 1526.835 1524.396 1523.636 1523.152 1522.734 1524.013 1526.116 1528.746 1531.591 1534.434 1539 1540.733 1542.497 1544.196 1545.654 1548.015 1549.004 1550.216 1551.818 1555.903 1557.94 1559.742 1562.078 1565.392 1572.593 1576.451 1580.444 1584.48 1588.906 1597.895 1600.469 1600.929 1600.328 1599.865 1598.534 1597.815 1597.016 1596.194 1594.385 1593.205 1591.915 1590.611 1589.26 1586.289 1583.13 1579.32 1575.589 1571.364 1561.193 1556.137 1551.071 1545.908 1536.541 1533.4 1530.008 1527.444 1524.915 1519.034 1516.374 1513.852 1511.001 1507.721 1501.095 1498.329 1495.759 1493.323 1488.597 1485.368 1481.869 1478.463 1475.452 1470.908 1470.711 1470.781 1470.627 1470.592 1470.481 1470.586 1470.739 1471.078 1471.439 1472.247 1472.868 1473.621 1474.6 1478.817 
1527.595 1525.726 1524.521 1523.634 1522.555 1522.228 1522.338 1522.769 1525.291 1527.931 1530.806 1533.654 1536.379 1540.857 1542.728 1544.634 1546.365 1547.769 1550.17 1551.282 1552.487 1554.008 1557.38 1558.996 1560.703 1563.177 1566.489 1573.013 1576.995 1581.089 1585.27 1590.197 1599.329 1600.203 1600.037 1599.761 1599.135 1597.728 1596.851 1595.975 1595.134 1593.329 1592.304 1591.203 1589.98 1588.685 1585.509 1582.255 1578.33 1574.279 1569.942 1560.222 1555.478 1550.719 1545.443 1535.877 1532.765 1530.008 1527.444 1524.915 1519.034 1516.374 1513.852 1509.251 1506.006 1499.933 1497.277 1494.717 1492.347 1490.227 1484.36 1480.865 1477.595 1474.655 1470.73 1470.636 1470.727 1470.598 1470.448 1470.135 1470.174 1470.285 1470.579 1470.809 1471.354 1471.958 1472.87 1474.017 1478.508 
1524.26 1522.692 1521.888 1521.248 1521.066 1521.316 1522.066 1523.278 1527.153 1529.818 1532.741 1535.667 1538.318 1542.942 1545.096 1547.016 1548.606 1549.932 1552.48 1553.661 1554.932 1556.392 1559.156 1560.477 1562.455 1565.201 1568.259 1574.291 1578.543 1582.603 1586.761 1592.018 1600.075 1600.187 1599.586 1599.11 1598.506 1596.826 1595.914 1595.003 1594.125 1592.312 1591.326 1590.359 1589.321 1588.177 1584.621 1581.112 1577.226 1573.103 1568.453 1558.977 1554.316 1549.421 1544.045 1534.889 1531.664 1528.839 1526.202 1523.542 1517.67 1515.029 1512.334 1509.251 1506.006 1499.933 1497.277 1494.717 1490.903 1488.726 1482.721 1479.628 1476.688 1473.807 1471.267 1470.875 1470.687 1470.559 1470.315 1469.844 1469.808 1469.872 1470.133 1470.165 1470.399 1470.988 1472.164 1473.849 1479.623 
1522.039 1520.367 1519.309 1518.821 1519.746 1520.946 1522.482 1524.275 1528.865 1531.648 1534.52 1537.323 1540.07 1545.34 1547.588 1549.359 1550.767 1552.035 1554.601 1555.945 1557.291 1558.682 1561.397 1562.936 1564.95 1567.573 1570.373 1576.769 1581.066 1585.223 1589.576 1594.496 1599.925 1599.586 1598.934 1598.397 1597.781 1595.881 1594.983 1594.08 1593.133 1591.337 1590.381 1589.39 1588.428 1587.485 1583.537 1579.835 1576.007 1571.919 1567.167 1557.523 1552.73 1547.638 1542.358 1533.811 1530.241 1527.031 1524.433 1521.94 1515.888 1513.102 1510.324 1507.303 1504.096 1498.295 1495.812 1493.263 1490.903 1488.726 1482.721 1479.628 1476.688 1472.929 1471.435 1471.426 1470.957 1470.434 1470.101 1469.567 1469.456 1469.471 1469.708 1469.599 1469.789 1470.539 1472.12 1474.443 1481.114 
1520.03 1517.808 1516.434 1515.931 1518.85 1521.157 1523.212 1525.341 1530.505 1533.336 1536.185 1539.073 1542.088 1547.789 1549.871 1551.367 1552.635 1553.972 1556.726 1558.129 1559.666 1561.178 1562.479 1565.593 1567.838 1570.316 1572.816 1579.875 1584.184 1587.846 1591.807 1596.244 1599.412 1598.818 1598.207 1597.499 1596.648 1594.944 1594.044 1593.086 1592.119 1590.209 1589.225 1588.302 1587.443 1586.454 1582.137 1578.547 1574.776 1570.723 1566.066 1556.615 1551.725 1546.189 1540.578 1532.532 1528.877 1525.475 1522.85 1520.384 1514.23 1511.242 1508.292 1505.147 1501.973 1496.556 1493.895 1491.333 1488.941 1486.471 1480.701 1477.877 1475.275 1472.929 1471.435 1471.426 1470.957 1470.434 1469.885 1469.216 1469.078 1469.15 1469.458 1469.237 1469.494 1470.479 1472.517 1475.517 1482.949 
1517.549 1514.716 1513.298 1513.258 1518.761 1521.857 1524.266 1526.59 1532.109 1534.927 1537.862 1541.002 1544.286 1549.894 1551.54 1552.912 1554.334 1555.828 1558.781 1560.249 1561.759 1563.26 1564.713 1568.21 1570.398 1572.901 1575.951 1583.603 1586.972 1589.973 1593.258 1596.594 1598.646 1598.037 1597.267 1596.414 1595.598 1593.882 1592.983 1592.036 1591.042 1589.067 1588.159 1587.265 1586.338 1585.148 1580.554 1577.461 1574.014 1570.063 1565.668 1556.385 1551.7 1545.76 1539.531 1534.999 1528.027 1524.742 1522.13 1519.461 1513.01 1510.165 1506.867 1503.15 1499.964 1495.067 1491.864 1489.099 1486.53 1483.547 1477.994 1475.975 1473.977 1472.112 1471.466 1471.338 1470.841 1470.292 1469.885 1469.216 1469.078 1469.15 1469.458 1469.237 1469.697 1471.01 1473.615 1477.327 1485.326 
1515.495 1512.395 1511.645 1513.236 1519.565 1522.591 1525.252 1527.821 1533.542 1536.514 1539.612 1542.973 1546.397 1551.326 1552.84 1554.29 1555.872 1557.53 1560.729 1562.224 1563.625 1564.986 1566.481 1570.293 1572.38 1575.323 1579.186 1586.736 1589.128 1591.557 1594.265 1596.6 1597.63 1596.908 1596.112 1595.307 1594.5 1592.759 1591.861 1590.912 1589.918 1587.95 1587.029 1586.071 1584.91 1583.501 1579.219 1576.801 1573.916 1570.024 1565.457 1556.376 1551.727 1545.998 1539.976 1535.225 1527.92 1524.651 1521.913 1519.234 1513.401 1510.39 1506.595 1502.609 1499.439 1494.084 1490.505 1487.249 1484.274 1480.97 1475.192 1474.153 1473.193 1472.232 1471.454 1470.941 1470.45 1470.042 1469.688 1468.98 1468.813 1468.877 1469.215 1469.093 1469.697 1471.01 1473.615 1477.327 1481.363 
1514.335 1511.781 1511.833 1514.178 1520.209 1523.341 1526.171 1528.874 1534.695 1537.862 1541.219 1544.828 1548.172 1552.363 1553.89 1555.607 1557.37 1559.021 1562.308 1563.757 1565.146 1566.561 1568.149 1571.962 1574.451 1577.942 1582.203 1588.632 1590.579 1592.442 1594.272 1595.825 1596.358 1595.736 1595.028 1594.286 1593.51 1591.737 1590.82 1589.872 1588.895 1586.927 1585.912 1584.799 1583.577 1582.162 1578.284 1576.315 1573.685 1569.827 1565.237 1556.475 1552.196 1546.793 1540.822 1535.826 1528.176 1524.892 1522.098 1519.464 1514.354 1511.095 1507.1 1503.042 1499.734 1494.122 1490.768 1487.66 1483.995 1479.301 1472.426 1471.718 1471.727 1471.69 1471.029 1470.51 1470.101 1469.716 1469.318 1468.57 1468.487 1468.614 1468.996 1469.052 1470.533 1472.517 1475.683 1479.81 1484.099 
1513.407 1511.489 1511.906 1514.365 1520.844 1524.073 1526.948 1529.718 1535.695 1538.995 1542.633 1546.427 1549.56 1553.265 1555 1556.844 1558.63 1560.329 1563.473 1564.926 1566.379 1567.843 1569.449 1573.278 1576.457 1580.451 1584.393 1589.748 1591.447 1592.485 1593.674 1594.92 1594.973 1594.517 1593.882 1593.111 1592.299 1590.685 1589.718 1588.788 1587.868 1585.867 1584.738 1583.61 1582.405 1581.019 1577.632 1575.786 1573.166 1569.385 1565 1556.407 1552.072 1546.978 1541.395 1536.417 1528.684 1525.339 1522.53 1519.988 1514.83 1511.859 1508.028 1504.105 1500.821 1495.026 1492.041 1489.051 1485.243 1480.459 1472.195 1470.904 1471.297 1471.561 1470.7 1470.203 1469.73 1469.327 1468.938 1468.248 1468.193 1468.365 1468.788 1469.147 1471.757 1474.52 1478.16 1482.337 1486.519 
1512.366 1511.073 1511.862 1514.41 1521.27 1524.55 1527.469 1530.327 1533.388 1540.006 1543.801 1547.502 1550.395 1554.142 1556.071 1557.977 1559.82 1561.53 1564.45 1565.874 1567.366 1568.901 1570.464 1574.665 1578.287 1582.504 1586.123 1590.131 1591.503 1592.455 1592.95 1593.225 1593.37 1593.091 1592.614 1591.956 1591.21 1589.568 1588.663 1587.769 1586.838 1584.782 1583.739 1582.686 1581.515 1580.122 1576.964 1575.333 1572.63 1568.705 1564.391 1556.108 1551.952 1547.091 1541.547 1536.48 1529.129 1525.759 1522.851 1520.28 1515.284 1512.366 1508.829 1505.232 1502.016 1495.953 1493.102 1490.317 1486.79 1482.503 1475.77 1472.86 1470.861 1470.382 1470.426 1469.897 1469.361 1468.898 1468.48 1467.861 1467.914 1468.18 1468.698 1469.441 1473.031 1476.37 1480.345 1484.539 1488.622 
1511.554 1510.813 1511.878 1514.455 1521.37 1524.706 1527.788 1530.782 1533.879 1540.718 1544.571 1548.12 1550.847 1554.799 1556.89 1558.967 1560.913 1562.566 1565.243 1566.647 1568.166 1569.756 1571.315 1576.196 1580.165 1584.244 1587.392 1590.561 1591.239 1591.793 1592.038 1592.034 1592.029 1591.726 1591.306 1590.774 1590.162 1588.547 1587.63 1586.73 1585.805 1584.843 1582.922 1581.822 1580.617 1579.276 1576.369 1574.932 1572.135 1568.004 1563.544 1555.653 1551.855 1547.109 1541.586 1536.565 1529.386 1526.025 1523.118 1520.598 1515.584 1512.785 1509.588 1506.257 1503.068 1496.903 1493.956 1490.886 1487.597 1484.194 1477.896 1474.825 1471.931 1470.449 1470.354 1469.344 1468.967 1468.465 1468.018 1467.481 1467.681 1468.064 1468.66 1469.75 1474.352 1477.952 1482.192 1486.614 1490.774 
1511.293 1510.725 1511.864 1514.437 1521.384 1524.735 1527.912 1531.015 1534.165 1541.13 1544.997 1548.456 1551.12 1555.357 1557.589 1559.746 1561.657 1563.221 1565.848 1567.302 1568.839 1570.451 1572.119 1577.836 1582.115 1585.756 1588.161 1590.557 1591.011 1591.081 1591.154 1591.306 1591.011 1590.582 1590.196 1589.742 1589.096 1587.533 1586.665 1585.769 1584.859 1583.963 1582.1 1581.021 1579.801 1578.525 1575.995 1574.717 1571.685 1567.312 1563.001 1555.332 1551.691 1547.058 1541.568 1536.629 1529.631 1526.249 1523.357 1520.891 1515.974 1513.363 1510.253 1506.979 1503.778 1497.828 1494.899 1491.906 1488.888 1485.73 1479.553 1476.671 1473.718 1471.135 1469.656 1468.946 1468.407 1467.942 1467.505 1467.064 1467.336 1467.813 1468.594 1470.142 1475.623 1479.528 1484.139 1488.863 1492.775 
1511.514 1510.658 1511.6 1514.202 1521.268 1524.775 1528 1531.07 1534.212 1541.374 1545.282 1548.694 1551.375 1555.825 1558.097 1560.305 1562.166 1563.625 1566.417 1567.886 1569.409 1571.003 1572.857 1579.542 1583.957 1587.192 1588.933 1590.193 1590.41 1590.49 1590.46 1590.389 1589.916 1589.583 1589.1 1588.625 1588.128 1586.615 1585.809 1584.933 1584.063 1583.181 1581.255 1580.233 1579.177 1578.087 1575.631 1574.164 1570.938 1566.478 1562.257 1554.958 1551.384 1546.872 1541.505 1536.639 1529.789 1526.51 1523.648 1521.155 1516.341 1513.919 1510.903 1507.616 1504.533 1498.635 1495.754 1492.972 1490.207 1487.239 1481.097 1478.181 1475.15 1472.348 1470.354 1468.584 1467.781 1467.195 1466.834 1466.508 1466.872 1467.464 1468.425 1470.389 1476.611 1480.898 1485.759 1490.544 1494.171 
1511.603 1510.676 1511.25 1513.466 1520.99 1524.759 1528.015 1531.053 1534.23 1541.467 1545.463 1548.892 1551.561 1556.132 1558.451 1560.718 1562.511 1563.899 1566.837 1568.343 1569.889 1571.426 1573.439 1580.995 1585.18 1587.922 1589.278 1589.998 1589.79 1589.844 1589.779 1589.463 1588.939 1588.482 1587.954 1587.533 1587.116 1585.803 1584.972 1584.111 1583.289 1582.42 1580.541 1579.599 1578.608 1577.526 1575.094 1573.11 1569.728 1565.533 1561.517 1554.458 1550.993 1546.552 1541.367 1536.748 1529.97 1526.743 1523.887 1521.379 1516.571 1514.11 1511.237 1508.15 1505.112 1499.362 1496.676 1493.975 1491.316 1488.574 1482.374 1479.448 1476.493 1473.738 1471.397 1468.185 1467.203 1466.449 1466.081 1465.887 1466.211 1466.816 1467.845 1470.158 1477.332 1481.796 1486.486 1490.878 1494.084 
1511.603 1510.791 1510.962 1512.451 1520.243 1524.327 1527.754 1530.906 1534.234 1541.42 1545.287 1548.745 1551.533 1556.338 1558.714 1560.932 1562.727 1564.177 1567.084 1568.625 1570.22 1571.777 1573.959 1582.416 1586.168 1588.279 1589.192 1589.605 1589.404 1589.219 1588.963 1588.557 1587.961 1587.46 1586.981 1586.625 1586.199 1584.93 1584.174 1583.387 1582.562 1581.698 1579.961 1579.032 1578.02 1576.893 1574.546 1572.074 1568.399 1564.297 1560.507 1553.834 1550.434 1546.091 1541.151 1536.773 1530.132 1526.952 1524.134 1521.637 1516.646 1514.161 1511.441 1508.552 1505.675 1500.116 1497.418 1494.712 1492.078 1489.45 1483.486 1480.438 1477.611 1475.028 1472.537 1468.247 1466.785 1465.701 1465.137 1465.052 1465.408 1466.06 1467.15 1469.703 1477.551 1482.112 1486.509 1490.299 1492.938 
1511.253 1510.522 1510.49 1511.542 1519.204 1523.683 1527.313 1530.579 1534.09 1541.243 1544.938 1548.41 1551.311 1556.317 1558.845 1561.117 1562.925 1564.358 1567.288 1568.834 1570.486 1572.063 1574.354 1583.582 1587.112 1588.715 1589.032 1589.011 1588.87 1588.424 1587.954 1587.593 1586.935 1586.539 1586.128 1585.756 1585.331 1584.042 1583.359 1582.643 1581.875 1581.045 1579.274 1578.297 1577.288 1576.249 1573.745 1570.668 1566.791 1562.938 1559.431 1552.99 1549.503 1545.31 1540.716 1536.583 1530.215 1527.188 1524.363 1521.772 1519.269 1514.243 1511.572 1508.764 1505.976 1500.475 1497.913 1495.332 1492.761 1490.342 1484.701 1481.488 1478.434 1475.567 1472.965 1468.605 1466.756 1465.368 1464.502 1464.083 1464.505 1465.217 1466.324 1469.076 1477.42 1481.988 1485.969 1488.958 1490.872 
1510.808 1510.03 1509.893 1510.795 1517.956 1522.529 1526.385 1529.863 1533.462 1540.759 1544.384 1547.85 1550.852 1556.147 1558.812 1561.191 1563.02 1564.406 1567.361 1569.01 1570.734 1572.292 1574.677 1583.955 1587.283 1588.667 1588.76 1588.6 1588.156 1587.594 1587.055 1586.747 1586.094 1585.704 1585.313 1584.908 1584.477 1583.232 1582.573 1581.881 1581.103 1580.264 1578.536 1577.621 1576.618 1575.614 1572.425 1569.047 1565.108 1561.451 1558.259 1552.062 1548.544 1544.527 1540.245 1536.31 1530.13 1527.217 1524.435 1521.792 1519.25 1514.323 1511.698 1508.947 1506.215 1500.882 1498.34 1495.822 1493.378 1491.129 1485.756 1482.424 1479.117 1476.248 1473.833 1469.217 1467.152 1465.378 1464.147 1463.314 1463.664 1464.382 1465.516 1468.503 1477.06 1481.545 1485.169 1487.644 1489.144 
1510.186 1509.419 1509.33 1510.203 1516.797 1521.173 1525.185 1528.982 1532.734 1540.07 1543.684 1547.124 1550.237 1555.879 1558.568 1561.013 1562.869 1564.313 1567.436 1569.196 1570.942 1572.67 1575.261 1583.971 1587.032 1588.264 1588.301 1588.052 1587.439 1586.936 1586.491 1586.125 1585.315 1584.938 1584.554 1584.12 1583.661 1582.466 1581.759 1581.044 1580.265 1579.448 1577.815 1576.924 1575.964 1575.1 1570.825 1567.19 1563.411 1560.074 1557.158 1551.151 1547.76 1543.813 1539.725 1536.065 1529.919 1527.033 1524.299 1521.707 1519.202 1514.36 1511.746 1508.983 1506.249 1500.829 1498.455 1496.154 1493.843 1491.624 1486.606 1483.262 1479.932 1476.957 1474.331 1469.708 1467.58 1465.669 1464.084 1462.707 1462.987 1463.668 1464.839 1467.939 1476.602 1480.848 1483.952 1486.033 1487.43 
1509.202 1508.495 1508.724 1509.913 1516.141 1520.184 1524.071 1528.013 1532.027 1539.424 1543.029 1546.525 1549.713 1555.566 1558.32 1560.835 1562.766 1564.255 1567.543 1569.29 1571.038 1572.948 1575.665 1583.571 1586.622 1587.764 1587.675 1587.494 1586.812 1586.466 1586.032 1585.51 1584.604 1584.222 1583.84 1583.385 1582.888 1581.739 1581.008 1580.231 1579.444 1578.669 1577.136 1576.263 1575.367 1574.341 1568.96 1565.132 1561.694 1558.758 1556.015 1550.301 1546.853 1543.044 1539.243 1535.745 1529.561 1526.622 1523.947 1521.474 1519.047 1514.292 1511.716 1508.973 1506.214 1500.809 1498.503 1496.323 1494.105 1491.929 1487.219 1483.972 1480.539 1477.459 1474.822 1470.06 1467.864 1465.802 1464.02 1462.278 1462.486 1463.154 1464.363 1467.544 1475.974 1479.933 1482.52 1484.022 1485.112 
1508.719 1507.94 1508.126 1509.791 1515.909 1519.836 1523.716 1527.643 1531.627 1539.07 1542.675 1545.987 1549.055 1552.168 1558.181 1560.784 1562.774 1564.261 1567.575 1569.301 1571.053 1572.98 1575.635 1582.987 1585.896 1587.066 1587.003 1586.809 1586.306 1585.92 1585.405 1584.89 1583.992 1583.574 1583.127 1582.682 1582.222 1581.068 1580.352 1579.538 1578.754 1577.995 1576.339 1575.502 1574.807 1573.295 1570.203 1562.953 1560.02 1557.452 1554.835 1549.458 1546.008 1542.376 1538.846 1535.428 1528.985 1525.964 1523.38 1521.105 1518.786 1514.103 1511.578 1508.889 1506.154 1500.782 1498.53 1496.428 1494.27 1492.095 1487.591 1484.47 1481.062 1477.9 1475.143 1470.317 1467.985 1465.789 1463.867 1461.878 1462.067 1462.715 1463.964 1467.142 1475.054 1478.547 1480.724 1481.863 1482.823 
1506.645 1506.226 1507.226 1509.39 1515.801 1519.907 1524.071 1528.017 1531.716 1538.934 1542.46 1545.79 1548.903 1552.004 1558.154 1560.798 1562.79 1564.28 1567.6 1569.389 1571.181 1573.081 1575.513 1581.878 1584.229 1585.543 1585.921 1585.845 1585.614 1585.178 1584.748 1584.374 1583.449 1583.032 1582.568 1582.089 1581.597 1580.446 1579.791 1578.999 1578.176 1577.359 1575.587 1574.899 1573.675 1571.198 1567.622 1560.964 1558.476 1556.11 1553.745 1548.604 1545.121 1541.553 1538.163 1534.838 1528.299 1525.345 1522.858 1520.657 1518.439 1513.941 1511.417 1508.713 1506.014 1500.829 1498.537 1496.403 1494.302 1492.18 1487.837 1484.816 1481.558 1478.486 1475.635 1470.493 1468.02 1465.745 1463.722 1462.143 1461.706 1462.319 1463.526 1466.446 1473.642 1476.795 1478.835 1480.067 1481.342 
1503.897 1504.143 1506.1 1508.706 1515.821 1520.109 1524.371 1528.321 1532.067 1539.217 1542.633 1545.838 1548.897 1552.057 1558.162 1560.823 1562.766 1564.213 1567.472 1569.28 1571.079 1572.738 1574.708 1579.68 1581.721 1583.255 1584.184 1584.582 1584.587 1584.456 1584.179 1583.803 1582.946 1582.476 1581.982 1581.488 1580.968 1579.818 1579.17 1578.482 1577.723 1576.87 1574.911 1573.74 1571.536 1568.131 1564.434 1559.088 1556.965 1554.783 1552.603 1547.498 1544.026 1540.537 1537.205 1533.929 1527.544 1524.708 1522.308 1520.135 1517.981 1513.668 1511.156 1508.448 1505.751 1500.714 1498.483 1496.31 1494.185 1492.112 1487.844 1484.922 1481.814 1478.849 1475.963 1470.487 1468.011 1465.709 1463.613 1461.975 1461.31 1461.776 1462.832 1465.37 1471.915 1474.914 1477.116 1478.858 1480.657 
1501.789 1501.421 1503.77 1507.816 1515.632 1520.017 1524.381 1528.47 1532.464 1539.762 1543.002 1546.329 1549.515 1552.41 1558.187 1560.847 1562.737 1564.088 1567.204 1568.947 1570.693 1572.197 1573.616 1577.528 1579.212 1580.464 1581.529 1582.488 1583.316 1583.437 1583.379 1583.073 1582.273 1581.841 1581.411 1580.949 1580.452 1579.274 1578.725 1578.084 1577.335 1576.535 1574.529 1572.296 1568.916 1564.969 1561.486 1557.351 1555.376 1553.385 1551.345 1546.081 1542.84 1539.604 1536.355 1533.07 1526.753 1524.076 1521.749 1519.576 1517.468 1513.243 1510.692 1507.967 1505.35 1500.378 1498.222 1496.131 1494.029 1491.938 1487.594 1484.762 1481.767 1478.798 1475.85 1470.303 1467.836 1465.538 1463.435 1461.803 1460.944 1461.301 1462.167 1464.317 1470.246 1473.292 1475.803 1477.996 1480.157 
1500.073 1499.586 1502.311 1507.081 1515.123 1519.766 1524.343 1528.56 1532.687 1540.08 1543.266 1546.564 1549.762 1552.667 1558.227 1560.79 1562.696 1564.046 1566.911 1568.509 1570.081 1571.54 1572.743 1575.269 1576.771 1577.968 1579.079 1580.285 1581.907 1582.082 1582.153 1582.173 1581.614 1581.194 1580.796 1580.354 1579.857 1578.834 1578.289 1577.638 1576.96 1576.241 1574.339 1571.166 1566.697 1562.65 1559.813 1555.845 1553.823 1551.795 1549.697 1544.542 1541.525 1538.571 1535.416 1532.067 1525.941 1523.445 1521.193 1518.976 1516.834 1512.671 1510.105 1507.407 1504.833 1500.062 1497.913 1495.792 1493.678 1491.609 1487.149 1484.343 1481.477 1478.687 1475.806 1470.011 1467.429 1465.046 1462.94 1461.34 1460.638 1461.021 1461.842 1463.84 1469.13 1472.213 1474.971 1477.235 1479.307 
1499.246 1500.559 1503.589 1507.203 1514.867 1519.501 1524.075 1528.355 1532.552 1540.018 1543.293 1546.61 1549.795 1552.709 1558.247 1560.8 1562.659 1563.964 1566.626 1568.122 1569.544 1570.836 1571.917 1573.644 1574.614 1575.766 1577.027 1578.335 1580.335 1580.793 1581.103 1581.303 1581.343 1580.81 1580.329 1579.783 1579.308 1578.255 1577.738 1577.239 1576.592 1575.807 1573.457 1569.683 1564.843 1561.08 1558.824 1554.548 1552.454 1550.236 1547.909 1542.884 1540.113 1537.199 1534.043 1530.809 1525.011 1522.699 1520.511 1518.268 1516.089 1511.737 1509.31 1506.759 1504.145 1499.53 1497.514 1495.428 1493.307 1491.237 1486.549 1483.745 1480.896 1478.101 1475.247 1469.484 1466.844 1464.356 1462.209 1460.713 1460.314 1460.739 1461.591 1463.5 1468.092 1470.958 1473.561 1475.827 1478.001 
1499.618 1501.865 1504.867 1508.004 1515.268 1519.47 1523.657 1527.918 1532.272 1539.833 1543.193 1546.595 1549.824 1552.738 1558.27 1560.825 1562.618 1563.865 1566.429 1567.767 1569.077 1570.23 1571.155 1572.642 1573.453 1574.433 1575.494 1576.731 1579.334 1579.929 1580.288 1580.582 1580.744 1580.249 1579.899 1579.42 1578.836 1577.788 1577.244 1576.763 1576.167 1575.417 1571.846 1567.604 1563.15 1559.929 1557.821 1553.457 1551.288 1548.94 1546.495 1541.275 1538.635 1535.78 1532.617 1529.262 1523.862 1521.908 1519.783 1517.53 1515.266 1510.734 1508.489 1506.021 1503.292 1500.724 1497.046 1495.025 1492.928 1490.847 1485.913 1482.981 1480.001 1477.068 1474.236 1468.717 1466.026 1463.55 1461.527 1460.176 1459.962 1460.362 1461.117 1462.662 1466.373 1468.643 1471.019 1473.645 1476.324 
1500.302 1502.839 1505.81 1508.772 1515.799 1519.846 1523.754 1527.864 1532.086 1539.415 1542.944 1546.503 1549.744 1552.585 1558.187 1560.807 1562.648 1563.816 1566.227 1567.414 1568.603 1569.66 1570.504 1571.987 1572.748 1573.432 1574.275 1575.465 1578.24 1579.053 1579.562 1579.963 1580.132 1579.773 1579.483 1579.072 1578.526 1577.298 1576.666 1576.038 1575.435 1574.747 1569.882 1565.489 1561.714 1558.991 1556.787 1552.5 1550.386 1548.014 1545.422 1539.993 1537.158 1534.359 1531.321 1527.971 1522.954 1521.193 1519.139 1516.964 1514.81 1510.253 1507.952 1505.494 1502.853 1500.384 1496.74 1494.687 1492.519 1490.416 1485.275 1482.142 1478.876 1475.918 1473.374 1468.013 1465.313 1462.924 1461.061 1459.88 1459.59 1459.801 1460.319 1461.285 1463.894 1465.678 1467.963 1470.784 1473.944 
1500.302 1503.903 1506.707 1509.587 1516.533 1520.733 1524.738 1528.592 1532.266 1539.187 1542.859 1546.098 1549.088 1552.263 1558.21 1560.748 1562.548 1563.725 1566.028 1567.121 1568.203 1569.266 1570.146 1571.54 1572.212 1572.969 1573.743 1574.625 1577.354 1578.334 1578.932 1579.353 1579.625 1579.47 1579.039 1578.534 1578.046 1576.968 1576.199 1575.496 1574.923 1573.751 1567.354 1563.412 1560.361 1558.051 1555.842 1551.554 1549.329 1547.023 1544.566 1539.047 1536.282 1533.482 1530.479 1527.374 1522.547 1520.694 1518.733 1516.716 1514.683 1510.126 1507.692 1505.234 1502.723 1500.355 1496.612 1494.469 1492.206 1489.961 1484.712 1481.46 1478.113 1475.265 1472.891 1467.634 1465.02 1462.723 1460.916 1459.745 1459.234 1459.208 1459.444 1459.78 1461.331 1462.935 1465.481 1468.64 1472.246 
1501.367 1503.903 1506.707 1509.587 1516.533 1520.733 1525.696 1529.322 1532.996 1539.801 1543.001 1546.07 1549.036 1552.169 1558.389 1560.906 1562.591 1563.716 1566.021 1567.033 1568.089 1569.103 1569.944 1571.405 1572.134 1572.933 1573.706 1574.529 1576.845 1577.773 1578.447 1578.922 1579.202 1579.046 1578.732 1578.314 1577.756 1576.405 1575.538 1574.844 1573.685 1571.431 1564.476 1561.331 1559.032 1556.994 1554.851 1550.777 1548.472 1546.137 1543.735 1538.588 1535.843 1532.928 1529.955 1527.079 1522.407 1520.448 1518.474 1516.533 1514.599 1510.024 1507.609 1505.209 1502.891 1500.744 1496.535 1494.361 1492.118 1489.833 1484.445 1481.304 1478.077 1475.285 1472.921 1467.761 1465.177 1462.896 1461.091 1459.835 1458.973 1458.73 1458.694 1458.51 1459.513 1460.979 1463.727 1467.433 1471.522 
1502.301 1504.864 1507.609 1510.417 1517.573 1521.813 1525.696 1529.322 1532.996 1539.801 1543.001 1546.437 1549.595 1552.656 1558.793 1561.274 1562.854 1563.894 1564.967 1567.034 1568.021 1569.025 1569.961 1571.589 1572.405 1573.241 1573.984 1574.673 1576.537 1577.433 1578.124 1578.604 1578.877 1578.891 1578.415 1577.971 1577.549 1575.807 1574.816 1573.382 1571.355 1568.718 1562.169 1559.707 1557.71 1555.767 1553.835 1550.038 1547.693 1545.279 1542.969 1540.628 1535.541 1532.58 1529.65 1526.851 1522.292 1520.333 1518.345 1516.401 1514.504 1510.005 1507.469 1505.131 1502.918 1500.721 1496.496 1494.335 1492.131 1489.911 1484.658 1481.616 1478.689 1476.023 1473.483 1468.3 1465.778 1463.46 1461.539 1460.107 1458.824 1458.44 1458.256 1457.833 1458.474 1459.907 1462.454 1466.271 1470.709 
1503.111 1505.637 1508.371 1511.315 1518.73 1522.989 1526.687 1530.08 1533.583 1540.23 1543.269 1546.437 1549.595 1552.656 1558.793 1561.274 1562.854 1564 1565.076 1567.142 1568.126 1569.13 1570.063 1571.787 1572.698 1573.572 1574.261 1574.883 1576.559 1577.27 1577.904 1578.354 1578.578 1578.595 1578.444 1577.954 1577.197 1575.406 1574.198 1571.772 1568.755 1565.773 1560.385 1558.349 1556.362 1554.478 1552.756 1549.075 1546.823 1544.407 1542.102 1539.938 1534.952 1532.053 1529.236 1526.604 1522.108 1520.138 1518.147 1516.234 1514.394 1509.926 1507.367 1504.994 1502.732 1500.514 1496.407 1494.286 1492.194 1490.172 1485.139 1482.202 1479.52 1476.933 1474.231 1468.936 1466.492 1464.249 1462.259 1460.616 1458.856 1458.307 1458.068 1457.566 1457.413 1459.321 1461.502 1464.9 1469.291 
1503.492 1506.172 1509.027 1512.095 1519.578 1523.833 1527.35 1530.515 1533.852 1540.345 1543.396 1546.497 1549.633 1552.815 1559.22 1561.577 1563.006 1564 1565.076 1567.142 1568.126 1569.13 1570.192 1572.092 1573.024 1573.824 1574.51 1575.183 1576.68 1577.3 1577.841 1578.245 1578.453 1578.374 1578.143 1577.962 1577.367 1574.718 1572.713 1569.525 1565.921 1562.896 1558.682 1556.867 1554.976 1553.185 1551.529 1547.756 1545.637 1543.389 1541.214 1539.13 1534.133 1531.344 1528.706 1526.269 1521.917 1519.872 1517.898 1516.078 1514.347 1509.705 1507.023 1504.63 1502.358 1500.149 1496.195 1494.155 1492.161 1490.256 1485.467 1482.614 1480.036 1477.466 1474.769 1469.603 1467.226 1464.989 1462.939 1461.225 1458.979 1458.243 1457.914 1457.348 1457.202 1458.694 1460.538 1462.877 1466.558 
1503.731 1506.356 1509.207 1512.34 1519.969 1524.222 1527.618 1530.645 1533.976 1540.37 1543.394 1546.505 1549.685 1552.93 1559.507 1561.765 1563.099 1564.113 1565.169 1567.141 1568.197 1569.241 1570.192 1572.092 1573.024 1573.824 1574.51 1575.4 1576.805 1577.336 1577.792 1578.105 1578.239 1578.341 1578.016 1577.677 1577.186 1574.167 1570.711 1566.416 1562.766 1560.443 1557.105 1555.309 1553.484 1551.711 1550.012 1546.299 1544.312 1542.268 1540.201 1538.113 1533.176 1530.613 1528.113 1525.704 1521.439 1519.306 1517.366 1515.628 1513.856 1509.21 1506.559 1504.027 1501.71 1499.658 1495.873 1493.916 1492.009 1490.154 1485.559 1482.942 1480.419 1477.965 1475.401 1470.115 1467.746 1465.534 1463.537 1461.747 1459.078 1458.254 1457.865 1457.258 1456.986 1457.993 1459.504 1461.357 1464.509 
1503.666 1506.346 1509.186 1512.271 1515.762 1523.807 1527.149 1530.262 1533.557 1539.904 1543.121 1546.373 1549.6 1552.867 1559.334 1561.612 1563.062 1564.086 1565.087 1567.149 1568.264 1569.396 1570.435 1572.412 1573.345 1574.081 1574.715 1575.4 1576.805 1577.336 1577.792 1578.105 1578.102 1578.011 1578.085 1577.602 1576.595 1572.409 1568.003 1563.367 1560.451 1559.001 1555.633 1553.839 1552.028 1550.214 1548.435 1544.908 1542.959 1541.026 1539.088 1536.96 1532.01 1529.621 1527.248 1524.947 1520.836 1518.681 1516.748 1515.047 1513.195 1508.314 1505.74 1503.266 1501.011 1499.056 1495.448 1493.643 1491.862 1490.07 1485.644 1483.076 1480.539 1478.083 1475.597 1470.417 1468.109 1465.931 1463.938 1462.135 1459.156 1458.227 1457.784 1457.091 1456.682 1456.959 1458.135 1460.056 1462.279 
1503.327 1506.023 1508.767 1511.651 1514.967 1522.904 1526.334 1529.41 1532.603 1539.126 1542.411 1546.009 1549.516 1552.677 1558.985 1561.444 1562.96 1564.007 1565.084 1567.231 1568.447 1569.563 1570.561 1572.717 1573.662 1574.391 1575.032 1575.695 1576.926 1577.372 1577.736 1578.008 1578.102 1578.011 1578.085 1577.602 1576.595 1575.156 1565.292 1561.591 1559.375 1557.846 1554.477 1552.611 1550.703 1548.848 1547.045 1543.451 1541.578 1539.683 1537.787 1535.73 1530.837 1528.542 1526.262 1524.016 1520.016 1517.948 1515.991 1514.158 1512.186 1507.281 1504.771 1502.38 1500.26 1498.442 1494.84 1493.106 1491.47 1489.875 1488.022 1482.872 1480.431 1478.083 1475.678 1470.606 1468.309 1466.196 1464.199 1462.332 1459.157 1458.094 1457.565 1456.842 1456.409 1456.247 1457.021 1458.575 1460.38 
1502.837 1505.535 1508.185 1510.792 1513.782 1521.4 1524.828 1528.076 1531.384 1537.747 1541.249 1545.072 1548.63 1551.84 1558.359 1561.036 1562.669 1563.729 1564.891 1567.223 1568.447 1569.658 1570.783 1572.924 1573.872 1574.532 1575.177 1575.884 1577.027 1577.479 1577.848 1578.062 1578.148 1577.817 1577.541 1577.05 1575.93 1573.742 1565.292 1561.591 1559.375 1557.846 1554.477 1551.535 1549.593 1547.727 1545.99 1541.946 1540 1538.147 1536.163 1533.996 1529.543 1527.375 1525.221 1523.101 1518.994 1517.069 1515.198 1513.21 1511.007 1506.13 1503.787 1501.519 1499.441 1497.625 1494.1 1492.465 1490.89 1489.271 1487.418 1482.533 1480.215 1478.001 1475.646 1470.699 1468.34 1466.256 1464.342 1462.41 1458.973 1457.83 1457.308 1456.573 1456.151 1455.868 1456.245 1457.235 1458.718 
1502.571 1505.164 1507.677 1510.004 1512.58 1520.118 1523.341 1526.663 1530.336 1536.309 1539.975 1543.917 1547.413 1550.648 1557.595 1560.586 1562.418 1563.532 1564.714 1567.304 1568.581 1569.778 1570.895 1573.026 1573.965 1574.699 1575.355 1575.993 1577.046 1577.559 1577.848 1577.954 1578.048 1577.893 1577.287 1576.25 1574.529 1571.658 1563.037 1560.296 1558.586 1556.88 1553.337 1551.535 1549.593 1547.727 1545.99 1541.946 1538.456 1536.454 1534.494 1532.327 1527.792 1525.799 1523.883 1521.894 1517.944 1516.036 1514.246 1512.218 1509.808 1504.783 1502.439 1500.34 1498.462 1496.698 1493.18 1491.554 1490.01 1488.31 1486.35 1481.949 1479.872 1477.868 1475.633 1470.536 1468.223 1466.137 1464.123 1462.15 1458.639 1457.48 1456.882 1456.208 1455.809 1455.653 1456.029 1456.55 1457.375 
1502.484 1505.04 1507.596 1509.97 1512.502 1519.843 1523.241 1526.549 1530.077 1536.192 1539.587 1543.301 1546.614 1549.711 1556.907 1559.875 1561.896 1563.322 1564.674 1567.418 1568.754 1570 1571.077 1573.151 1574.006 1574.752 1575.51 1576.183 1577.155 1577.591 1577.816 1578.076 1578.267 1577.579 1576.9 1575.635 1573.143 1569.302 1561.711 1559.528 1557.821 1556.062 1552.697 1550.982 1549.089 1547.098 1545.08 1540.704 1538.456 1536.454 1534.494 1532.327 1527.792 1524.076 1522.359 1520.584 1516.702 1514.797 1512.945 1510.871 1508.43 1503.326 1501.112 1499.204 1497.44 1495.617 1492.021 1490.449 1488.734 1486.885 1485.03 1481.207 1479.378 1477.629 1475.499 1470.131 1467.761 1465.637 1463.67 1461.733 1458.21 1457.008 1456.373 1455.722 1455.356 1455.389 1455.59 1456.145 1456.981 
1502.595 1505.204 1507.87 1510.484 1513.248 1520.53 1524.196 1527.538 1530.749 1537.145 1540.261 1543.51 1546.526 1549.487 1556.601 1559.475 1561.6 1563.253 1564.704 1567.524 1568.87 1570.1 1571.222 1572.33 1574.259 1574.909 1575.615 1576.284 1577.254 1577.615 1577.783 1577.871 1578.061 1577.306 1575.966 1574.159 1571.269 1567.13 1560.408 1558.679 1557.09 1555.413 1552.058 1550.44 1548.515 1546.429 1544.324 1539.872 1537.494 1535.302 1533.216 1530.898 1526.001 1524.076 1522.359 1520.584 1516.702 1514.797 1512.945 1509.574 1507.14 1501.581 1499.757 1498.207 1496.479 1494.525 1490.686 1489.104 1487.387 1485.481 1483.591 1480.226 1478.564 1476.681 1474.495 1469.445 1467.129 1464.974 1462.897 1460.968 1457.693 1456.512 1455.873 1455.197 1454.748 1454.742 1455.202 1455.823 1456.535 
1502.772 1505.531 1508.351 1511.13 1514.066 1521.413 1524.965 1528.256 1531.563 1538.246 1541.214 1544.34 1547.544 1550.607 1556.785 1559.622 1561.776 1563.399 1564.837 1567.719 1569.022 1570.258 1571.477 1572.626 1574.452 1575.115 1575.781 1576.387 1577.262 1577.514 1577.847 1577.973 1577.812 1576.635 1574.931 1572.279 1568.751 1564.845 1559.559 1557.99 1556.343 1554.702 1551.527 1549.917 1547.986 1545.901 1543.8 1539.265 1537.035 1534.717 1532.242 1529.609 1524.628 1522.938 1521.352 1519.493 1517.389 1513.328 1511.54 1509.574 1507.14 1501.581 1499.757 1498.207 1495.753 1493.52 1488.976 1487.429 1485.929 1484.179 1482.296 1478.576 1477.034 1475.294 1473.143 1468.397 1466.203 1464.106 1462.107 1460.216 1457.102 1455.979 1455.279 1454.614 1454.129 1454.159 1454.74 1455.333 1455.987 
1503.283 1506.048 1508.926 1511.865 1515.009 1522.282 1525.738 1529.029 1532.326 1538.953 1542.007 1545.198 1548.501 1551.589 1557.3 1560.278 1562.26 1563.607 1565.062 1567.858 1569.206 1570.483 1571.696 1572.853 1574.589 1575.226 1575.892 1576.454 1577.252 1577.472 1577.643 1577.852 1577.737 1575.42 1573.256 1570.224 1566.513 1562.946 1558.763 1557.155 1555.546 1554.034 1550.997 1549.375 1547.454 1545.323 1543.179 1538.932 1536.669 1534.246 1531.678 1529.013 1524.139 1522.304 1520.574 1518.627 1516.463 1512.157 1510.338 1508.467 1506.144 1500.834 1499.022 1497.546 1495.753 1493.52 1488.976 1487.429 1485.929 1483.115 1480.907 1476.838 1475.102 1473.319 1471.346 1467.041 1464.938 1462.982 1461.139 1459.403 1456.573 1455.483 1454.765 1454.136 1453.653 1453.744 1454.25 1454.555 1454.835 
1503.717 1506.593 1509.538 1512.595 1515.841 1523.083 1526.468 1529.66 1532.842 1539.351 1542.618 1545.866 1549.046 1552.115 1557.845 1560.604 1562.514 1563.863 1565.274 1568.058 1569.398 1570.666 1571.917 1573.123 1574.797 1575.463 1576.029 1576.458 1577.118 1577.485 1577.513 1577.407 1577.076 1574.077 1571.281 1567.928 1564.291 1561.203 1558.083 1556.427 1554.875 1553.413 1550.361 1548.651 1546.755 1544.73 1542.677 1538.68 1536.46 1533.91 1531.228 1528.606 1523.923 1521.984 1520.052 1518 1515.851 1511.726 1509.826 1507.817 1505.574 1500.987 1499.12 1497.304 1495.263 1492.983 1488.446 1486.611 1484.979 1483.115 1480.907 1476.838 1475.102 1473.319 1469.724 1465.555 1463.56 1461.726 1460.104 1458.597 1456.121 1455.108 1454.399 1453.747 1453.341 1453.598 1453.927 1453.642 1453.399 
1504.053 1507.118 1510.212 1513.356 1516.65 1523.591 1526.937 1530.115 1533.249 1539.78 1543.112 1546.439 1549.625 1552.641 1558.302 1560.903 1562.682 1564.028 1565.493 1568.201 1569.522 1570.796 1572.043 1573.236 1574.968 1575.65 1576.163 1576.488 1576.93 1577.155 1577.416 1577.155 1576.121 1572.229 1569.219 1565.839 1562.708 1560.383 1557.325 1555.773 1554.258 1552.789 1549.744 1547.95 1546.081 1544.149 1542.209 1538.25 1536 1533.407 1530.718 1528.202 1523.693 1521.7 1519.676 1517.64 1515.681 1511.66 1509.594 1507.484 1505.338 1501.168 1499.184 1497.229 1495.139 1492.886 1488.536 1486.598 1484.677 1482.458 1479.902 1475.375 1473.628 1471.799 1469.724 1465.555 1463.56 1461.726 1460.104 1457.717 1455.535 1454.624 1453.99 1453.416 1453.097 1453.355 1453.185 1452.574 1452.415 
1504.505 1507.591 1510.734 1513.954 1517.311 1524.051 1527.355 1530.527 1533.613 1536.792 1543.63 1547.03 1550.202 1553.168 1558.865 1561.301 1563.004 1564.319 1565.701 1568.422 1569.724 1570.986 1572.243 1573.419 1575.048 1575.672 1576.081 1576.398 1577.135 1577.092 1576.906 1576.35 1575.152 1570.344 1567.121 1563.833 1561.246 1559.584 1556.575 1555.115 1553.641 1552.207 1550.8 1547.362 1545.514 1543.678 1541.759 1537.764 1535.402 1532.876 1530.268 1527.633 1523.214 1521.338 1519.404 1517.426 1515.485 1511.555 1509.485 1507.419 1505.353 1501.35 1499.387 1497.304 1495.098 1492.935 1488.934 1486.882 1484.726 1482.233 1479.495 1474.804 1472.881 1470.779 1468.355 1464.084 1462.25 1460.524 1459.014 1457.717 1455.535 1454.624 1453.99 1453.416 1453.097 1452.683 1452.453 1451.953 1451.973 
1504.901 1507.947 1511.087 1514.355 1517.751 1524.667 1527.868 1530.907 1533.964 1537.159 1544.065 1547.594 1550.795 1553.7 1559.5 1561.712 1563.305 1564.616 1565.94 1568.64 1569.889 1571.098 1572.341 1573.516 1575.081 1575.702 1576.105 1576.455 1576.968 1577.037 1576.46 1575.314 1573.633 1568.291 1565.027 1562.135 1560.156 1558.783 1555.842 1554.447 1553.065 1551.67 1550.235 1546.813 1544.978 1543.123 1541.218 1537.54 1534.983 1532.312 1529.725 1527.125 1522.795 1520.921 1519.014 1517.166 1515.395 1511.541 1509.475 1507.35 1505.245 1501.411 1499.386 1497.261 1495.158 1493.115 1489.277 1487.143 1484.731 1482.141 1479.508 1474.823 1472.701 1470.321 1467.633 1465.093 1461.224 1459.523 1458.107 1456.885 1454.838 1453.958 1453.328 1452.856 1452.548 1452.683 1452.453 1451.953 1451.973 
1505.117 1508.166 1511.304 1514.612 1518.11 1525.071 1528.28 1531.348 1534.397 1537.584 1544.426 1547.822 1551.088 1554.237 1560.13 1562.108 1563.574 1564.897 1566.217 1568.818 1570.072 1571.266 1572.489 1573.637 1575.176 1575.773 1576.238 1576.567 1576.958 1576.542 1575.643 1574.111 1571.818 1566.103 1563.044 1560.871 1559.408 1557.954 1555.115 1553.798 1552.458 1551.041 1549.513 1546.131 1544.35 1542.506 1540.628 1536.69 1534.322 1531.717 1529.129 1526.703 1522.483 1520.599 1518.696 1516.912 1515.259 1511.406 1509.34 1507.217 1505.116 1501.271 1499.254 1497.203 1495.139 1493.112 1489.247 1487.094 1484.698 1482.198 1479.755 1475.17 1472.879 1470.251 1467.429 1464.861 1460.617 1458.899 1457.382 1456.009 1454.071 1453.238 1452.642 1452.162 1451.76 1451.485 1451.463 1451.427 1451.681 
1505.276 1508.344 1511.437 1514.752 1518.372 1525.462 1528.629 1531.745 1534.893 1538.108 1544.971 1548.24 1551.489 1554.775 1560.852 1562.573 1563.878 1565.149 1566.419 1568.974 1570.178 1571.404 1572.7 1573.848 1575.294 1575.743 1576 1576.367 1576.394 1575.695 1574.436 1572.403 1569.813 1564.08 1561.596 1559.882 1558.533 1557.141 1554.486 1553.196 1551.903 1550.533 1548.972 1545.508 1543.709 1541.951 1540.195 1536.058 1533.581 1531.012 1528.416 1525.939 1522.006 1520.214 1518.41 1516.636 1514.92 1511.15 1509.092 1506.985 1504.891 1501.048 1499.096 1497.131 1495.109 1493.084 1489.14 1486.961 1484.687 1482.329 1479.987 1475.661 1473.11 1470.317 1467.534 1464.953 1460.551 1458.613 1456.86 1455.377 1453.344 1452.472 1451.855 1451.414 1451.069 1450.936 1450.935 1450.954 1451.181 
1505.443 1508.486 1511.548 1514.874 1518.482 1525.44 1528.745 1532.109 1535.48 1538.762 1545.553 1548.967 1552.216 1555.439 1561.539 1563.038 1564.233 1565.473 1566.661 1569.156 1570.316 1571.509 1572.825 1573.975 1575.37 1575.802 1575.975 1576.094 1575.692 1574.481 1572.681 1570.401 1567.815 1562.374 1560.512 1559.093 1557.716 1556.361 1553.854 1552.635 1551.371 1549.96 1548.339 1544.853 1543.073 1541.31 1539.671 1535.62 1532.915 1530.19 1527.546 1525.172 1521.481 1519.685 1517.93 1516.208 1514.485 1510.703 1508.704 1506.694 1504.661 1500.815 1498.857 1496.886 1494.919 1492.958 1489.099 1486.946 1484.72 1482.445 1480.184 1476.007 1473.422 1470.59 1467.817 1465.253 1460.757 1458.744 1456.864 1455.233 1452.969 1451.977 1451.314 1450.798 1450.524 1450.576 1450.397 1450.469 1450.74 
1505.506 1508.593 1511.722 1515.031 1518.538 1525.457 1528.867 1532.344 1535.804 1539.161 1545.895 1549.317 1552.674 1556.027 1561.878 1563.306 1564.425 1565.654 1566.877 1569.212 1570.379 1571.559 1572.818 1573.934 1575.299 1575.785 1576.041 1575.853 1575.193 1572.889 1570.79 1568.354 1565.781 1561.195 1559.661 1558.279 1556.923 1555.664 1553.199 1551.968 1550.73 1549.323 1547.646 1544.111 1542.405 1540.729 1539.073 1534.815 1532.14 1529.397 1526.764 1524.491 1520.942 1519.244 1517.521 1515.79 1514.047 1510.259 1508.274 1506.308 1504.341 1502.374 1498.517 1496.617 1494.74 1492.829 1488.973 1486.887 1484.686 1482.448 1480.254 1476.122 1473.548 1470.708 1468.024 1465.564 1460.913 1458.901 1457.072 1455.446 1452.873 1451.768 1450.956 1450.352 1450.099 1450.052 1449.922 1450.065 1450.284 
1505.534 1508.646 1511.846 1515.14 1518.552 1525.466 1528.935 1532.388 1535.783 1539.168 1546.02 1549.396 1552.866 1556.384 1562.062 1563.456 1564.596 1565.769 1566.937 1569.283 1570.397 1571.526 1572.729 1573.834 1575.109 1575.569 1575.568 1574.988 1573.99 1570.819 1568.681 1566.315 1563.848 1560.158 1558.809 1557.433 1556.121 1554.91 1552.502 1551.277 1550.029 1548.555 1546.811 1543.356 1541.697 1540.032 1538.298 1533.836 1531.221 1528.628 1526.132 1523.953 1520.452 1518.78 1517.091 1515.371 1513.622 1509.831 1507.846 1505.922 1504.006 1502.021 1498.169 1496.351 1494.504 1492.619 1488.873 1486.773 1484.554 1482.358 1480.222 1475.969 1473.371 1470.605 1467.971 1465.53 1461.067 1459.04 1457.269 1455.651 1452.831 1451.607 1450.715 1449.943 1449.606 1449.553 1449.534 1449.726 1449.928 
1505.574 1508.579 1511.694 1515 1518.472 1525.517 1528.902 1532.281 1535.708 1539.147 1546.079 1549.463 1552.978 1556.589 1562.132 1563.501 1564.705 1565.855 1566.94 1569.299 1570.412 1571.539 1572.745 1573.846 1575.09 1575.18 1574.552 1573.46 1572.181 1568.67 1566.617 1564.3 1562.111 1559.158 1557.859 1556.563 1555.298 1554.086 1551.844 1550.661 1549.224 1547.607 1545.945 1542.486 1540.815 1539.235 1537.499 1532.792 1530.244 1527.807 1525.53 1523.506 1519.984 1518.256 1516.614 1514.964 1513.183 1509.393 1507.43 1505.497 1503.571 1501.601 1497.849 1496.018 1494.22 1492.397 1488.782 1486.661 1484.43 1482.242 1480.067 1475.744 1473.202 1470.517 1467.924 1465.481 1461.077 1459.134 1457.381 1455.737 1452.738 1451.484 1450.55 1449.64 1449.057 1448.813 1448.817 1449.162 1449.619 
1505.474 1508.419 1511.391 1514.625 1518.167 1525.183 1528.605 1532.128 1535.657 1539.107 1546.098 1549.498 1553.005 1556.604 1562.151 1563.468 1564.597 1565.759 1566.892 1569.202 1570.354 1571.542 1572.794 1573.912 1574.759 1574.042 1572.886 1571.58 1570.076 1566.636 1564.664 1562.577 1560.793 1558.203 1556.918 1555.67 1554.451 1553.264 1551.026 1549.866 1548.363 1546.673 1545.003 1541.507 1539.813 1538.205 1536.387 1531.664 1529.213 1526.78 1524.645 1522.873 1519.388 1517.704 1516.132 1514.527 1512.766 1508.948 1506.999 1505.062 1503.121 1501.177 1497.516 1495.7 1493.932 1492.161 1488.42 1486.364 1484.243 1482.059 1479.864 1475.612 1473.048 1470.357 1467.754 1465.327 1461.009 1459.064 1457.253 1455.587 1452.615 1451.282 1450.213 1449.218 1448.49 1447.99 1448.342 1448.834 1449.477 
1505.286 1508.18 1511.135 1514.362 1517.8 1524.549 1528.149 1531.896 1535.585 1539.101 1546.005 1549.416 1552.871 1556.401 1562.057 1563.391 1564.532 1565.655 1566.708 1568.991 1570.218 1571.41 1572.536 1573.524 1573.474 1572.338 1571.037 1569.63 1568.077 1564.72 1562.871 1561.189 1559.796 1557.22 1555.932 1554.71 1553.539 1552.411 1550.112 1548.81 1547.324 1545.715 1544.021 1540.46 1538.757 1536.912 1534.886 1530.406 1528.068 1525.777 1523.808 1522.162 1518.787 1517.17 1515.606 1514.044 1512.359 1508.424 1506.517 1504.582 1502.648 1500.798 1497.169 1495.372 1493.597 1491.81 1488.026 1486.015 1483.912 1481.754 1479.636 1475.363 1472.797 1470.115 1467.505 1465.075 1460.845 1458.909 1457.098 1455.408 1452.377 1451.01 1449.948 1448.887 1448.069 1447.444 1448.054 1448.896 1449.599 
1505.026 1507.959 1510.912 1514.076 1517.414 1524.079 1527.724 1531.575 1535.38 1538.934 1545.767 1549.12 1552.501 1555.932 1559.133 1563.084 1564.313 1565.507 1566.57 1568.746 1569.742 1570.845 1571.831 1572.38 1571.607 1570.441 1569.108 1567.667 1566.137 1562.807 1561.317 1560.034 1558.802 1556.241 1554.944 1553.761 1552.62 1551.487 1549.159 1547.704 1546.19 1544.627 1542.946 1539.474 1537.738 1535.694 1533.43 1531.223 1526.898 1524.881 1523.057 1521.394 1518.077 1516.582 1515.061 1513.477 1511.784 1507.9 1505.987 1504.108 1502.276 1500.451 1496.733 1494.998 1493.214 1491.395 1487.719 1485.678 1483.581 1481.446 1479.289 1474.95 1472.493 1469.877 1467.262 1464.842 1460.693 1458.702 1456.855 1455.118 1452.061 1450.751 1449.679 1448.609 1447.775 1447.163 1447.893 1448.921 1450.048 
1504.726 1507.699 1510.641 1513.773 1517.092 1523.752 1527.402 1531.237 1535.015 1538.587 1545.422 1548.795 1552.117 1555.358 1558.408 1562.653 1564.04 1565.312 1566.451 1568.057 1568.964 1569.771 1570.176 1570.33 1569.537 1568.294 1567.013 1565.682 1564.16 1561.229 1560.096 1558.987 1557.777 1555.253 1554.014 1552.8 1551.632 1550.486 1548.021 1546.622 1545.089 1543.488 1541.88 1538.618 1536.672 1534.422 1532.046 1529.696 1525.405 1523.722 1522.139 1520.523 1517.403 1515.881 1514.41 1512.792 1510.984 1507.286 1505.411 1503.579 1501.773 1499.948 1496.315 1494.557 1492.746 1490.929 1487.286 1485.251 1483.175 1481.072 1478.965 1474.526 1472.102 1469.595 1467.043 1464.636 1460.458 1458.459 1456.571 1454.77 1453.098 1450.451 1449.408 1448.385 1447.588 1446.904 1447.61 1448.773 1450.03 
1504.435 1507.404 1510.35 1513.487 1516.83 1523.623 1527.24 1530.932 1534.612 1538.209 1545.039 1548.435 1551.711 1554.807 1557.78 1562.376 1563.792 1565.066 1566.09 1567.222 1567.845 1568.185 1568.302 1568.318 1567.255 1566.19 1565.022 1563.726 1562.339 1560.083 1558.994 1557.847 1556.68 1554.313 1553.078 1551.881 1550.673 1549.421 1546.778 1545.396 1543.919 1542.39 1540.882 1537.724 1535.554 1533.118 1530.656 1528.17 1524.045 1522.598 1521.148 1519.616 1516.628 1515.099 1513.601 1511.996 1510.233 1506.589 1504.761 1502.972 1501.176 1499.362 1495.814 1494.038 1492.237 1490.435 1486.679 1484.752 1482.701 1480.591 1478.566 1474.224 1471.778 1469.31 1466.853 1464.511 1460.247 1458.161 1456.219 1454.413 1452.697 1450.057 1449.006 1447.992 1447.207 1446.596 1447.188 1448.323 1449.885 
1504.235 1507.136 1510.067 1513.168 1516.482 1523.485 1527.048 1530.612 1534.188 1537.733 1544.646 1548.075 1551.292 1554.303 1557.259 1562.131 1563.724 1564.869 1565.514 1566.413 1566.922 1566.997 1566.793 1566.475 1565.211 1564.347 1563.232 1562.033 1560.957 1558.996 1557.963 1556.879 1555.752 1553.437 1552.26 1551.029 1549.752 1548.407 1545.592 1544.205 1542.758 1541.271 1539.813 1536.561 1534.283 1531.801 1529.257 1526.734 1523.102 1521.66 1520.17 1518.698 1515.747 1514.327 1512.739 1511.046 1509.36 1505.867 1504.083 1502.368 1500.636 1498.815 1495.192 1493.441 1491.712 1489.934 1486.166 1484.223 1482.213 1480.143 1478.079 1473.655 1471.343 1469.021 1466.689 1464.412 1459.997 1457.86 1455.852 1453.98 1452.251 1449.545 1448.452 1447.412 1446.6 1446.101 1446.629 1447.795 1449.532 
1501.071 1506.841 1509.721 1512.779 1516.109 1523.067 1526.603 1530.203 1533.804 1537.3 1544.183 1547.509 1550.683 1553.773 1556.768 1561.789 1563.505 1564.517 1565.088 1565.898 1565.925 1565.565 1565.065 1564.687 1563.51 1562.596 1561.667 1560.787 1559.884 1557.843 1556.919 1555.911 1554.839 1552.685 1551.54 1550.321 1548.947 1547.458 1544.538 1543.093 1541.622 1540.141 1538.66 1535.103 1532.88 1530.456 1527.907 1525.56 1522.256 1520.774 1519.3 1517.801 1514.807 1513.334 1511.819 1510.16 1508.424 1504.974 1503.269 1501.632 1499.92 1498.088 1494.516 1492.768 1491.049 1489.325 1485.6 1483.693 1481.716 1479.677 1477.634 1473.214 1470.93 1468.718 1466.559 1464.368 1459.699 1457.51 1455.471 1453.536 1451.748 1449.056 1447.93 1446.817 1446.001 1445.209 1445.995 1447.309 1448.988 
1500.881 1506.648 1509.465 1512.38 1515.606 1522.573 1526.103 1529.718 1533.364 1536.912 1543.638 1546.835 1549.98 1553.127 1556.209 1561.667 1563.385 1564.503 1565.093 1565.041 1564.666 1564.101 1563.636 1563.274 1562.044 1561.333 1560.504 1559.645 1558.814 1556.791 1555.862 1554.91 1553.896 1552.909 1550.821 1549.626 1548.149 1546.516 1543.45 1541.963 1540.482 1539.029 1537.485 1533.667 1531.437 1529.108 1526.762 1524.644 1521.512 1520.01 1518.503 1516.97 1513.863 1512.293 1510.772 1509.204 1507.553 1504.038 1502.37 1500.712 1499.002 1497.251 1493.725 1492.032 1490.331 1488.618 1486.857 1483.109 1481.207 1479.289 1477.342 1472.87 1470.584 1468.399 1466.287 1464.117 1459.364 1457.123 1455.061 1453.112 1451.274 1448.533 1447.39 1446.282 1445.555 1444.474 1445.316 1446.72 1448.344 
1500.699 1506.385 1509.226 1512.181 1515.335 1522.096 1525.635 1529.235 1532.966 1536.632 1543.075 1546.162 1549.223 1552.381 1555.651 1561.563 1563.389 1564.385 1564.628 1564.084 1563.524 1562.829 1562.368 1562.022 1560.843 1560.158 1559.402 1558.576 1557.69 1555.834 1554.869 1553.878 1552.915 1551.988 1549.979 1548.676 1547.128 1545.527 1542.397 1540.846 1539.355 1537.863 1536.201 1532.246 1530.119 1527.886 1525.742 1523.903 1520.785 1519.281 1517.78 1516.277 1513.178 1511.507 1509.916 1508.353 1506.712 1503.155 1501.395 1499.687 1498.032 1496.379 1492.849 1491.191 1489.479 1487.729 1486.032 1482.468 1480.642 1478.872 1477.064 1472.479 1470.1 1467.914 1465.858 1463.691 1458.821 1456.587 1454.533 1452.576 1450.71 1447.928 1446.817 1445.734 1445.028 1443.988 1444.693 1446.092 1447.758 
1500.52 1506.197 1509.047 1512.033 1515.101 1521.527 1524.856 1528.477 1532.324 1536.007 1542.481 1545.487 1548.431 1551.609 1555.093 1561.443 1563.441 1564.148 1564.022 1563.194 1562.528 1561.964 1561.424 1560.835 1559.711 1558.998 1558.271 1557.428 1556.472 1554.748 1553.826 1552.897 1551.948 1551.005 1548.896 1547.413 1545.875 1544.371 1541.229 1539.703 1538.205 1536.571 1534.781 1530.926 1528.92 1526.799 1524.82 1523.187 1520.116 1518.624 1517.134 1515.654 1512.601 1510.935 1509.255 1507.605 1505.942 1502.377 1500.541 1498.842 1497.202 1495.49 1491.919 1490.149 1488.459 1486.791 1485.099 1481.73 1479.99 1478.311 1476.545 1471.886 1469.409 1467.232 1465.202 1462.989 1458.012 1455.764 1453.717 1451.798 1449.972 1447.198 1446.136 1445.15 1444.53 1443.649 1444.289 1445.671 1447.33 
1500.255 1505.843 1508.68 1511.635 1514.65 1520.773 1523.863 1527.551 1531.597 1535.441 1541.977 1544.953 1547.812 1550.965 1554.601 1561.366 1563.19 1563.59 1563.264 1562.257 1561.742 1561.159 1560.505 1559.847 1558.577 1557.927 1557.186 1556.317 1555.391 1553.606 1552.699 1551.845 1550.959 1549.976 1547.604 1546.123 1544.556 1542.958 1539.992 1538.589 1537.005 1535.236 1533.392 1529.667 1527.805 1525.896 1524.084 1522.468 1519.424 1517.986 1516.557 1515.103 1512.045 1510.372 1508.64 1506.914 1505.199 1501.773 1499.974 1498.186 1496.464 1494.709 1491.043 1489.205 1487.49 1485.854 1484.158 1480.783 1479.115 1477.545 1475.74 1470.875 1468.477 1466.304 1464.164 1461.834 1456.988 1454.771 1452.72 1450.796 1448.997 1446.318 1445.302 1444.478 1444.012 1443.744 1444.171 1445.32 1446.88 
1499.786 1505.469 1508.178 1511.009 1513.942 1520.049 1523.281 1526.969 1531.002 1534.983 1541.665 1544.684 1547.69 1550.878 1554.366 1560.987 1562.619 1562.885 1562.503 1562.005 1560.89 1560.228 1559.568 1558.923 1557.542 1556.832 1555.994 1555.118 1554.279 1552.469 1551.555 1550.723 1549.843 1548.756 1546.234 1544.81 1543.237 1541.543 1538.52 1537.163 1535.54 1533.78 1531.982 1528.333 1526.574 1524.887 1523.274 1521.704 1518.633 1517.238 1515.913 1514.586 1511.491 1509.69 1507.929 1506.228 1504.56 1501.116 1499.37 1497.578 1495.743 1493.91 1490.22 1488.43 1486.676 1484.966 1483.275 1479.707 1478.021 1476.347 1474.419 1469.664 1467.23 1465.021 1462.829 1460.42 1455.651 1453.499 1451.493 1449.633 1447.925 1445.396 1444.482 1443.79 1443.416 1443.735 1444 1444.918 1446.307 
1499.212 1504.907 1507.533 1510.151 1512.963 1519.429 1522.772 1526.474 1530.54 1534.615 1541.454 1544.552 1547.689 1550.794 1553.955 1559.833 1561.509 1562.019 1561.718 1561.182 1559.951 1559.351 1558.699 1557.959 1556.502 1555.712 1554.889 1554.028 1553.13 1551.324 1550.494 1549.616 1548.587 1547.419 1544.886 1543.4 1541.778 1540.079 1536.866 1535.428 1533.849 1532.148 1530.415 1526.909 1525.265 1523.727 1522.225 1520.74 1517.872 1516.515 1515.217 1513.882 1512.405 1509.027 1507.294 1505.595 1503.951 1500.603 1498.776 1496.955 1495.098 1493.216 1489.436 1487.651 1485.964 1484.239 1482.422 1478.584 1476.762 1474.902 1472.932 1468.396 1465.829 1463.502 1461.243 1458.789 1453.934 1451.903 1450.053 1448.357 1446.797 1444.447 1443.609 1443.011 1442.788 1442.892 1443.773 1444.603 1445.753 
1498.545 1504.33 1506.929 1509.499 1512.203 1518.808 1522.261 1525.989 1530.037 1534.165 1541.344 1544.547 1547.732 1550.748 1553.541 1558.623 1560.129 1560.735 1560.651 1560.174 1559.095 1558.529 1557.869 1557.125 1555.574 1554.682 1553.835 1552.985 1552.081 1550.285 1549.348 1548.34 1547.238 1546.083 1543.551 1542.133 1540.617 1538.995 1535.557 1533.932 1532.282 1530.534 1528.768 1525.422 1523.952 1522.541 1521.125 1519.711 1516.974 1515.716 1514.403 1512.95 1511.395 1508.178 1506.502 1504.863 1503.284 1499.989 1498.17 1496.298 1494.425 1492.606 1489.064 1487.205 1485.401 1483.539 1481.567 1477.589 1475.611 1473.754 1471.836 1467.392 1464.975 1462.545 1459.932 1457.182 1452.179 1450.202 1448.555 1447.083 1445.727 1443.567 1442.761 1442.317 1442.224 1442.482 1443.687 1444.376 1445.288 
1498.545 1504.33 1506.318 1508.954 1511.644 1518.196 1521.746 1525.497 1529.579 1533.799 1541.147 1544.514 1547.8 1550.606 1552.988 1557.371 1558.748 1559.479 1559.577 1559.273 1558.21 1557.657 1557.011 1556.203 1554.55 1553.704 1552.903 1552.002 1551.033 1549.176 1548.146 1547.021 1545.91 1544.821 1542.263 1540.94 1539.571 1538.072 1534.503 1532.704 1530.885 1528.919 1526.95 1524.063 1522.772 1521.389 1519.984 1518.61 1515.965 1514.722 1513.464 1512.006 1510.368 1507.165 1505.549 1504.014 1502.511 1499.198 1497.396 1495.498 1493.687 1492.006 1488.571 1486.753 1484.853 1482.903 1480.933 1476.984 1474.965 1473.012 1471.019 1466.7 1464.526 1462.029 1459.08 1456.051 1450.971 1448.957 1447.382 1446.056 1444.845 1442.73 1442.036 1441.667 1441.675 1442.047 1443.291 1444.046 1444.965 
1497.772 1503.733 1506.318 1508.954 1511.644 1518.196 1521.746 1525.044 1529.124 1533.405 1540.933 1544.486 1547.849 1550.573 1552.703 1556.193 1557.404 1558.167 1558.452 1558.335 1557.422 1556.824 1556.066 1555.259 1553.693 1552.873 1552.002 1551.095 1550.177 1548.059 1546.911 1545.826 1544.695 1543.488 1541.104 1539.793 1538.549 1537.156 1533.469 1531.574 1529.697 1527.617 1525.588 1522.887 1521.68 1520.346 1518.896 1517.464 1514.855 1513.62 1512.325 1510.849 1509.258 1506.043 1504.498 1503.021 1501.522 1498.217 1496.472 1494.642 1492.884 1491.253 1487.869 1486.057 1484.194 1482.312 1480.434 1476.725 1474.682 1472.549 1470.426 1466.153 1464.031 1461.556 1458.649 1455.652 1450.5 1448.326 1446.565 1445.179 1444.019 1442.06 1441.442 1441.169 1441.24 1441.636 1442.862 1443.644 1444.634 
1496.754 1503.054 1505.805 1508.462 1511.148 1514.165 1521.336 1525.044 1529.124 1533.405 1540.933 1544.486 1547.88 1550.539 1552.418 1555.659 1556.329 1556.755 1557.126 1557.125 1556.483 1555.892 1555.163 1554.456 1552.868 1552.03 1551.159 1550.273 1549.312 1547.011 1545.792 1544.621 1543.45 1542.217 1539.764 1538.545 1537.255 1535.77 1534.084 1530.504 1528.721 1526.944 1525.196 1522.048 1520.729 1519.335 1517.844 1516.371 1513.625 1512.334 1510.982 1509.547 1508.041 1504.9 1503.379 1501.958 1500.489 1497.1 1495.36 1493.662 1491.986 1490.394 1487.086 1485.372 1483.523 1481.651 1479.935 1476.374 1474.315 1472.15 1469.965 1465.71 1463.604 1461.075 1458.276 1455.507 1450.33 1447.934 1445.924 1444.305 1443.085 1441.313 1440.827 1440.712 1440.854 1441.285 1442.467 1443.194 1444.171 
