NCOLS 42
NROWS 41
XLLCORNER 277357.98
YLLCORNER 3855561.5
CELLSIZE 10
NODATA_VALUE -9999
966.9916 967.2479 967.5216 967.9473 968.1699 968.3686 968.5697 968.7296 969.0663 969.205 969.373 969.5396 969.6987 969.8585 970.2456 970.3966 970.5583 970.7168 970.8417 971.0006 971.1783 971.3417 971.4249 971.5729 971.7343 972.0759 972.2775 972.5916 972.823 973.0669 974.0012 974.8279 975.2795 975.7679 976.1295 976.2018 976.2322 976.3772 976.6007 976.8255 976.9747 977.0452 
966.5588 966.7946 966.9743 967.4653 967.7255 967.9518 968.1054 968.2679 968.5538 968.7029 968.8431 968.9539 969.1198 969.2792 969.5886 969.7576 969.8877 969.9969 970.2111 970.4153 970.5857 970.7451 970.8929 971.0469 971.2029 971.5788 971.7688 971.9816 972.823 973.0669 973.8558 974.3124 974.6588 974.9955 975.3577 975.5113 975.6268 975.9424 976.2433 976.4022 976.5566 976.6625 
966.0252 966.2712 966.8155 967.0654 967.2978 967.4839 967.6384 967.8046 968.0631 968.1464 968.2679 968.3932 968.4929 968.6454 968.9695 969.0916 969.1866 969.3555 969.5992 969.8414 969.9553 970.115 970.297 970.5289 970.6884 970.9893 971.1804 971.9816 972.2963 972.5527 973.3586 973.7186 973.9969 974.217 974.4362 974.588 974.9329 975.3344 975.6957 975.9413 976.1247 976.3301 
965.5107 965.7978 966.3679 966.5975 966.8074 966.9761 967.1791 967.2992 967.559 967.6206 967.698 967.8098 967.9515 968.2714 968.4378 968.5585 968.6232 968.7162 968.8796 969.2501 969.4506 969.5651 969.6472 969.8149 970.0479 970.4196 971.1804 971.4561 971.7873 972.1139 972.6792 973.0188 973.324 973.4903 973.7211 973.8793 974.3122 974.6323 974.9626 975.2834 975.5298 975.8533 
964.9943 965.3276 965.8991 966.0946 966.2795 966.4584 966.6422 966.7202 966.9642 967.0696 967.1896 967.2551 967.355 967.6663 967.8306 967.9464 968.0319 968.1888 968.3441 968.6201 968.8312 968.9796 969.114 969.1881 969.5507 970.4196 970.6611 970.9283 971.2379 971.4852 972.0699 972.2971 972.5256 972.7627 972.9954 973.387 973.6339 973.9152 974.2324 974.5458 974.787 975.2253 
964.5138 964.8876 965.4644 965.6733 965.8053 965.9232 966.0779 966.1618 966.4269 966.5 966.6133 966.7471 966.8254 967.1346 967.3003 967.4225 967.4841 967.5729 967.7247 967.9743 968.1312 968.3566 968.5079 968.6566 969.5507 969.7962 970.0385 970.27 970.5098 970.834 971.4283 971.6775 971.8912 972.0524 972.2961 972.7082 972.9578 973.2413 973.4971 973.821 974.1016 974.5325 
964.2063 964.5895 965.08 965.2343 965.3432 965.4683 965.5725 965.7455 965.8243 965.9299 966.0646 966.1447 966.2184 966.5237 966.681 966.8391 966.9668 967.0417 967.3643 967.4676 967.5259 967.6154 967.7859 968.6566 968.8502 969.1103 969.4146 969.621 969.7923 970.0964 970.706 970.9999 971.278 971.4395 971.6804 972.1232 972.3175 972.5376 972.8062 973.1364 973.4379 973.9011 
963.944 964.2342 964.6594 964.7296 964.8372 964.996 965.0704 965.2173 965.2909 965.3672 965.4728 965.6115 965.6845 965.9891 966.1472 966.3054 966.4651 966.6136 966.7689 966.8403 966.9046 967.0014 967.7859 968.0167 968.341 968.4883 968.6657 968.8953 969.1352 969.7728 970.0778 970.3528 970.6367 970.8176 971.0568 971.558 971.7438 971.9172 972.1934 972.5154 972.7607 973.2561 
963.6238 964.0292 964.1456 964.2078 964.2931 964.3926 964.4731 964.6194 964.6856 964.791 964.9269 965.0125 965.1523 965.4695 965.6273 965.7845 965.9446 966.0977 966.2478 966.3182 966.9046 967.0014 967.1421 967.2177 967.6033 967.8129 967.9886 968.067 968.3082 969.0164 969.3445 969.6411 969.9505 970.195 970.4366 970.9279 971.1429 971.3293 971.5651 971.892 972.3864 972.6334 
963.2576 963.5871 963.7008 963.772 963.8527 963.9176 963.9285 964.0695 964.148 964.2263 964.3206 964.474 964.798 964.9517 965.1061 965.263 965.4229 965.5786 965.6639 966.3182 966.3895 966.4555 966.5337 966.6804 966.857 967.0678 967.2479 967.3349 967.5677 968.1746 968.6217 969.0063 969.3093 969.5725 969.8129 970.302 970.554 970.7785 970.9876 971.2732 971.7586 972.0017 
962.7798 963.1343 963.2098 963.2836 963.3593 963.4321 963.4943 963.6522 963.6774 963.7235 963.8748 963.9586 964.1611 964.3802 964.5909 964.7446 964.8926 964.9675 965.6639 965.691 965.7678 965.8344 965.9045 966.0412 966.0883 966.2219 966.4046 966.5156 966.7123 967.3977 967.8822 968.2786 968.6198 968.9471 969.2292 969.6732 969.9199 970.1655 970.4114 970.6523 971.2056 971.4527 
962.3227 962.6827 962.7806 962.848 962.9287 962.9975 963.0046 963.1418 963.2083 963.2788 963.3596 963.4365 963.7451 963.8981 964.1013 964.3085 964.3788 964.9675 965.1044 965.1841 965.2188 965.2122 965.2823 965.4236 965.4264 965.4208 965.5355 965.7339 965.8192 966.5364 967.0755 967.5577 968.0071 968.3681 968.8826 969.1017 969.3506 969.5923 969.8375 970.0847 970.6183 970.8619 
961.8464 962.1271 962.2513 962.3722 962.4369 962.509 962.6411 962.7179 962.7936 962.8687 962.942 963.012 963.2202 963.3843 963.5411 963.7029 964.3788 964.4447 964.4763 964.5569 964.5964 964.5903 964.6498 964.7363 964.7156 964.7291 964.7833 964.8476 964.9561 965.5346 966.1746 966.8118 967.4368 967.8083 968.2933 968.5363 968.8038 969.0874 969.3271 969.57 970.096 970.3454 
961.3423 961.5975 961.6714 961.7858 961.9188 961.9938 962.1408 962.2105 962.2808 962.3506 962.436 962.5875 962.806 962.9204 963.0191 963.7029 963.8427 963.8989 963.915 963.9379 963.9926 963.9753 963.9709 964.1066 964.1374 964.1199 964.1395 964.181 964.2351 964.5432 965.2611 966.1743 966.8222 967.2257 967.72 967.9604 968.2239 968.517 968.8038 969.0464 969.6425 969.852 
960.8195 961.0769 961.137 961.244 961.4012 961.4775 961.6091 961.7368 961.8679 961.9364 962.0079 962.0818 962.3355 962.3936 963.0191 963.1646 963.2343 963.3846 963.4025 963.4252 963.4819 963.4943 963.5695 963.6242 963.6546 963.6936 963.7698 963.7796 963.8276 964.085 964.8226 965.7555 966.2729 966.6567 967.1898 967.4608 967.6874 967.9459 968.2847 968.8743 969.1342 969.3303 
960.5244 960.6432 960.7112 960.7921 960.8755 960.9527 961.1992 961.2686 961.3466 961.4158 961.4971 961.7422 962.3355 962.3936 962.4973 962.6479 962.7161 962.8305 962.9013 962.9191 963.0004 963.084 963.178 963.2943 963.3501 963.4608 963.5421 963.6255 963.787 964.0742 964.704 965.4277 965.82 966.0901 966.6066 966.899 967.1965 967.4897 967.7718 968.3686 968.6097 968.8132 
960.1398 960.2162 960.2923 960.3682 960.4446 960.5247 960.7405 960.8618 960.9283 961.0016 961.0746 961.7422 961.8085 961.8749 961.9763 962.1254 962.2014 962.3467 962.4182 962.5009 962.5886 962.6908 962.9531 963.0401 963.1873 963.3448 963.4501 963.5671 963.8615 964.0971 964.5231 964.9458 965.2286 965.5622 966.0585 966.3451 966.6909 967.0085 967.2516 967.8149 968.0956 968.295 
959.7909 959.9022 959.9734 960.0546 960.1224 960.121 960.2633 960.3377 960.4107 960.481 961.0746 961.2208 961.2952 961.3597 961.4531 961.6038 961.6909 961.8627 961.9601 962.0974 962.2763 962.4523 962.7202 962.8563 963.0368 963.2072 963.3836 963.559 963.9051 964.0966 964.2869 964.468 964.7137 965.2712 965.5198 965.8176 966.1682 966.4862 966.7312 967.2766 967.5787 967.774 
959.4169 959.4924 959.5714 959.6465 959.7225 959.7985 959.8373 959.9201 959.9987 960.481 960.5587 960.8164 960.9032 960.9511 960.9907 961.1628 961.34 961.6874 961.9073 962.1349 962.3042 962.4974 962.7727 962.9017 963.08 963.2516 963.4279 963.5984 963.8876 964.0546 964.2244 964.4536 964.7098 965.0095 965.1486 965.3196 965.5848 965.9282 966.194 966.796 967.045 967.2861 
959.0627 959.1378 959.1459 959.2264 959.3028 959.4521 959.5182 959.6787 959.9987 960.0779 960.1641 960.4881 960.7125 960.9468 961.123 961.3042 961.6465 961.816 961.9955 962.1761 962.3614 962.5975 962.9055 963.0486 963.2266 963.3891 963.5243 963.6953 963.9407 964.0937 964.3677 964.7177 964.9715 965.2674 965.3392 965.3825 965.5142 965.6707 965.7951 966.2267 966.4893 966.7504 
958.6846 958.7573 958.8274 958.9009 958.9798 959.3744 959.5898 959.6787 959.9245 960.0984 960.2722 960.6161 960.7844 960.9457 961.1377 961.395 961.7596 961.9356 962.1412 962.3687 962.5363 962.699 963.0389 963.2339 963.4373 963.5981 963.7243 964.0061 964.1774 964.3904 964.692 965.0383 965.2957 965.6251 965.7072 965.7855 965.8675 965.8931 966.0712 966.1855 966.2938 966.4216 
958.3015 958.4674 958.6251 958.8059 959.0541 959.4711 959.5898 959.7484 959.9417 960.1949 960.3733 960.7207 960.9013 961.0699 961.2567 961.4916 961.9196 962.1415 962.3217 962.485 962.6584 962.8313 963.1952 963.4243 963.6368 963.7973 963.9222 964.2943 964.5488 964.8199 965.0901 965.3828 965.7032 966.0092 966.1063 966.1824 966.1871 966.2028 966.4692 966.5536 966.6417 966.7625 
958.2723 958.4843 958.7198 958.9017 959.0541 959.4711 959.6889 959.8483 960.0406 960.2925 960.6475 960.876 961.0961 961.2598 961.4302 961.619 962.071 962.2704 962.5004 962.6949 962.8659 963.2368 963.468 963.6638 963.8246 963.993 964.1663 964.6964 964.9635 965.196 965.4231 965.7383 966.0319 966.4347 966.4749 966.5177 966.5851 966.592 966.8403 966.9727 967.0543 967.1693 
958.3668 958.5782 958.8184 958.9017 959.1508 959.567 959.7865 959.9495 960.1424 960.3923 960.8617 961.0295 961.2071 961.3936 961.5762 961.8158 962.2614 962.4536 962.6701 962.8925 963.0636 963.5024 963.6849 963.8693 964.0692 964.259 964.5736 965.0976 965.3718 965.5914 965.7953 966.1467 966.6235 966.8007 966.8877 966.8805 966.8984 966.9863 967.2775 967.3686 967.4554 967.5702 
958.5179 958.7473 958.8184 959.0004 959.2478 959.6618 959.8814 960.0873 960.3375 960.5101 961.0303 961.237 961.4341 961.6702 961.8648 962.0521 962.4526 962.717 962.9229 963.0924 963.3069 963.7093 963.8948 964.1402 964.3913 964.6165 964.9107 965.5186 965.7401 965.9402 966.1885 966.4707 966.9763 967.1957 967.2878 967.3232 967.4624 967.492 967.7788 967.9172 968.0663 968.174 
958.6746 958.7473 958.9356 959.1869 959.5331 959.7595 960.0283 960.2908 960.5245 960.7136 961.214 961.4257 961.6111 961.809 962.0563 962.5421 962.7695 962.9933 963.1529 963.3389 963.5648 963.9323 964.1744 964.432 964.7079 965.023 965.2798 965.8395 966.0809 966.3234 966.5867 966.8389 967.4354 967.6519 967.72 967.825 967.9984 968.0896 968.275 968.4095 968.6393 968.8803 
958.6746 958.8743 959.1221 959.3048 959.7528 959.9702 960.234 960.4685 960.6595 960.9219 961.3703 961.5814 961.8397 962.0867 962.2906 962.8326 963.0709 963.2972 963.4691 963.6403 963.7632 964.1803 964.5073 964.7935 965.0526 965.35 965.9398 966.1931 966.4575 966.7167 966.9916 967.3236 967.8832 968.0511 968.1487 968.3287 968.5104 968.6877 969.0564 969.1962 969.3179 969.5101 
958.879 959.0747 959.3371 959.596 960.0198 960.231 960.4382 960.7013 960.9541 961.21 961.6196 961.8506 962.0591 962.327 962.5931 963.1049 963.3749 963.6021 963.758 963.8735 963.9997 964.5435 964.8735 965.2241 965.5272 965.7883 966.3866 966.6827 966.9473 967.2078 967.4666 967.7474 968.3162 968.5289 968.7577 968.9333 969.1166 969.4856 969.6625 969.8912 970.1481 969.5101 
959.1273 959.358 959.5439 959.8015 960.2573 960.4803 960.7587 960.9958 961.1708 961.6137 961.8373 962.1124 962.3658 962.5928 962.8496 963.416 963.6797 963.9052 964.0689 964.2425 964.4201 965.0227 965.3221 965.6294 965.9659 966.2302 966.8992 967.1553 967.3561 967.6428 967.9695 968.2402 968.8074 969.0186 969.2993 969.5482 969.7327 970.0931 970.3287 970.6077 970.1481 970.3337 
959.3854 959.5811 959.8503 960.0991 960.5223 960.7949 961.0514 961.2785 961.4764 961.9144 962.1287 962.379 962.6223 962.8264 963.0847 963.6697 963.9234 964.1587 964.3872 964.6509 965.1259 965.4019 965.7032 966.039 966.3714 966.6307 967.3236 967.6089 967.8437 968.1304 968.4656 968.7385 969.4814 969.6865 969.8965 970.158 970.3453 970.774 971.0524 970.6077 970.8805 971.1594 
959.6198 959.892 960.1316 960.3162 960.8362 961.09 961.3052 961.5078 961.7667 962.1917 962.4032 962.5818 962.8218 963.0903 963.348 963.8477 964.1312 964.4313 964.6918 964.951 965.4645 965.7554 966.058 966.3525 966.6971 967.0299 967.7145 968.0581 968.351 968.6442 969.0624 969.6693 970.0357 970.3491 970.6146 970.8724 971.0643 971.5354 971.0524 971.3181 971.6125 971.9666 
959.927 960.1616 960.3505 960.8588 961.1138 961.3368 961.545 961.8173 962.0746 962.4648 962.6898 962.8806 963.0567 963.2809 963.5361 964.0798 964.387 964.6674 964.9234 965.178 965.727 966.072 966.4044 966.7268 967.064 967.3436 968.1101 968.4897 968.8917 969.2319 969.5831 970.3501 970.6948 970.9521 971.2282 971.4886 971.6794 971.5354 971.7632 972.0404 972.3295 972.6865 
960.1922 960.3833 960.6338 961.092 961.3215 961.5794 961.8209 962.0806 962.337 962.7234 962.9258 963.1393 963.303 963.4766 963.9888 964.3013 964.6401 964.9281 965.1782 965.4385 966.0506 966.3564 966.7346 967.1384 967.4826 968.16 968.552 968.9891 969.3951 969.7515 970.1746 970.946 971.4106 971.7435 971.9625 971.4886 971.6794 972.2028 972.5267 972.8594 973.1446 973.4926 
960.4219 960.6624 960.8516 961.3723 961.6232 961.8311 962.0379 962.2987 962.5596 963.026 963.1868 963.3566 963.5308 963.702 964.1455 964.4879 964.8353 965.1746 965.4816 965.743 966.3237 966.6563 967.0399 967.4647 967.8019 968.5244 969.0112 969.4982 969.9193 970.3494 970.7803 971.6185 972.0771 972.3849 971.9625 972.2966 972.6461 972.9193 973.2369 973.5683 973.8469 974.1998 
960.7075 960.8856 961.1497 961.6783 961.8974 962.1169 962.3881 962.6453 963.1978 963.4446 963.631 963.8023 963.983 964.1599 964.3984 964.7332 965.092 965.4425 965.7857 966.0452 966.6486 966.9564 967.3084 967.6765 968.0831 968.9972 969.4649 969.9227 970.4418 970.9589 971.4769 972.442 972.8453 972.3849 972.6769 973.0197 973.3954 973.6288 973.944 974.2716 974.5601 974.9104 
961.0139 961.2177 961.4525 961.9728 962.2344 962.4938 962.7591 963.0527 963.6815 964.0336 964.3252 964.5499 964.7798 964.9227 964.9329 965.0621 965.3783 965.7266 966.0111 966.6769 966.9627 967.2542 967.5969 967.9677 968.4706 969.3299 969.8564 970.4276 970.9576 971.5659 972.1744 973.1386 972.8453 973.1329 973.4854 973.7349 974.0649 974.3447 974.604 974.8896 975.2489 975.5818 
961.358 961.5975 961.7953 962.2632 962.5458 962.8291 963.1052 963.4527 964.2109 964.7514 965.1866 965.433 965.6348 965.6849 965.6863 965.6627 965.7531 966.0157 966.2742 966.9762 967.2587 967.5448 967.8924 968.2491 968.6895 969.6972 970.2538 970.8618 971.4617 972.0635 973.3542 973.1386 973.6499 974.0452 974.2729 974.3705 974.7261 974.9477 975.2051 975.4647 975.8091 976.3915 
961.7275 961.9045 962.3751 962.6064 962.9014 963.1976 963.4585 963.7827 964.8963 965.5693 966.0775 966.3439 966.4926 966.5071 966.5408 966.4519 966.2972 966.2972 966.6418 967.2537 967.6018 967.9447 968.2924 968.6389 968.9901 969.9453 970.5529 971.1793 971.8669 972.563 973.3542 974.0288 974.5373 974.834 974.9956 975.0892 975.4211 975.5732 975.816 976.2692 977.121 980.7695 
961.9861 962.1642 962.6792 962.9338 963.2106 963.4834 963.7496 964.2405 965.7301 966.3763 966.8598 967.2391 967.5147 967.5627 967.3361 967.1673 967.069 966.8753 966.9731 967.6576 967.9588 968.2518 968.6033 968.95 969.293 970.2888 970.8384 971.4605 972.1794 972.563 974.0588 974.7088 975.2626 975.6529 975.8262 975.8578 976.2368 976.6335 977.5469 979.3641 981.7883 987.1172 
962.2172 962.3926 962.8959 963.1719 963.4418 963.7336 964.1451 965.0053 966.6813 967.4158 967.9879 968.4819 968.9052 968.9082 968.6715 968.327 967.9261 967.7137 967.4679 967.9651 968.267 968.5566 968.8926 969.1562 969.9594 970.5366 971.1425 971.4605 972.1794 973.0258 974.5033 975.1906 975.8083 976.5013 977.2037 978.593 979.535 981.0975 983.2963 985.7562 988.3211 993.0842 
962.4911 962.6584 963.0913 963.4097 963.6648 964.044 964.9051 965.9296 967.9332 968.8263 969.5369 970.1045 970.4995 970.6447 970.4082 969.9592 969.3019 968.7443 968.3298 968.2108 968.5828 968.8266 969.1044 969.4433 970.265 970.7288 971.1425 971.7271 972.3574 973.1935 974.9435 975.6162 976.4888 978.3772 981.2511 985.8387 986.9378 988.5897 990.5406 992.3232 994.5834 999.4674 
