NCOLS 90
NROWS 110
XLLCORNER 367236.48
YLLCORNER 4195790.7
CELLSIZE 10
NODATA_VALUE -9999
1816.443 1816.634 1816.998 1817.709 1818.865 1820.246 1822.99 1824.488 1825.951 1827.406 1831.331 1834.085 1837.084 1839.898 1842.475 1846.94 1849.055 1850.998 1852.816 1856.729 1858.66 1860.415 1862.19 1865.333 1866.867 1868.432 1870.034 1871.602 1875.134 1877.021 1878.985 1881.061 1885.411 1887.752 1890.116 1892.377 1896.596 1898.489 1900.265 1901.931 1903.37 1905.585 1906.459 1906.946 1907.184 1907.445 1907.434 1907.173 1906.358 1905.076 1899.562 1895.943 1892.534 1889.316 1882.339 1878.738 1874.998 1871.139 1864.483 1861.804 1859.111 1856.337 1853.404 1846.802 1843.721 1840.919 1838.237 1832.835 1830.252 1827.816 1825.474 1823.125 1818.756 1815.499 1812.94 1810.406 1805.745 1803.42 1801.293 1799.588 1796.867 1795.992 1795.073 1794.246 1793.627 1792.62 1792.314 1792.116 1791.976 1791.841 
1816.05 1816.293 1816.691 1817.302 1818.328 1819.79 1822.799 1824.429 1825.951 1827.406 1830.828 1833.549 1836.674 1839.541 1844.279 1846.189 1848.095 1849.979 1851.689 1855.124 1856.923 1858.629 1860.257 1863.317 1864.853 1866.401 1867.966 1869.523 1872.91 1874.775 1876.674 1878.6 1882.869 1885.29 1887.765 1890.174 1894.429 1896.341 1898.234 1900.008 1901.603 1904.292 1905.326 1906.228 1906.821 1907.141 1907.288 1907.169 1906.458 1905.365 1900.726 1897.403 1894.239 1891.284 1884.161 1880.748 1877.048 1872.637 1865.273 1862.576 1859.946 1857.369 1854.682 1848.112 1844.928 1841.905 1838.969 1833.273 1830.686 1828.257 1826.006 1820.932 1818.756 1816.438 1813.891 1811.215 1806.226 1803.819 1801.611 1799.965 1797.511 1796.516 1795.544 1794.645 1793.848 1792.615 1792.13 1791.872 1791.75 1791.662 
1816.146 1816.197 1816.372 1816.885 1817.9 1819.366 1822.799 1824.429 1825.952 1827.422 1830.866 1833.417 1836.363 1839.238 1843.755 1845.512 1847.263 1849.018 1850.644 1853.742 1855.21 1856.727 1858.306 1861.307 1862.785 1864.288 1865.823 1867.396 1870.674 1872.442 1874.268 1876.153 1880.161 1882.554 1885.143 1887.725 1892.23 1894.147 1896.025 1897.903 1899.61 1902.784 1904.069 1905.078 1905.978 1906.688 1906.861 1906.97 1906.444 1904.037 1901.477 1898.369 1895.256 1892.098 1885.52 1882.264 1878.613 1874.052 1865.9 1863.268 1860.866 1858.365 1855.773 1849.108 1845.512 1842.226 1839.318 1833.666 1831.032 1828.602 1826.006 1821.571 1819.402 1817.067 1814.472 1811.867 1806.399 1803.964 1801.955 1800.643 1798.166 1797.123 1796.016 1794.96 1793.404 1792.789 1792.208 1791.788 1791.602 1791.532 
1815.842 1816.073 1816.307 1816.8 1817.9 1819.366 1822.863 1824.531 1826.074 1827.604 1831.006 1833.272 1836.045 1839.059 1843.107 1844.772 1846.332 1847.932 1849.578 1852.427 1853.594 1854.828 1856.281 1859.336 1860.798 1862.258 1863.745 1866.769 1868.382 1870.085 1871.859 1873.656 1877.53 1879.64 1882.082 1884.785 1889.757 1891.872 1893.787 1895.646 1897.478 1900.826 1902.45 1903.832 1904.861 1906.327 1906.644 1906.59 1906.199 1904.429 1902.067 1898.975 1895.898 1892.873 1886.516 1883.344 1879.718 1875.369 1866.588 1863.84 1861.59 1859.234 1853.903 1850.268 1846.226 1842.613 1839.686 1834.023 1831.032 1828.602 1826.304 1821.984 1819.853 1817.505 1814.884 1812.109 1806.425 1804.356 1803.011 1801.855 1799.131 1797.965 1796.657 1795.341 1793.716 1793.09 1792.429 1791.805 1791.571 1791.468 
1815.665 1816.082 1816.43 1816.8 1817.762 1821.029 1822.998 1824.861 1826.431 1827.859 1831.17 1833.454 1835.997 1838.611 1842.508 1844.113 1845.585 1847.07 1848.567 1851.278 1852.335 1853.35 1854.544 1857.371 1858.809 1860.21 1861.616 1864.517 1866.03 1867.656 1869.413 1871.234 1874.92 1876.93 1879.124 1881.56 1886.938 1889.439 1891.635 1893.448 1896.891 1898.639 1900.392 1902.092 1903.57 1905.816 1906.264 1906.023 1905.803 1904.182 1902.112 1899.355 1896.389 1893.457 1887.31 1884.195 1880.799 1876.694 1867.344 1864.356 1862.159 1859.893 1855.145 1851.471 1847.195 1843.465 1839.686 1834.023 1831.36 1828.936 1826.521 1822 1820.005 1817.882 1815.503 1812.999 1807.556 1806.052 1805.033 1803.872 1800.245 1798.913 1797.388 1795.795 1794.065 1793.332 1792.526 1791.93 1791.592 1791.508 
1815.634 1816.082 1816.43 1817.143 1818.333 1821.835 1823.746 1825.615 1827.207 1828.581 1831.673 1833.749 1836.078 1838.384 1841.956 1843.561 1844.964 1846.275 1849.037 1850.22 1851.234 1852.187 1853.142 1855.437 1856.781 1858.116 1859.429 1862.25 1863.734 1865.297 1866.954 1868.702 1872.413 1874.358 1876.358 1878.513 1883.625 1886.359 1888.837 1890.902 1894.339 1896.147 1897.99 1899.804 1901.53 1904.189 1905.066 1905.592 1905.576 1903.832 1901.926 1899.564 1896.884 1894.041 1888.1 1885.002 1881.764 1877.901 1868.066 1864.839 1862.597 1860.33 1855.714 1852.243 1848.075 1843.465 1840.192 1834.052 1831.201 1828.762 1826.631 1821.751 1819.645 1817.618 1815.564 1811.391 1809.441 1807.974 1806.819 1805.512 1801.53 1800.033 1798.364 1796.608 1794.387 1793.517 1792.596 1791.991 1791.606 1791.545 
1815.634 1816.181 1816.825 1817.917 1819.487 1822.891 1824.652 1826.517 1828.257 1829.673 1832.606 1834.385 1836.468 1838.388 1841.633 1843.19 1844.533 1845.705 1848.094 1849.22 1850.221 1851.086 1851.965 1853.781 1854.76 1855.873 1857.24 1859.965 1861.463 1863.022 1864.628 1866.248 1869.843 1871.785 1873.721 1875.749 1880.284 1882.882 1885.495 1887.804 1891.659 1893.415 1895.244 1897.135 1898.878 1902.057 1903.255 1903.802 1903.666 1902.863 1901.422 1899.419 1896.97 1891.904 1888.984 1885.739 1882.477 1878.781 1868.601 1865.148 1862.893 1860.55 1855.931 1852.243 1848.075 1844.243 1840.795 1833.922 1830.83 1828.351 1826.29 1821.397 1818.937 1817.049 1815.555 1813.037 1811.295 1809.553 1808.034 1806.523 1802.915 1801.352 1799.582 1797.649 1794.611 1793.675 1792.754 1791.974 1791.478 1791.337 
1815.483 1816.547 1817.362 1818.713 1820.62 1824.316 1826.025 1827.716 1829.42 1830.887 1833.702 1835.206 1836.946 1838.644 1841.694 1843.137 1844.312 1845.359 1847.248 1848.252 1849.218 1850.046 1850.841 1852.374 1853.105 1853.921 1855.024 1857.633 1859.107 1860.66 1862.266 1865.47 1867.207 1869.085 1871.045 1873.052 1877.295 1879.628 1882.103 1884.486 1888.708 1890.601 1892.402 1894.233 1896.063 1899.527 1900.613 1901.126 1901.387 1901.511 1900.405 1898.755 1897.075 1892.749 1889.956 1886.694 1883.236 1879.408 1869.078 1865.296 1862.911 1860.55 1855.931 1852.68 1848.788 1845.087 1841.527 1833.677 1830.469 1828.202 1826.245 1821.295 1818.841 1817.488 1816.819 1814.909 1813.149 1811.107 1809.19 1807.696 1804.284 1802.747 1800.84 1798.617 1794.973 1793.882 1792.925 1792.09 1791.164 1790.981 
1815.741 1816.999 1818.219 1819.945 1821.997 1825.935 1827.718 1829.347 1830.762 1833.441 1834.827 1836.22 1837.568 1838.897 1841.824 1843.176 1844.213 1845.08 1846.657 1847.407 1848.194 1848.986 1849.655 1850.98 1851.67 1852.393 1853.167 1855.258 1856.7 1858.35 1859.94 1863.051 1864.723 1866.431 1868.236 1870.259 1874.3 1876.58 1878.917 1881.149 1885.366 1887.466 1889.491 1891.414 1893.156 1896.323 1897.39 1898.326 1899.098 1899.54 1898.912 1898.123 1896.97 1893.619 1890.998 1887.733 1883.985 1880.063 1869.575 1865.296 1862.911 1860.507 1855.586 1852.548 1849.012 1845.541 1837.821 1833.319 1830.13 1828.432 1827.081 1822.687 1820.482 1819.56 1818.944 1816.867 1814.952 1812.847 1810.928 1809.273 1805.677 1804.115 1802.08 1799.61 1795.32 1794.05 1793.159 1792.183 1790.871 1790.606 
1816.258 1817.809 1819.309 1821.382 1823.576 1827.911 1829.634 1830.969 1832.104 1834.355 1835.519 1836.761 1838.105 1839.423 1841.915 1843.164 1844.073 1844.818 1846.118 1846.672 1847.227 1847.813 1848.411 1849.656 1850.271 1850.956 1851.665 1853.376 1854.58 1856.013 1857.646 1860.774 1862.367 1863.994 1865.61 1867.281 1871.094 1873.253 1875.509 1877.64 1881.72 1883.881 1886.033 1888.165 1892.024 1893.348 1894.68 1896.018 1896.599 1897.328 1897.485 1897.247 1896.561 1894.236 1892.24 1888.87 1884.479 1880.109 1869.575 1865.553 1862.794 1859.986 1855.023 1852.053 1848.794 1845.519 1838.151 1833.406 1829.977 1828.583 1827.306 1824.501 1822.866 1821.319 1820.606 1818.085 1816.308 1814.397 1812.489 1810.644 1807.127 1805.456 1803.269 1800.521 1795.671 1794.242 1793.203 1792.167 1790.52 1790.082 
1816.79 1819.002 1820.91 1823.01 1825.238 1829.582 1831.099 1832.072 1833.016 1834.822 1835.897 1837.065 1838.293 1839.608 1841.832 1842.88 1843.748 1844.442 1845.446 1845.956 1846.345 1846.72 1847.704 1848.269 1848.842 1849.463 1850.182 1851.718 1852.733 1853.971 1855.426 1858.502 1859.987 1861.472 1863.008 1864.522 1867.66 1869.591 1871.679 1873.816 1878.098 1880.154 1882.14 1884.244 1888.743 1890.492 1891.813 1892.942 1893.962 1895.3 1895.657 1895.961 1895.931 1894.596 1893.091 1889.77 1884.479 1880.109 1869.734 1865.511 1862.279 1859.068 1853.988 1851.539 1848.485 1844.775 1838.275 1834.483 1831.316 1829.682 1828.344 1826.172 1824.535 1822.915 1821.751 1818.924 1817.275 1815.496 1813.531 1809.938 1808.07 1806.342 1804.028 1801.153 1796.046 1794.407 1793.176 1792.101 1790.183 1789.347 
1818.484 1820.131 1822.2 1824.367 1826.588 1830.458 1831.723 1832.631 1833.394 1834.971 1835.926 1837.024 1838.071 1839.158 1841.425 1842.312 1843.141 1843.746 1844.677 1845.053 1845.383 1845.7 1846.398 1846.775 1847.171 1847.663 1848.333 1849.971 1851.002 1852.079 1853.329 1856.183 1857.589 1859.029 1860.473 1863.278 1864.704 1866.08 1867.643 1869.831 1874.147 1876.234 1878.041 1879.641 1883.925 1886.047 1887.983 1889.739 1891.096 1892.899 1893.635 1894.506 1895.001 1894.647 1893.091 1889.77 1884.831 1874.429 1869.068 1864.693 1861.13 1857.368 1852.475 1850.552 1847.842 1844.248 1839.344 1837.199 1834.708 1832.102 1830.376 1827.862 1826.373 1824.578 1822.83 1819.652 1817.996 1816.262 1814.404 1810.664 1808.62 1806.837 1804.538 1801.725 1796.428 1794.653 1793.274 1792.046 1789.541 1788.475 
1819.766 1821.333 1823.169 1825.471 1827.607 1831.022 1831.962 1832.771 1833.491 1834.908 1835.651 1836.527 1837.52 1839.567 1840.569 1841.5 1842.273 1842.87 1843.777 1844.013 1844.276 1844.531 1845.034 1845.283 1845.53 1845.84 1846.295 1847.618 1848.718 1849.925 1851.182 1853.792 1855.191 1856.632 1858.055 1860.682 1862.008 1863.364 1864.717 1866.179 1869.986 1872.041 1873.942 1875.638 1878.741 1880.817 1883.256 1885.503 1887.423 1890.489 1891.65 1892.699 1893.721 1894.647 1893.195 1889.88 1884.866 1873.894 1868.489 1864.383 1860.789 1856.05 1852.074 1850.686 1848.662 1845.659 1841.882 1840.473 1838.291 1835.186 1831.04 1829.506 1827.794 1825.839 1823.848 1820.295 1818.512 1816.771 1815.039 1811.242 1809.169 1807.304 1805.028 1802.31 1796.861 1794.911 1793.294 1791.817 1788.593 1787.296 
1821.098 1822.517 1824.148 1826.337 1828.212 1831.153 1831.856 1832.581 1833.314 1834.581 1835.156 1835.832 1836.701 1838.449 1839.473 1840.425 1841.12 1841.757 1842.665 1842.838 1843.021 1843.251 1843.655 1843.823 1843.961 1844.068 1844.254 1845.2 1846.147 1847.295 1848.654 1851.324 1852.76 1854.251 1855.661 1858.28 1859.492 1860.704 1861.989 1863.338 1866.278 1868.061 1870.108 1871.91 1875.042 1876.824 1878.982 1881.142 1884.934 1886.766 1888.447 1892.699 1893.721 1894.579 1893.192 1890.044 1885.044 1874.26 1869.17 1865.052 1861.728 1857.659 1853.015 1851.636 1850.574 1848.786 1844.779 1843.478 1841.36 1838.201 1832.878 1830.789 1828.671 1826.646 1824.526 1820.754 1818.899 1817.191 1815.6 1811.84 1809.73 1807.787 1805.491 1802.876 1797.343 1795.247 1793.367 1791.657 1787.333 1785.258 
1821.583 1823.304 1825.154 1826.865 1828.317 1830.903 1831.589 1832.229 1832.877 1833.982 1834.466 1835.04 1835.677 1837.129 1838.061 1838.946 1839.682 1840.316 1841.096 1841.212 1841.382 1841.616 1842.017 1842.124 1842.153 1842.14 1842.311 1842.769 1843.593 1844.622 1845.783 1848.511 1850.027 1851.592 1853.087 1855.97 1857.161 1858.234 1859.359 1860.621 1863.435 1864.943 1866.722 1868.663 1871.598 1873.372 1875.338 1877.1 1880.553 1886.766 1888.447 1889.865 1891.095 1892.996 1892.611 1890.19 1885.898 1876.336 1871.263 1866.648 1863.444 1860.554 1854.487 1853.393 1852.959 1851.588 1847.199 1845.385 1843.087 1840.044 1834.014 1831.404 1829.08 1827.095 1824.973 1821.046 1819.269 1817.658 1816.203 1812.259 1809.988 1807.986 1805.639 1800.269 1797.772 1795.585 1793.323 1791.056 1786.46 1783.897 
1822.045 1823.695 1825.497 1827.263 1829.753 1830.694 1831.295 1831.827 1832.339 1833.405 1833.755 1834.056 1834.493 1835.669 1836.469 1837.333 1838.053 1838.626 1839.369 1839.525 1839.61 1839.786 1840.037 1840.094 1840.143 1840.187 1840.397 1840.769 1841.333 1842.045 1842.949 1845.426 1846.946 1848.628 1850.281 1853.268 1854.497 1855.661 1856.839 1858.015 1860.665 1862.26 1863.947 1865.536 1867.982 1869.657 1871.608 1877.1 1880.553 1882.441 1884.277 1885.986 1887.541 1890.157 1890.256 1889.138 1886.655 1879.65 1875.25 1870.007 1865.854 1859.755 1857.227 1856.255 1855.643 1854.044 1849.289 1846.837 1844.272 1841.425 1834.931 1831.96 1829.524 1827.539 1825.465 1821.304 1819.586 1817.984 1816.46 1812.302 1809.985 1807.984 1805.72 1800.542 1797.997 1795.635 1793.305 1791.108 1786.042 1783.855 
1822.221 1823.786 1825.351 1826.871 1829.359 1830.235 1830.886 1831.421 1831.94 1832.749 1832.988 1833.147 1833.369 1834.227 1834.957 1835.737 1836.299 1836.789 1837.544 1837.773 1837.844 1837.853 1838.075 1838.128 1838.158 1838.139 1838.421 1838.836 1839.297 1839.806 1840.529 1842.309 1843.699 1845.52 1847.244 1850.193 1851.518 1852.77 1854.01 1856.582 1858.027 1859.488 1860.963 1862.327 1864.613 1866.167 1871.608 1873.491 1876.727 1878.25 1879.833 1881.503 1883.109 1885.784 1886.554 1886.615 1885.987 1882.315 1878.315 1872.515 1867.008 1862.861 1860.753 1859.05 1857.845 1855.99 1851.198 1848.433 1845.642 1842.735 1836.052 1832.797 1830.114 1827.969 1825.875 1821.686 1819.787 1818.124 1816.436 1812.267 1809.946 1807.898 1805.662 1800.523 1797.887 1795.466 1793.113 1790.902 1786.13 1784.138 
1822.125 1823.464 1824.81 1826.115 1828.498 1829.423 1830.254 1830.864 1831.428 1832.218 1832.277 1832.181 1832.353 1832.863 1833.404 1834.094 1834.625 1835.364 1835.636 1835.835 1835.945 1835.979 1836.014 1836.089 1836.111 1836.094 1836.413 1836.729 1837.183 1837.716 1838.265 1840.018 1841.232 1842.736 1844.309 1847.088 1848.431 1849.74 1851.008 1853.755 1855.333 1856.808 1858.022 1859.252 1864.613 1866.167 1868.049 1869.913 1873.157 1874.608 1875.94 1877.261 1878.639 1881.374 1882.45 1882.922 1883.086 1882.058 1879.158 1874.724 1869.664 1865.436 1863.538 1861.582 1859.792 1857.745 1853.145 1850.264 1847.182 1844.104 1837.349 1833.794 1830.724 1828.319 1824.252 1822.168 1820.091 1818.27 1816.562 1812.258 1809.964 1807.849 1805.62 1800.764 1798.071 1795.4 1793.023 1790.732 1786.24 1783.964 
1821.624 1822.794 1824.018 1825.151 1827.381 1828.311 1829.272 1830.1 1830.599 1831.156 1831.187 1831.093 1831.202 1831.579 1831.897 1832.38 1832.795 1833.498 1833.731 1833.859 1833.981 1834.043 1834.037 1833.966 1833.947 1833.931 1834.097 1834.256 1834.602 1835.125 1835.591 1837.642 1838.806 1840.152 1841.4 1844.024 1845.413 1846.744 1848.084 1850.876 1852.521 1854.004 1858.022 1859.252 1861.758 1863.307 1865.014 1866.731 1869.779 1871.063 1872.275 1873.526 1876.134 1877.471 1878.675 1879.693 1880.549 1880.471 1878.751 1876.061 1872.762 1867.852 1866.037 1863.883 1861.725 1859.554 1855.139 1852.398 1849.114 1845.686 1838.687 1834.965 1831.52 1828.758 1824.622 1822.503 1820.34 1818.408 1816.675 1812.212 1810.018 1807.98 1805.749 1801.006 1798.274 1795.649 1793.532 1789.584 1787.281 1784.851 
1820.799 1821.846 1822.917 1823.963 1825.929 1826.966 1827.992 1828.729 1829.177 1829.573 1829.691 1829.769 1829.836 1830.27 1830.505 1830.773 1831.025 1831.564 1831.821 1831.999 1832.108 1832.089 1832.033 1832.011 1831.936 1831.764 1831.816 1831.952 1832.096 1832.33 1833.608 1834.774 1836.103 1837.428 1838.683 1841.198 1842.447 1843.729 1845.05 1847.704 1849.145 1854.004 1855.167 1856.355 1858.733 1860.151 1861.781 1863.407 1866.55 1867.809 1868.721 1869.521 1871.632 1873.051 1874.535 1875.878 1877.039 1877.999 1877.199 1875.619 1873.132 1869.365 1867.703 1865.628 1863.379 1858.927 1856.865 1854.563 1851.497 1847.666 1840.205 1836.434 1832.657 1829.466 1825.136 1822.909 1820.636 1818.594 1816.698 1812.345 1810.181 1808.259 1806.128 1801.618 1799.314 1797.047 1795.117 1791.076 1788.844 1786.593 
1819.868 1820.759 1821.689 1822.637 1824.293 1825.168 1826.035 1826.723 1827.639 1827.795 1827.95 1828.141 1828.255 1828.608 1828.805 1828.948 1829.113 1829.633 1829.919 1830.142 1830.17 1830.141 1830.08 1830.075 1829.948 1829.605 1829.582 1829.627 1829.698 1829.801 1830.84 1832.032 1833.241 1834.506 1835.759 1838.277 1839.543 1840.809 1842.037 1847.704 1849.145 1850.512 1851.865 1854.444 1855.72 1856.961 1858.191 1859.615 1862.741 1864.026 1864.858 1865.479 1866.941 1868.234 1869.848 1871.411 1872.789 1874.457 1874.198 1873.659 1872.019 1869.825 1868.441 1866.511 1864.369 1860.271 1858.386 1856.461 1853.914 1850.235 1841.838 1838.014 1834.135 1830.662 1825.719 1823.31 1820.876 1818.789 1816.801 1812.367 1810.43 1808.572 1806.56 1802.431 1800.337 1798.313 1796.702 1793.254 1791.076 1788.59 
1818.81 1819.609 1820.455 1821.28 1822.619 1823.276 1823.936 1824.531 1825.457 1825.72 1825.965 1826.172 1826.374 1826.79 1826.929 1826.993 1827.144 1827.696 1827.884 1827.998 1828.027 1827.965 1827.871 1827.8 1827.728 1827.526 1827.338 1827.344 1827.407 1827.565 1828.547 1829.365 1830.441 1831.689 1832.86 1835.373 1836.632 1840.809 1842.037 1844.203 1845.411 1846.718 1848.047 1850.81 1852.266 1853.549 1854.646 1855.79 1858.231 1859.449 1860.548 1861.441 1863.092 1864.22 1865.651 1867.152 1868.513 1870.605 1870.678 1870.741 1870.681 1869.842 1868.81 1866.976 1864.972 1861.203 1859.472 1857.865 1855.77 1852.814 1843.529 1839.635 1835.868 1832.032 1826.371 1823.788 1821.063 1818.636 1814.281 1812.223 1810.439 1808.752 1806.848 1803.029 1801.131 1799.388 1798.085 1794.73 1792.707 1790.3 
1817.767 1818.499 1819.259 1819.969 1820.902 1821.335 1821.889 1822.438 1823.252 1823.534 1823.781 1824.049 1824.254 1824.825 1824.985 1825.054 1825.272 1825.618 1825.67 1825.737 1825.757 1825.672 1825.612 1825.517 1825.464 1825.358 1825.337 1825.184 1825.143 1825.376 1826.29 1826.999 1827.93 1828.948 1830.061 1835.373 1836.632 1837.869 1839.029 1841.004 1841.921 1842.956 1844.161 1846.769 1848.135 1849.461 1850.758 1851.964 1854.17 1855.322 1856.36 1857.394 1859.519 1860.691 1862.022 1863.413 1866.054 1867.041 1867.695 1868.147 1868.486 1868.816 1868.218 1866.809 1865.049 1861.35 1859.823 1858.414 1856.603 1854.367 1845.829 1841.861 1838.144 1834.088 1827.322 1824.562 1821.519 1818.532 1813.624 1811.767 1810.102 1808.55 1806.741 1803.147 1801.375 1799.625 1798.167 1794.807 1793.053 1791.122 
1816.772 1817.383 1818.004 1818.339 1819.138 1819.499 1819.85 1820.207 1820.85 1821.102 1821.331 1821.64 1821.99 1822.731 1822.978 1823.106 1823.316 1823.451 1823.412 1823.324 1823.289 1823.111 1823.124 1823.173 1823.22 1823.275 1823.275 1823.154 1822.986 1822.786 1823.212 1823.928 1824.903 1825.932 1831.312 1832.528 1833.7 1834.877 1836.043 1838.161 1839.049 1839.904 1840.796 1842.762 1843.946 1845.288 1846.791 1848.171 1850.577 1851.619 1852.63 1853.657 1855.793 1856.931 1858.159 1859.438 1861.994 1863.098 1864.139 1864.917 1865.159 1865.872 1865.495 1864.668 1863.578 1860.281 1859.088 1858.085 1857.015 1855.193 1848.141 1844.47 1840.853 1836.697 1828.817 1825.617 1822.335 1818.997 1813.11 1811.014 1809.435 1807.955 1806.211 1802.624 1800.858 1799.141 1797.588 1794.231 1792.706 1791.139 
1815.684 1816.178 1816.552 1816.838 1817.327 1817.559 1817.8 1818.04 1818.527 1818.693 1818.932 1819.238 1820.111 1820.557 1820.891 1821.134 1821.266 1821.416 1821.354 1821.157 1820.806 1820.513 1820.574 1820.748 1820.974 1821.193 1821.336 1821.122 1820.793 1820.405 1819.776 1820.227 1824.903 1825.932 1828.5 1829.722 1830.926 1832.1 1833.193 1835.396 1836.331 1837.175 1838.013 1839.676 1840.519 1841.668 1843.129 1844.514 1847.163 1848.214 1849.202 1850.224 1852.215 1853.229 1854.27 1855.367 1857.662 1858.79 1859.88 1860.766 1861.013 1861.515 1861.281 1860.69 1859.995 1858.59 1857.971 1857.273 1856.457 1853.023 1849.9 1846.644 1843.469 1839.771 1830.643 1826.985 1823.457 1819.633 1812.784 1810.42 1808.794 1807.325 1805.66 1802.084 1800.223 1798.151 1796.179 1793.197 1791.983 1790.594 
1814.245 1814.615 1814.835 1815.03 1815.413 1815.385 1815.515 1815.732 1816.145 1816.383 1816.658 1816.971 1818.038 1818.479 1818.812 1819.082 1819.291 1819.571 1819.414 1819.074 1818.618 1817.946 1818.08 1818.444 1818.818 1819.12 1819.341 1818.982 1818.518 1818.074 1819.776 1820.227 1821.366 1822.805 1825.581 1826.852 1828.133 1829.378 1830.571 1832.987 1833.83 1834.629 1835.413 1837.049 1837.949 1838.973 1840.073 1842.644 1843.89 1844.912 1845.852 1846.83 1848.747 1849.71 1850.643 1851.569 1853.6 1854.754 1855.68 1856.18 1856.38 1857.058 1856.931 1856.357 1856.039 1855.756 1855.545 1855.339 1854.867 1852.438 1850.507 1847.83 1845.07 1842.446 1833.276 1828.782 1824.771 1820.43 1812.628 1810.075 1808.348 1806.801 1803.302 1801.532 1799.426 1796.852 1794.351 1791.919 1790.983 1789.988 
1812.684 1812.918 1813.009 1813.094 1812.877 1812.788 1812.835 1813.043 1813.556 1813.853 1814.179 1814.714 1815.868 1816.36 1816.742 1817.023 1817.31 1817.674 1817.529 1817.089 1816.574 1816.017 1816.091 1816.383 1816.745 1817.435 1817.284 1816.786 1816.357 1818.074 1817.116 1817.185 1818.168 1819.661 1822.63 1823.956 1825.218 1826.557 1828.028 1830.673 1831.418 1832.134 1832.919 1834.562 1835.401 1836.32 1837.387 1839.662 1840.713 1841.642 1842.55 1843.489 1845.317 1846.254 1847.116 1847.889 1849.629 1850.617 1851.395 1851.82 1852.553 1852.917 1852.931 1852.586 1852.435 1852.406 1852.27 1852.192 1852.02 1850.87 1849.547 1848.071 1847.008 1844.758 1836.652 1831.217 1826.629 1821.964 1813.255 1810.342 1808.422 1806.752 1803.132 1801.07 1798.928 1796.7 1794.45 1791.418 1790.448 1789.401 
1810.964 1811.077 1811.052 1810.934 1810.27 1809.568 1809.552 1809.786 1810.376 1810.894 1811.549 1812.163 1813.645 1814.185 1814.62 1815.07 1815.435 1815.521 1815.426 1815.157 1814.719 1814.235 1814.305 1814.46 1814.664 1814.93 1814.776 1816.786 1816.357 1815.934 1815.361 1815.493 1816.11 1817.128 1819.776 1821.038 1822.388 1823.822 1826.662 1827.789 1828.676 1829.501 1830.317 1831.981 1832.798 1833.68 1834.597 1836.57 1837.531 1838.441 1839.313 1840.211 1842.007 1842.898 1843.567 1844.1 1845.521 1846.248 1846.965 1847.592 1848.462 1848.664 1848.672 1848.581 1848.622 1848.626 1848.609 1848.537 1848.407 1847.785 1847.527 1847.114 1846.627 1845.459 1838.661 1833.559 1828.849 1824.166 1814.812 1811.334 1808.9 1806.854 1803.041 1800.94 1798.995 1797.122 1795.047 1791.601 1790.346 1789.14 
1809.335 1809.272 1809.007 1808.299 1807.795 1807.184 1806.769 1806.694 1807.22 1807.857 1808.61 1809.462 1811.107 1811.841 1812.489 1812.979 1813.508 1813.581 1813.426 1813.105 1812.752 1812.353 1812.327 1812.341 1812.439 1814.93 1814.776 1814.456 1814.108 1813.779 1813.485 1813.707 1814.292 1815.079 1817.068 1818.251 1819.588 1820.886 1823.548 1824.69 1825.67 1826.61 1827.512 1829.201 1830.041 1830.904 1831.761 1833.495 1834.416 1835.277 1836.05 1836.864 1838.593 1839.374 1840.014 1840.552 1841.613 1842.18 1842.797 1843.43 1844.107 1844.211 1844.291 1844.364 1844.465 1844.558 1844.666 1844.883 1844.91 1844.391 1844.521 1844.836 1844.811 1842.616 1839.465 1835.086 1830.622 1826.01 1816.571 1812.599 1809.533 1806.957 1802.858 1800.985 1799.317 1797.606 1795.699 1792.037 1790.561 1789.14 
1807.454 1807.075 1806.714 1805.859 1805.586 1805.281 1805.024 1804.921 1805.033 1805.368 1805.955 1806.841 1808.74 1809.607 1810.335 1810.917 1811.555 1811.636 1811.45 1811.063 1810.655 1810.005 1810.054 1812.341 1812.439 1812.51 1812.412 1812.113 1811.847 1811.597 1811.199 1811.398 1811.992 1812.728 1814.64 1815.759 1816.917 1818.084 1820.522 1821.61 1822.599 1823.531 1824.422 1826.192 1827.073 1827.97 1828.832 1830.603 1831.448 1832.152 1832.795 1834.336 1835.1 1835.806 1836.481 1837.087 1838.087 1838.521 1838.964 1839.471 1840.04 1840.086 1840.141 1840.242 1840.339 1840.592 1840.834 1841.255 1841.398 1841.103 1841.307 1841.76 1842.008 1839.778 1837.613 1834.666 1830.861 1826.951 1818.354 1814.219 1810.346 1807.185 1802.966 1801.083 1799.453 1797.956 1796.126 1792.037 1790.561 1789.073 
1805.989 1805.561 1805.09 1804.536 1804.272 1804.002 1803.766 1803.663 1803.657 1803.925 1804.305 1804.956 1806.818 1807.745 1808.474 1809.081 1809.849 1809.936 1809.736 1809.169 1808.371 1807.729 1810.054 1810.042 1810.093 1810.13 1810.053 1809.814 1809.555 1808.967 1808.619 1808.614 1809.092 1809.918 1812.22 1813.349 1814.451 1815.572 1817.736 1818.722 1819.709 1820.563 1821.227 1823.048 1824.01 1824.928 1825.78 1827.565 1828.361 1829.024 1829.682 1831.04 1831.704 1832.395 1833.135 1833.733 1834.637 1834.992 1835.263 1835.466 1835.803 1835.814 1835.859 1835.984 1836.146 1836.445 1836.687 1836.876 1836.979 1837.221 1837.457 1837.645 1837.552 1836.861 1835.555 1833.678 1831.205 1827.61 1819.636 1815.526 1811.04 1807.593 1803.078 1801.16 1799.612 1797.956 1794.17 1792.353 1790.703 1789.105 
1804.739 1804.339 1803.813 1803.206 1803.019 1802.699 1802.519 1802.355 1802.478 1802.638 1802.929 1803.497 1805.105 1806.042 1806.94 1807.652 1808.714 1808.751 1808.349 1807.572 1808.371 1807.729 1807.784 1807.818 1807.956 1808.109 1808.071 1807.856 1807.536 1806.65 1806.149 1806.017 1806.456 1807.307 1809.657 1810.777 1811.873 1812.957 1815.044 1815.995 1816.903 1817.609 1818.13 1819.868 1820.854 1821.846 1822.752 1824.351 1825.081 1825.784 1826.469 1827.767 1828.409 1829.063 1829.797 1830.473 1831.308 1831.54 1831.63 1831.598 1831.552 1831.498 1831.431 1831.416 1831.794 1831.969 1832.109 1832.24 1832.429 1832.792 1832.951 1833.042 1833.102 1832.654 1832.388 1832.014 1830.758 1828.117 1820.766 1816.69 1812.306 1808.357 1803.541 1801.36 1799.612 1798.024 1794.269 1792.377 1790.743 1789.219 
1803.468 1803.025 1802.591 1801.792 1801.554 1801.341 1801.107 1800.974 1801.008 1801.17 1801.481 1802.096 1803.409 1804.346 1805.295 1806.179 1807.351 1807.45 1808.349 1807.572 1806.615 1805.305 1805.433 1805.58 1805.706 1805.881 1805.959 1805.75 1805.238 1804.173 1803.604 1803.506 1803.988 1804.846 1807.124 1808.2 1809.292 1810.321 1812.311 1813.208 1814.035 1814.736 1816.156 1817.013 1817.891 1818.786 1819.678 1821.162 1821.801 1822.477 1823.17 1824.417 1825.041 1825.674 1826.319 1826.891 1827.616 1827.815 1827.883 1827.884 1827.77 1827.698 1827.655 1827.675 1827.827 1827.939 1828.004 1828.065 1828.189 1828.443 1828.654 1828.802 1828.858 1828.857 1828.917 1829.087 1828.732 1826.724 1820.816 1817.431 1813.481 1809.291 1803.541 1801.36 1799.583 1797.917 1794.079 1792.236 1790.642 1789.189 
1802.224 1801.789 1801.364 1800.573 1800.173 1799.821 1799.632 1799.127 1799.067 1799.178 1799.423 1799.892 1801.536 1802.395 1803.398 1804.438 1805.804 1807.45 1807.112 1806.264 1803.766 1802.983 1802.772 1802.798 1802.873 1802.831 1802.786 1802.498 1801.934 1801.11 1800.7 1800.728 1801.428 1802.358 1804.653 1805.817 1806.951 1807.974 1809.727 1810.498 1811.26 1812.045 1813.509 1814.354 1815.183 1815.981 1816.848 1818.14 1818.654 1819.189 1819.845 1821.096 1821.683 1822.191 1822.621 1823.023 1823.659 1823.846 1824.008 1824.098 1824.122 1824.126 1824.13 1824.152 1824.226 1824.199 1824.142 1824.11 1824.081 1824.265 1824.38 1824.438 1824.401 1824.428 1824.568 1824.648 1824.803 1822.559 1820.277 1817.832 1813.481 1809.291 1804.361 1801.817 1799.504 1797.376 1793.43 1791.806 1790.377 1789.026 
1801.062 1800.537 1800.04 1799.292 1798.807 1798.308 1797.886 1796.997 1796.745 1796.744 1796.864 1797.397 1798.906 1799.938 1801.024 1804.438 1805.804 1805.876 1805.587 1804.75 1801.817 1800.694 1799.958 1799.542 1799.261 1798.737 1798.681 1798.558 1798.237 1797.331 1796.898 1797.115 1798.465 1801.115 1802.313 1803.498 1804.585 1805.559 1807.242 1807.92 1808.564 1809.312 1810.873 1811.747 1812.592 1813.369 1814.121 1815.347 1815.823 1816.335 1816.829 1817.871 1818.466 1818.849 1818.931 1819.455 1819.694 1819.892 1820.067 1820.18 1820.471 1820.602 1820.761 1820.847 1820.865 1820.655 1820.323 1820.075 1819.959 1819.92 1819.902 1819.855 1819.663 1819.586 1819.84 1820.151 1820.334 1820.111 1819.63 1817.832 1814.07 1809.925 1805.106 1802.303 1799.404 1796.671 1792.726 1791.225 1789.972 1788.865 
1799.729 1799.227 1798.794 1797.832 1797.422 1796.954 1796.336 1795.19 1794.989 1794.852 1794.804 1795.819 1796.523 1799.938 1801.024 1802.031 1803.346 1803.443 1803.209 1802.448 1799.469 1797.765 1796.508 1795.801 1795.182 1794.7 1794.8 1794.854 1794.776 1793.803 1793.44 1793.95 1795.58 1798.703 1799.877 1800.998 1802.047 1803.023 1804.773 1805.412 1805.889 1806.56 1808.288 1809.131 1809.931 1810.692 1811.38 1812.586 1813.125 1813.66 1814.109 1814.973 1815.403 1815.647 1815.737 1816.011 1816.148 1816.281 1816.405 1816.52 1816.822 1816.968 1817.084 1817.281 1817.299 1816.852 1816.308 1815.83 1815.452 1815.361 1815.313 1815.212 1815.046 1815.129 1815.511 1815.852 1816.173 1820.111 1819.63 1817.804 1814.561 1810.439 1805.487 1802.361 1799.04 1795.977 1792.107 1790.801 1789.659 1788.543 
1798.381 1797.888 1797.46 1796.545 1796.081 1795.617 1795.026 1793.666 1793.196 1792.977 1792.78 1795.819 1796.523 1797.308 1798.157 1799.046 1800.131 1800.366 1800.479 1800.068 1796.709 1794.747 1793.51 1792.944 1792.502 1792.08 1792.15 1792.193 1792.184 1791.66 1791.582 1792.148 1793.476 1796.329 1797.348 1798.37 1799.396 1800.425 1802.183 1802.844 1803.47 1804.212 1805.774 1806.574 1807.391 1808.236 1809.713 1810.218 1810.618 1811.038 1811.433 1812.077 1812.344 1812.548 1812.738 1812.926 1812.972 1813.023 1813.069 1813.107 1813.036 1812.979 1812.925 1812.837 1812.146 1811.718 1811.309 1810.958 1810.405 1810.263 1810.289 1810.405 1810.516 1810.852 1810.972 1815.852 1816.173 1816.77 1817.197 1816.678 1814.244 1810.662 1805.788 1802.307 1798.715 1795.466 1791.791 1790.513 1789.389 1788.299 
1797.186 1796.744 1796.151 1795.125 1794.779 1794.303 1793.692 1792.33 1791.764 1791.401 1792.78 1793.529 1794.075 1794.675 1795.336 1795.965 1796.976 1797.385 1797.628 1797.749 1794.739 1792.854 1791.753 1791.169 1790.623 1790.501 1790.431 1790.329 1790.188 1789.993 1790.179 1790.877 1792.074 1794.089 1794.906 1795.887 1796.932 1797.965 1799.706 1800.492 1801.25 1801.983 1803.524 1804.278 1805.043 1805.85 1807.365 1807.901 1808.223 1808.513 1808.754 1809.206 1809.429 1809.617 1809.732 1809.841 1809.788 1809.687 1809.656 1809.61 1809.157 1808.809 1808.386 1807.894 1806.676 1806.232 1806 1805.72 1805.192 1804.98 1805.091 1805.508 1805.776 1810.852 1810.972 1811.1 1811.288 1812.048 1812.493 1812.587 1811.762 1808.085 1806.158 1802.956 1799.24 1795.989 1791.991 1790.581 1789.332 1788.184 
1796.251 1795.71 1794.499 1794.11 1793.706 1793.119 1792.374 1791.008 1791.764 1791.401 1791.277 1791.713 1791.949 1792.252 1792.684 1793.225 1794.829 1795.555 1796.011 1796.025 1793.9 1792.031 1790.586 1789.899 1789.218 1789.005 1788.787 1788.551 1788.293 1788.023 1788.335 1789.062 1789.968 1791.396 1792.327 1793.493 1794.633 1795.598 1797.476 1798.299 1799.073 1799.844 1801.441 1802.152 1802.806 1803.545 1805.042 1805.481 1805.767 1806.032 1806.163 1806.433 1806.561 1806.725 1806.911 1806.799 1806.621 1806.443 1806.311 1805.91 1805.542 1805.016 1804.433 1803.781 1802.376 1801.803 1801.355 1800.992 1800.432 1800.35 1800.417 1800.671 1805.776 1806.152 1806.112 1806.027 1805.94 1806.356 1806.863 1807.41 1807.93 1807.329 1806.158 1803.645 1800.388 1797.079 1792.351 1790.838 1789.458 1788.064 
1795.306 1794.701 1793.408 1792.797 1792.189 1791.6 1792.374 1791.008 1790.443 1790.063 1789.836 1789.78 1789.796 1789.947 1790.296 1790.82 1792.42 1793.513 1794.385 1794.684 1793.073 1791.402 1789.849 1788.907 1787.922 1787.583 1787.275 1786.996 1786.6 1785.764 1785.62 1785.775 1786.51 1788.642 1789.804 1791.056 1792.237 1794.399 1795.404 1796.329 1797.131 1797.853 1799.399 1800.067 1800.722 1801.45 1802.654 1803.01 1803.257 1803.472 1803.667 1803.924 1804.059 1804.173 1804.223 1804.028 1803.813 1803.614 1803.401 1802.764 1802.29 1801.661 1800.891 1799.989 1798.061 1797.329 1796.813 1796.312 1795.658 1795.678 1800.417 1800.671 1801.01 1801.57 1801.694 1801.749 1801.859 1802.479 1803.198 1803.818 1804.326 1804.998 1804.304 1803.171 1801.163 1797.952 1792.854 1791.179 1789.646 1787.974 
1794.394 1793.777 1792.166 1791.406 1790.771 1791.6 1791.009 1789.687 1789.079 1788.626 1788.296 1787.491 1787.179 1787.056 1787.196 1788.276 1789.248 1790.565 1791.804 1792.327 1791.674 1790.153 1788.588 1787.65 1786.652 1786.3 1785.994 1785.728 1785.255 1783.7 1783.023 1782.611 1782.906 1786.047 1787.429 1788.704 1789.89 1792.134 1793.245 1794.282 1795.165 1795.971 1797.456 1798.058 1798.603 1799.106 1800.061 1800.48 1800.781 1800.976 1801.183 1801.489 1801.572 1801.669 1801.635 1801.44 1801.238 1800.983 1800.609 1799.741 1799.101 1798.318 1797.374 1796.242 1793.974 1793.246 1792.889 1792.589 1795.658 1795.678 1795.719 1795.832 1796.484 1796.879 1797.391 1797.932 1798.434 1799.579 1800.255 1800.791 1801.456 1801.769 1801.332 1801.388 1800.264 1798.038 1793.588 1791.615 1789.754 1787.847 
1793.525 1792.724 1790.946 1791.406 1790.771 1790.16 1789.49 1788.292 1787.685 1787.063 1786.451 1785.291 1784.653 1783.96 1783.37 1784.108 1785.191 1786.319 1787.195 1787.821 1788.276 1787.532 1786.727 1786.162 1785.431 1785.248 1785.043 1784.665 1784.117 1782.297 1781.28 1780.541 1780.594 1783.501 1785.096 1786.422 1787.598 1789.802 1790.893 1791.942 1793.01 1794.067 1795.566 1796.056 1796.514 1796.904 1797.685 1798.026 1798.318 1798.588 1799.007 1799.167 1799.258 1799.285 1799.246 1798.96 1798.723 1798.387 1797.921 1796.784 1796.143 1795.321 1794.261 1793.206 1791.916 1791.441 1791.082 1792.589 1792.122 1792.057 1792.04 1792.071 1792.296 1792.82 1793.663 1794.516 1795.321 1796.506 1797.153 1797.923 1798.659 1798.451 1798.292 1798.387 1797.938 1796.071 1794.184 1791.996 1789.825 1787.597 
1792.428 1792.724 1790.946 1790.15 1789.416 1788.733 1788.034 1786.638 1785.948 1785.315 1784.747 1783.504 1782.684 1781.74 1780.896 1780.767 1781.41 1781.972 1782.615 1783.799 1784.731 1784.652 1784.665 1784.386 1784.426 1784.379 1784.193 1783.724 1782.254 1781.218 1779.998 1779.057 1779.088 1781.414 1782.915 1784.353 1785.396 1787.11 1788.068 1789.227 1790.486 1791.582 1793.543 1794.142 1794.377 1794.668 1795.349 1795.632 1795.923 1796.215 1796.728 1796.889 1796.987 1796.992 1796.873 1796.586 1796.359 1796.005 1795.46 1794.122 1793.457 1792.848 1792.189 1790.937 1790.346 1791.441 1791.082 1790.702 1790.13 1790.032 1789.945 1789.899 1790.09 1790.355 1790.827 1791.486 1792.295 1793.448 1794.144 1794.832 1795.485 1795.288 1795.04 1795.364 1795.941 1796.302 1794.671 1792.168 1789.732 1787.023 
1792.428 1791.497 1789.72 1788.887 1788.069 1787.27 1785.638 1784.86 1784.172 1783.628 1783.131 1781.835 1780.881 1779.814 1778.933 1778.578 1778.736 1779.162 1780.009 1781.152 1782.702 1782.66 1782.626 1782.62 1783.406 1783.423 1783.152 1782.697 1781.022 1779.987 1778.909 1777.832 1777.776 1780 1781.202 1782.28 1783.146 1784.377 1785.097 1785.925 1786.922 1789.226 1790.267 1791.083 1791.635 1792.111 1792.936 1793.299 1793.641 1793.928 1794.449 1794.61 1794.709 1794.717 1794.601 1794.322 1794.109 1793.744 1793.15 1792.196 1791.742 1791.227 1790.708 1790.937 1790.346 1789.779 1789.303 1788.917 1788.183 1787.965 1787.826 1787.699 1787.662 1787.837 1788.263 1788.76 1789.333 1790.447 1791.057 1791.635 1792.226 1792.158 1792.084 1792.688 1793.679 1795.305 1794.637 1792.273 1788.784 1785.522 
1791.162 1790.227 1788.335 1787.512 1786.64 1785.719 1784.038 1783.24 1782.549 1781.974 1781.445 1779.983 1778.965 1777.902 1776.932 1776.018 1775.97 1776.349 1777.327 1779.622 1780.272 1780.423 1780.482 1780.734 1782.154 1782.296 1781.931 1781.185 1779.196 1777.812 1776.641 1775.756 1775.388 1777.654 1778.757 1779.963 1780.713 1781.657 1782.132 1782.677 1783.353 1785.1 1786.323 1787.57 1788.643 1789.514 1790.507 1790.955 1791.385 1791.748 1792.269 1792.432 1792.535 1792.551 1792.441 1792.224 1792.094 1791.872 1791.524 1790.593 1790.184 1791.227 1790.708 1789.469 1788.841 1788.325 1787.857 1787.291 1786.242 1785.796 1785.467 1785.229 1785.105 1785.278 1785.611 1786.037 1786.833 1787.291 1787.763 1788.259 1788.874 1789.035 1789.208 1790.08 1791.159 1792.538 1792.93 1791.528 1787.46 1783.052 
1789.693 1788.687 1786.741 1785.864 1784.997 1784.108 1782.467 1781.68 1780.921 1780.214 1779.564 1777.942 1776.944 1775.922 1774.866 1772.665 1772.277 1772.753 1773.934 1776.44 1777.215 1777.693 1778.083 1778.531 1779.981 1780.202 1779.879 1779.099 1777.036 1775.573 1773.894 1772.433 1772.064 1775.055 1776.444 1777.495 1778.236 1779.152 1779.56 1779.936 1780.347 1781.268 1782.535 1784.211 1785.537 1786.606 1788.153 1788.727 1789.187 1789.47 1789.984 1790.196 1790.39 1790.495 1790.382 1790.338 1790.253 1790.043 1789.789 1789.172 1790.184 1789.732 1789.211 1788.147 1787.561 1786.952 1786.311 1785.631 1784.417 1783.803 1783.346 1782.978 1782.808 1782.923 1783.147 1783.459 1784.053 1784.161 1784.401 1784.884 1785.532 1785.885 1786.239 1787.234 1788.31 1789.567 1789.839 1788.845 1785.773 1782.27 
1788.153 1787.175 1785.242 1784.32 1783.451 1782.627 1780.996 1780.172 1779.298 1778.466 1777.681 1775.92 1774.819 1773.694 1772.559 1769.945 1769.077 1769.37 1770.63 1773.196 1774.131 1774.808 1775.261 1775.659 1776.672 1776.576 1776.221 1775.99 1774.897 1773.693 1771.691 1769.598 1770.731 1772.447 1773.831 1774.854 1775.621 1776.627 1777.145 1777.527 1777.814 1778.986 1780.06 1781.397 1782.819 1784.068 1785.825 1786.441 1786.924 1787.287 1787.804 1788.016 1788.203 1788.336 1788.568 1788.521 1788.409 1788.308 1789.789 1789.172 1788.801 1788.408 1787.895 1786.908 1786.323 1785.651 1784.971 1784.26 1782.843 1782.169 1781.555 1781.073 1780.588 1780.734 1780.978 1781.154 1781.383 1781.379 1781.39 1781.751 1782.354 1782.804 1783.244 1784.135 1785.129 1786.187 1786.455 1785.932 1784.156 1781.29 
1786.52 1785.595 1783.736 1782.826 1781.994 1781.154 1779.359 1778.454 1777.564 1776.729 1774.874 1773.864 1772.751 1771.589 1770.481 1768.043 1767.11 1767.066 1767.991 1770.394 1771.335 1771.993 1772.302 1772.376 1772.747 1772.86 1772.935 1773.019 1772.92 1772.161 1770.519 1768.515 1769.103 1770.87 1772.14 1773.024 1773.582 1774.163 1774.472 1774.927 1775.446 1776.696 1777.788 1779.047 1780.412 1781.75 1783.646 1784.26 1784.754 1785.11 1785.448 1785.666 1785.967 1786.192 1786.488 1786.538 1788.409 1788.308 1788.143 1787.666 1787.396 1787.03 1786.632 1785.731 1785.195 1784.587 1783.864 1782.102 1781.396 1780.846 1780.308 1779.761 1779.165 1779.148 1779.457 1779.609 1778.572 1778.671 1778.591 1778.882 1779.509 1779.923 1780.352 1781.14 1781.839 1782.642 1783.065 1783.363 1783.051 1781.5 
1784.88 1783.883 1782.119 1781.254 1780.342 1779.48 1777.691 1776.765 1775.877 1774.993 1772.987 1771.973 1770.919 1769.791 1768.532 1766.127 1765.337 1765.174 1765.9 1767.496 1768.46 1769.146 1769.407 1769.344 1769.359 1769.743 1770.154 1770.461 1770.895 1770.604 1769.444 1767.665 1767.75 1769.482 1770.593 1771.203 1771.637 1772.145 1772.196 1772.203 1772.374 1773.638 1775.023 1776.565 1777.909 1780.655 1781.552 1782.205 1782.773 1783.041 1783.153 1783.425 1783.901 1784.355 1784.78 1786.538 1786.517 1786.518 1786.502 1786.264 1786.131 1785.906 1785.635 1784.761 1784.212 1783.564 1782.777 1781 1780.398 1779.909 1779.395 1778.831 1777.74 1777.152 1776.665 1776.24 1775.142 1775.411 1775.617 1776.117 1776.795 1777.102 1777.859 1778.69 1779.269 1780.189 1780.543 1781.151 1781.726 1781.337 
1783.286 1782.296 1780.511 1779.629 1778.715 1777.832 1776.079 1775.159 1774.244 1773.314 1771.343 1770.321 1769.177 1767.883 1766.499 1763.612 1762.435 1762.03 1762.625 1764.204 1765.046 1765.68 1766.054 1766.09 1766.204 1766.547 1767.015 1767.465 1768.311 1768.061 1766.764 1764.701 1765.431 1767.023 1767.819 1768.8 1769.515 1770.025 1769.917 1769.818 1769.746 1770.527 1772.12 1773.671 1775.07 1777.609 1778.624 1779.634 1780.516 1780.8 1780.814 1781.245 1782.042 1784.355 1784.78 1784.883 1784.963 1785.03 1785.045 1784.992 1784.953 1784.88 1784.624 1783.87 1783.28 1782.573 1781.738 1779.981 1779.473 1779 1778.403 1777.764 1776.207 1774.893 1773.181 1771.647 1771.345 1772.096 1772.762 1773.414 1774.216 1774.665 1775.428 1776.394 1777.172 1778.231 1778.598 1779.183 1779.99 1780.823 
1781.848 1779.878 1778.929 1777.984 1777.102 1776.278 1774.443 1773.551 1772.676 1771.759 1769.753 1768.636 1767.406 1766.11 1764.79 1760.972 1759.181 1758.353 1759.043 1761.189 1761.62 1761.894 1762.115 1762.482 1762.688 1763.005 1763.4 1763.781 1764.035 1763.694 1762.734 1760.867 1758.711 1760.64 1763.296 1765.032 1766.821 1766.896 1766.722 1766.525 1766.465 1767.741 1769.371 1770.81 1772.024 1774.246 1775.392 1776.354 1777.059 1777.595 1778.337 1781.245 1782.042 1782.531 1783.222 1783.407 1783.569 1783.723 1783.891 1783.932 1783.906 1783.788 1783.603 1782.959 1782.379 1781.59 1780.626 1778.812 1778.284 1777.863 1777.315 1776.684 1774.889 1773.366 1771.497 1769.941 1768.999 1769.629 1770.285 1770.835 1771.749 1772.235 1773.059 1774.047 1774.86 1776.234 1776.763 1777.441 1778.235 1779.163 
1780.478 1778.423 1777.45 1776.493 1775.57 1774.708 1772.915 1772.054 1771.194 1770.277 1767.846 1766.539 1765.2 1763.795 1760.516 1758.566 1756.831 1755.822 1756.062 1758.327 1758.518 1758.511 1758.424 1758.503 1758.828 1759.181 1759.485 1759.776 1759.967 1759.884 1759.372 1757.971 1756.003 1758.232 1760.34 1761.488 1762.881 1763.168 1763.016 1762.609 1762.039 1763.646 1766.111 1767.965 1769.099 1771.008 1771.904 1772.735 1773.566 1777.595 1778.337 1779.032 1779.838 1780.622 1781.556 1781.857 1782.132 1782.388 1782.637 1782.702 1782.761 1782.731 1782.564 1781.92 1781.379 1780.602 1779.606 1778.106 1777.522 1776.979 1776.436 1775.103 1774.204 1772.927 1771.403 1770.002 1768.658 1768.719 1768.856 1769.015 1769.699 1770.15 1770.966 1771.78 1772.613 1774.121 1774.811 1775.588 1776.425 1777.451 
1778.991 1776.974 1776.021 1775.06 1774.065 1773.108 1771.373 1770.508 1769.571 1768.442 1765.631 1764.251 1762.913 1761.545 1758.528 1756.71 1754.977 1753.782 1753.396 1755.072 1755.323 1755.343 1755.257 1755.287 1755.461 1755.627 1755.782 1755.943 1756.234 1755.976 1755.148 1753.19 1750.35 1754.201 1757.498 1758.036 1759.301 1759.599 1759.449 1758.696 1757.441 1757.971 1761.22 1764.161 1765.97 1767.921 1768.711 1769.501 1773.566 1775.007 1775.65 1776.3 1777.044 1777.84 1779.317 1779.87 1780.359 1780.769 1781.17 1781.273 1781.38 1781.402 1781.293 1780.743 1780.321 1779.702 1778.784 1777.355 1776.81 1776.358 1775.817 1774.601 1773.79 1772.896 1771.877 1770.622 1768.892 1768.57 1768.288 1768.138 1768.175 1768.492 1769.124 1769.608 1770.436 1772.213 1772.952 1773.708 1774.568 1775.929 
1777.588 1775.478 1774.446 1773.402 1772.379 1771.437 1769.649 1768.598 1767.451 1766.183 1763.426 1762.096 1760.915 1759.786 1757.022 1755.163 1753.58 1752.371 1751.269 1751.944 1752.073 1752.18 1752.26 1752.33 1752.401 1752.422 1752.336 1751.838 1751.292 1750.494 1749.099 1746.742 1743.891 1746.683 1750.222 1752.103 1755.055 1755.639 1755.314 1754.32 1753.151 1756.003 1759.164 1761.194 1762.925 1765.244 1768.711 1769.501 1770.359 1771.814 1772.364 1773.063 1773.935 1774.832 1776.491 1777.267 1777.932 1778.51 1779.276 1779.528 1779.727 1779.793 1779.708 1779.489 1779.127 1778.617 1777.951 1776.755 1776.198 1775.707 1775.204 1774.045 1773.403 1772.691 1771.909 1771.191 1769.361 1768.642 1767.945 1767.447 1766.982 1767.33 1767.925 1768.36 1769.527 1770.396 1770.897 1771.346 1772.814 1774.741 
1776.133 1773.932 1772.849 1771.767 1770.725 1768.669 1767.551 1766.362 1765.089 1763.782 1760.964 1759.726 1758.668 1757.729 1755.289 1753.472 1751.438 1749.458 1748.373 1748.824 1748.973 1749.154 1749.356 1749.548 1749.532 1749.295 1748.781 1747.561 1746.675 1745.624 1744.204 1742.107 1740.148 1741.845 1744.082 1744.721 1746.688 1747.646 1747.991 1747.667 1747.153 1752.992 1757.656 1759.271 1762.925 1765.244 1766.091 1766.867 1767.62 1768.794 1769.264 1769.807 1770.507 1771.461 1773.456 1774.428 1775.29 1776.03 1777.071 1777.407 1777.655 1777.809 1777.951 1777.834 1777.591 1777.303 1776.937 1776.102 1775.611 1775.135 1774.715 1773.589 1773.066 1772.483 1771.931 1771.476 1769.774 1768.782 1767.835 1767.073 1766.491 1766.601 1766.788 1767.428 1768.619 1769.059 1769.377 1770.004 1771.359 1773.485 
1774.609 1772.359 1771.313 1770.212 1768.991 1766.468 1765.215 1763.964 1762.704 1761.336 1758.322 1757.108 1756.21 1755.306 1752.625 1750.672 1748.66 1746.699 1745.37 1745.66 1746.124 1746.524 1746.576 1746.736 1746.784 1746.447 1745.65 1743.849 1742.712 1741.289 1739.279 1736.593 1734.752 1736.743 1738.549 1739.495 1740.863 1741.532 1741.93 1741.733 1742.553 1746.953 1752.923 1759.271 1760.615 1762.691 1763.577 1764.379 1765.07 1766.366 1766.863 1767.319 1767.833 1768.523 1770.439 1771.468 1772.468 1773.358 1774.614 1775.036 1775.317 1775.504 1775.877 1775.923 1775.928 1775.866 1775.745 1775.281 1774.994 1774.589 1774.132 1773.225 1772.731 1772.316 1771.884 1771.293 1769.897 1768.942 1768.083 1767.094 1766.409 1766.47 1766.671 1767.008 1767.629 1767.965 1768.334 1768.953 1770.129 1772.348 
1773.099 1770.842 1769.711 1768.428 1766.993 1764.185 1762.787 1761.419 1760.164 1759.03 1756.185 1755.01 1754.036 1753.068 1750.126 1748.347 1746.595 1744.875 1742.916 1742.865 1743.269 1743.666 1743.699 1743.804 1743.785 1743.38 1742.464 1740.162 1738.589 1736.781 1734.814 1732.479 1730.877 1732.582 1734.295 1735.361 1736.015 1736.111 1735.986 1736.222 1739.955 1746.953 1752.923 1756.908 1758.491 1760.426 1761.171 1761.915 1762.618 1763.983 1764.595 1765.201 1765.854 1766.554 1768.013 1768.924 1769.931 1770.851 1772.302 1772.697 1773.072 1773.478 1774.016 1774.161 1774.273 1774.405 1774.499 1774.408 1774.212 1773.913 1773.6 1772.838 1772.47 1772.103 1771.631 1770.855 1770.071 1769.294 1768.587 1767.478 1766.562 1766.561 1766.668 1766.754 1766.968 1767.136 1767.559 1768.174 1768.852 1770.764 
1771.59 1769.21 1767.79 1766.285 1764.742 1761.722 1760.208 1758.754 1757.551 1756.669 1754.46 1753.283 1752.185 1750.914 1748.094 1746.512 1744.932 1743.453 1741.103 1740.56 1740.614 1740.853 1740.903 1740.793 1740.486 1739.984 1739.075 1736.741 1735.408 1733.764 1731.672 1728.557 1728.478 1729.38 1730.721 1731.507 1731.671 1731.462 1731.13 1736.222 1739.955 1742.688 1747.038 1752.429 1755.62 1758.114 1758.902 1759.588 1760.28 1761.708 1762.441 1763.127 1763.794 1765.353 1766.19 1767.017 1767.831 1768.7 1770.205 1770.748 1771.32 1771.85 1772.504 1772.746 1772.916 1773.084 1773.307 1773.545 1773.456 1773.322 1773.133 1772.52 1772.133 1771.749 1771.386 1770.679 1770.07 1769.492 1768.91 1768.106 1767.091 1766.931 1766.799 1766.798 1766.657 1766.78 1767.048 1767.401 1768.591 1769.356 
1770.172 1767.226 1765.573 1763.9 1762.284 1759.124 1757.716 1756.521 1755.515 1753.747 1752.725 1751.592 1750.344 1749.08 1746.476 1744.963 1743.362 1741.861 1739.334 1738.469 1738.182 1738.123 1738.094 1737.681 1737.339 1736.778 1735.881 1733.612 1732.423 1730.943 1728.939 1724.718 1724.138 1724.86 1725.98 1727.064 1727.671 1731.462 1731.13 1731.321 1736.673 1739.766 1743.254 1747.085 1750.609 1755.019 1756.251 1757.123 1757.964 1759.529 1760.313 1761.041 1761.78 1763.47 1764.272 1765.123 1766.017 1766.926 1768.497 1769.234 1769.891 1770.452 1771.288 1771.592 1771.842 1772.048 1772.607 1772.742 1772.777 1772.772 1772.615 1772.156 1771.831 1771.514 1771.252 1770.587 1770.044 1769.501 1769.031 1768.432 1767.568 1767.342 1767.029 1766.871 1766.645 1766.469 1766.409 1766.648 1767.545 1768.145 
1768.44 1764.94 1763.166 1761.376 1759.641 1756.864 1755.844 1754.806 1753.836 1752.048 1751.053 1750.006 1748.869 1747.694 1745.034 1743.58 1742.091 1740.451 1736.781 1735.984 1735.82 1735.917 1735.723 1734.967 1734.497 1733.888 1733.005 1730.697 1729.417 1727.853 1725.819 1721.081 1719.765 1720.425 1722.105 1723.38 1727.671 1727.595 1727.707 1728.491 1733.579 1736.747 1740.119 1743.41 1748.27 1750.329 1752.143 1753.669 1755.021 1757.209 1758.248 1759.12 1759.869 1761.532 1762.36 1763.228 1764.155 1765.076 1766.794 1767.542 1768.256 1768.971 1770.142 1770.539 1770.859 1771.155 1771.803 1771.976 1772.061 1772.104 1772.105 1771.781 1771.616 1771.41 1771.162 1770.585 1770.117 1769.611 1769.128 1768.806 1768.024 1767.728 1767.244 1766.985 1766.497 1766.16 1766.072 1766.2 1766.807 1767.265 
1766.316 1762.53 1760.564 1758.727 1757.241 1755.165 1754.214 1753.314 1752.446 1750.482 1749.473 1748.516 1747.55 1746.391 1743.683 1742.221 1740.688 1738.823 1734.109 1733.025 1733.157 1733.381 1732.989 1732.374 1731.761 1731.148 1730.432 1728.167 1726.739 1725.105 1723.376 1719.246 1717.685 1717.597 1722.105 1723.38 1724.074 1723.88 1723.631 1724.271 1730.256 1733.352 1736.357 1739.144 1743.756 1745.811 1747.763 1749.495 1751.011 1754.148 1755.651 1756.894 1757.991 1759.619 1760.485 1761.384 1762.3 1763.172 1764.979 1765.774 1766.537 1767.316 1768.732 1769.363 1769.855 1770.261 1770.967 1771.204 1771.376 1771.45 1771.431 1771.397 1771.254 1771.182 1771.066 1770.574 1770.316 1769.928 1769.47 1768.589 1768.402 1768.039 1767.381 1767.002 1766.363 1766.037 1765.809 1765.777 1766.25 1766.566 
1762.08 1760.088 1758.23 1756.718 1755.591 1753.774 1752.848 1751.945 1751.045 1749.198 1748.23 1747.245 1746.252 1745.089 1741.873 1740.156 1738.338 1736.505 1732.872 1731.672 1731.256 1731.276 1730.634 1730.06 1729.486 1728.757 1727.888 1725.628 1724.398 1723.121 1721.604 1717.474 1717.685 1717.597 1718.773 1720.229 1720.923 1720.396 1719.551 1719.701 1726.487 1729.877 1732.641 1734.912 1739.784 1741.888 1743.719 1745.226 1746.594 1750.071 1752.048 1753.789 1755.344 1757.641 1758.625 1759.48 1760.336 1762.037 1762.859 1763.696 1764.547 1765.38 1766.974 1767.737 1768.483 1769.186 1770.152 1770.455 1770.678 1770.793 1770.88 1770.911 1770.94 1770.965 1770.819 1770.655 1770.531 1770.354 1770.087 1769.038 1768.861 1768.425 1767.74 1767.13 1766.368 1765.908 1765.484 1765.442 1765.705 1766.047 
1759.682 1757.865 1756.443 1755.342 1754.353 1752.442 1751.537 1750.623 1749.71 1747.89 1746.937 1745.927 1744.828 1743.516 1740.391 1738.689 1736.894 1735.238 1731.986 1730.731 1729.877 1729.513 1728.389 1727.673 1727.133 1726.42 1725.579 1723.713 1722.602 1721.299 1719.779 1717.474 1715.669 1714.688 1714.644 1716.199 1716.37 1716.467 1716.752 1717.616 1723.183 1726.369 1729.013 1731.224 1736.089 1738.22 1740.039 1741.458 1742.669 1745.845 1747.91 1749.952 1751.783 1754.979 1756.268 1757.358 1758.32 1759.942 1760.727 1761.542 1762.372 1763.181 1764.974 1765.901 1766.734 1767.523 1769.018 1769.575 1769.858 1769.941 1770.039 1770.233 1770.414 1770.544 1770.532 1770.583 1770.554 1770.571 1770.492 1770.091 1769.867 1769.283 1768.315 1767.476 1766.19 1765.708 1765.31 1765.039 1765.28 1765.513 
1757.522 1756.166 1755.113 1754.104 1753.049 1751.153 1750.198 1749.288 1748.391 1746.617 1745.588 1744.464 1743.214 1740.41 1738.914 1737.386 1735.785 1734.139 1731.164 1729.916 1728.892 1728.127 1726.31 1725.558 1725.03 1724.485 1723.739 1721.746 1720.591 1721.299 1719.779 1715.521 1713.261 1711.234 1709.994 1710.23 1710.662 1711.854 1713.744 1715.708 1720.638 1723.466 1726.108 1728.486 1733.179 1734.98 1736.536 1738.166 1739.635 1742.609 1744.253 1746.151 1748.058 1751.572 1753.169 1754.627 1755.856 1757.904 1758.636 1759.326 1760.04 1760.826 1762.673 1763.596 1764.56 1765.543 1767.282 1768.006 1768.467 1768.756 1769.301 1769.532 1769.735 1769.889 1770.04 1770.478 1770.578 1770.526 1770.451 1770.388 1770.37 1769.846 1768.754 1767.611 1765.912 1765.3 1764.879 1764.712 1764.803 1764.967 
1756.097 1754.984 1753.97 1752.987 1751.987 1750.01 1749.06 1748.137 1747.163 1745.246 1744.13 1742.905 1741.588 1738.961 1737.537 1736.137 1734.693 1733.141 1730.38 1729.101 1727.849 1726.585 1724.15 1723.354 1722.847 1722.245 1721.652 1721.746 1720.591 1719.092 1717.24 1713.037 1710.781 1708.814 1707.486 1706.947 1707.168 1708.588 1711.187 1713.532 1718.463 1721.087 1723.613 1725.862 1730.021 1731.774 1733.477 1735.3 1738.476 1740 1741.51 1743.026 1744.65 1747.977 1749.604 1751.137 1752.6 1755.1 1756.056 1757.013 1757.885 1758.579 1760.152 1761.024 1762.017 1763.005 1765.005 1765.8 1766.384 1766.829 1767.682 1768.142 1768.666 1769.16 1769.382 1769.958 1770.24 1770.42 1770.512 1770.73 1770.632 1770.031 1768.677 1767.361 1765.381 1764.641 1764.358 1764.318 1764.202 1764.434 
1755.175 1754.016 1752.909 1751.872 1749.891 1748.897 1747.912 1746.933 1745.948 1743.797 1742.587 1741.409 1740.147 1737.497 1736.17 1734.843 1733.522 1732.211 1729.525 1728.07 1726.565 1725.052 1722.3 1721.445 1720.781 1722.245 1720.729 1719.53 1718.111 1716.551 1714.891 1710.835 1708.917 1707.579 1706.935 1706.263 1706.47 1707.411 1709.208 1711.505 1716.386 1718.905 1721.132 1723.06 1726.927 1728.799 1730.729 1732.719 1736.025 1737.48 1738.89 1740.292 1741.767 1744.633 1745.929 1747.273 1748.755 1751.515 1752.756 1753.952 1755.041 1756.834 1757.679 1758.488 1759.339 1760.299 1762.164 1763.056 1763.844 1764.528 1765.713 1766.31 1766.824 1767.345 1767.981 1769.155 1769.597 1769.956 1769.949 1770.152 1770.04 1769.466 1768.245 1765.687 1764.755 1764.067 1763.651 1763.475 1763.675 1764.434 
1754.305 1753.12 1751.964 1750.841 1748.87 1747.889 1746.825 1745.691 1744.63 1742.33 1741.123 1739.872 1738.63 1736.081 1734.741 1733.447 1732.222 1730.984 1728.206 1726.773 1725.268 1723.716 1720.721 1719.623 1720.781 1720.117 1718.574 1717.298 1715.698 1714.01 1712.471 1709.025 1707.739 1707.069 1706.482 1706.013 1705.919 1706.303 1707.571 1711.553 1713.933 1716.229 1718.301 1720.172 1724.025 1725.93 1727.856 1729.969 1733.696 1735.078 1736.33 1737.649 1738.942 1741.418 1742.586 1743.795 1745.065 1747.647 1749.004 1750.341 1751.628 1753.822 1754.829 1755.771 1756.698 1757.642 1759.275 1760.135 1760.984 1761.794 1763.248 1763.967 1764.653 1765.301 1765.956 1767.201 1767.665 1768.065 1768.246 1768.664 1768.583 1768.158 1767.274 1764.694 1763.836 1763.268 1762.876 1763.475 1763.675 1763.84 
1753.32 1752.125 1750.997 1749.915 1747.848 1746.875 1745.832 1744.635 1743.325 1740.898 1739.702 1738.449 1737.205 1734.651 1733.365 1732.171 1731.012 1728.568 1727.242 1725.856 1724.465 1722.99 1720.721 1719.623 1718.912 1718.196 1716.309 1714.918 1713.213 1711.498 1710.111 1707.921 1707.13 1706.469 1705.948 1705.482 1705.412 1705.665 1706.427 1709.297 1711.429 1713.592 1715.633 1717.475 1721.053 1722.821 1724.697 1726.73 1730.731 1732.505 1733.966 1735.045 1736.068 1738.449 1739.602 1740.726 1741.792 1744.183 1745.399 1746.635 1747.921 1750.348 1751.451 1752.532 1753.605 1754.621 1756.641 1757.524 1758.258 1758.998 1760.462 1761.237 1762.011 1762.767 1764.041 1764.679 1765.309 1765.758 1766.168 1766.673 1766.791 1766.578 1766.17 1763.461 1762.623 1762.13 1762.876 1762.783 1762.986 1763.222 
1752.29 1751.119 1750.012 1749.011 1746.94 1745.931 1744.76 1743.427 1742.109 1739.452 1738.159 1736.918 1735.674 1733.181 1732.043 1730.998 1729.922 1727.64 1726.447 1725.242 1724.465 1722.99 1719.914 1718.568 1717.476 1716.535 1714.029 1712.172 1710.494 1709.145 1708.074 1707.021 1706.38 1705.774 1705.327 1705.021 1705.097 1705.312 1705.769 1707.637 1709.219 1711.213 1713.157 1714.89 1718.171 1719.735 1721.39 1723.135 1726.778 1728.817 1730.565 1731.822 1734.625 1735.715 1736.62 1737.556 1738.594 1740.873 1742.088 1743.325 1744.496 1746.691 1747.821 1748.955 1750.14 1751.249 1753.494 1754.48 1755.447 1756.319 1757.719 1758.335 1759.037 1759.84 1761.236 1762.031 1762.614 1762.975 1763.274 1763.893 1763.994 1763.826 1763.34 1761.901 1762.623 1762.13 1761.882 1761.815 1762.208 1762.516 
1751.181 1750.053 1749.005 1748.017 1745.985 1744.821 1743.544 1742.203 1740.801 1737.976 1736.594 1735.289 1734.043 1731.754 1730.84 1729.918 1728.918 1726.741 1725.602 1725.242 1723.98 1722.552 1719.604 1717.902 1716.426 1715.201 1712.078 1710.203 1708.516 1707.517 1706.676 1706.149 1705.572 1705.101 1704.799 1704.578 1704.624 1704.837 1705.391 1706.745 1707.714 1709.173 1710.951 1712.443 1715.264 1716.744 1718.261 1719.671 1722.306 1723.994 1725.79 1727.522 1731.336 1732.75 1733.72 1734.562 1735.422 1737.55 1738.822 1740.12 1741.279 1743.39 1744.41 1745.438 1746.5 1747.62 1750.014 1751.093 1752.093 1753.131 1754.858 1755.612 1756.297 1756.957 1758.539 1759.299 1759.924 1760.392 1760.49 1760.674 1760.884 1760.799 1763.34 1761.901 1761.366 1761.023 1760.823 1761.231 1761.56 1761.873 
1750.121 1749.048 1747.994 1747.01 1744.921 1743.662 1742.299 1740.873 1737.968 1736.565 1735.142 1733.761 1732.551 1730.646 1729.746 1728.809 1727.815 1726.741 1725.602 1724.476 1723.352 1722.174 1719.235 1717.447 1715.843 1714.363 1711.212 1709.516 1707.997 1707.072 1705.857 1705.275 1704.773 1704.468 1704.281 1703.98 1704.161 1704.477 1704.808 1706.014 1706.923 1707.889 1708.81 1709.854 1712.459 1713.802 1715.154 1716.427 1718.717 1719.89 1721.067 1722.383 1726.389 1728.166 1729.608 1730.894 1732.008 1734.193 1735.527 1736.886 1738.055 1740.171 1741.173 1742.201 1743.231 1745.218 1746.295 1747.424 1748.582 1749.719 1751.889 1752.809 1753.643 1754.377 1755.962 1756.738 1757.329 1757.681 1757.63 1757.637 1757.867 1760.799 1760.414 1760.066 1759.891 1759.712 1759.784 1760.392 1760.832 1761.265 
1749.016 1747.939 1746.891 1745.888 1743.524 1742.236 1740.876 1739.469 1736.592 1735.152 1733.737 1732.407 1731.367 1729.652 1728.74 1728.809 1727.815 1725.873 1724.851 1723.841 1722.889 1721.87 1718.925 1717.105 1715.323 1713.691 1710.706 1709.173 1707.841 1706.873 1705.286 1704.663 1704.165 1703.807 1703.555 1703.41 1703.617 1703.89 1704.131 1705.235 1706.012 1706.703 1707.209 1708.554 1709.594 1710.849 1712.163 1713.412 1715.664 1716.733 1717.706 1718.682 1721.063 1722.558 1724.381 1726.247 1727.943 1730.893 1732.528 1733.968 1735.034 1737.037 1738.052 1739.051 1740.012 1741.992 1743.024 1743.998 1745.106 1746.57 1749.009 1750.072 1750.954 1751.707 1753.326 1754.093 1754.688 1754.997 1755.094 1757.637 1757.867 1758.004 1757.967 1758.534 1758.489 1758.515 1758.82 1759.713 1760.267 1760.792 
1747.902 1746.829 1745.758 1744.671 1742.206 1740.868 1739.478 1738.152 1735.352 1733.942 1732.606 1731.45 1730.474 1729.652 1728.74 1727.808 1726.835 1724.95 1724.014 1723.138 1722.284 1720.133 1718.426 1716.528 1714.739 1713.107 1710.169 1708.785 1707.551 1706.599 1704.812 1704.122 1703.551 1703.091 1702.848 1702.787 1702.881 1703.099 1703.4 1704.339 1704.878 1705.424 1706.049 1706.967 1707.567 1708.291 1709.309 1710.691 1712.993 1713.994 1714.953 1715.903 1717.788 1718.826 1720.016 1721.506 1723.505 1727.248 1729.001 1730.563 1731.844 1733.993 1735.047 1736.014 1736.873 1738.67 1739.63 1740.654 1741.975 1743.448 1746.075 1747.224 1748.222 1749.124 1750.761 1751.355 1751.812 1754.997 1755.249 1755.481 1755.755 1756.147 1756.56 1757.409 1757.374 1757.44 1757.941 1759.21 1759.85 1760.366 
1746.684 1745.622 1744.503 1743.264 1740.825 1739.488 1738.171 1736.84 1734.036 1732.738 1731.596 1730.555 1730.474 1728.634 1727.717 1726.801 1725.891 1723.991 1723.087 1722.264 1721.5 1719.016 1717.361 1715.588 1713.795 1712.227 1709.475 1708.082 1706.917 1706.067 1704.183 1703.381 1702.79 1702.34 1702.02 1702.049 1702.187 1702.402 1702.629 1703.346 1703.817 1704.347 1704.915 1705.795 1706.268 1706.784 1707.492 1708.39 1710.606 1711.615 1712.488 1713.373 1715.168 1716.143 1717.219 1718.457 1721.536 1723.36 1725.193 1726.847 1728.234 1730.743 1731.922 1733.021 1733.858 1735.085 1735.859 1736.889 1738.221 1739.877 1743.19 1744.574 1745.606 1746.432 1747.973 1751.355 1751.812 1752.344 1753.21 1753.582 1753.929 1754.479 1755.185 1756.019 1756.34 1756.825 1757.34 1758.875 1759.575 1760 
1745.47 1744.366 1743.179 1741.95 1739.515 1738.181 1736.859 1735.54 1732.917 1731.755 1731.596 1730.555 1728.568 1727.621 1726.662 1725.691 1724.768 1722.952 1722.099 1721.273 1720.318 1717.599 1715.917 1714.284 1712.772 1711.375 1708.77 1707.422 1706.168 1705.137 1703.397 1702.555 1701.936 1701.485 1701.021 1701.136 1701.363 1701.534 1701.733 1702.417 1702.83 1703.287 1703.806 1704.622 1705.03 1705.55 1706.144 1706.793 1708.458 1709.359 1710.169 1710.977 1712.712 1713.737 1714.787 1715.938 1718.496 1719.871 1721.432 1723.105 1724.659 1727.329 1728.62 1729.651 1730.332 1731.595 1732.119 1732.769 1734.055 1738.057 1739.792 1741.271 1742.478 1743.476 1747.973 1748.639 1749.199 1749.926 1751.399 1751.699 1752.099 1752.701 1753.501 1754.448 1755.05 1756.051 1756.92 1758.596 1759.239 1759.712 
1744.198 1743.034 1741.877 1740.72 1738.259 1736.984 1735.656 1734.332 1732.917 1731.755 1730.699 1729.622 1727.637 1726.617 1725.594 1724.656 1723.687 1721.84 1720.968 1719.984 1718.76 1716.055 1714.4 1712.821 1711.501 1710.233 1707.892 1706.677 1705.372 1704.238 1702.409 1701.609 1700.948 1700.391 1700.091 1700.194 1700.369 1700.623 1700.859 1701.465 1701.816 1702.193 1702.51 1703.395 1703.818 1704.307 1704.804 1706.086 1706.749 1707.331 1707.894 1708.473 1710.326 1711.47 1712.454 1713.422 1715.775 1717.044 1718.367 1719.839 1721.413 1724.047 1725.054 1725.875 1726.504 1727.947 1728.64 1729.602 1730.965 1734.572 1736.242 1737.669 1742.478 1743.476 1745.296 1746.041 1746.949 1748.177 1749.419 1749.653 1750.126 1750.735 1751.515 1753.094 1754.062 1755.479 1756.775 1758.675 1759.132 1759.278 
1742.876 1741.716 1740.562 1739.409 1737.055 1735.775 1734.454 1734.332 1731.921 1730.828 1729.694 1728.639 1726.666 1725.687 1724.654 1723.595 1722.653 1720.718 1719.666 1718.452 1717.175 1714.323 1712.759 1711.348 1710.089 1707.783 1706.81 1705.705 1704.429 1703.285 1701.336 1700.515 1699.81 1699.228 1698.968 1699.2 1699.495 1699.804 1700.093 1700.596 1700.863 1701.145 1701.38 1701.982 1702.408 1702.836 1703.322 1704.392 1704.855 1705.391 1705.99 1706.526 1708.116 1709.108 1710.064 1711.015 1712.957 1714.069 1715.315 1716.682 1718.176 1720.98 1721.826 1722.37 1722.664 1724.101 1725.22 1726.62 1728.053 1731.612 1736.242 1737.669 1738.943 1740.031 1742.407 1743.431 1744.3 1745.251 1747.248 1747.549 1748.019 1748.593 1750.033 1751.297 1753.083 1755.043 1756.622 1758.374 1758.787 1758.643 
1741.555 1740.435 1739.354 1737.046 1735.845 1735.775 1734.454 1733.161 1730.938 1729.862 1728.786 1727.742 1725.767 1724.783 1723.763 1722.68 1721.58 1719.448 1718.208 1716.822 1715.476 1712.666 1711.205 1709.893 1708.683 1706.708 1705.735 1704.6 1703.375 1702.275 1700.339 1699.405 1698.559 1697.959 1697.772 1698.269 1698.72 1699.124 1699.437 1699.885 1700.036 1700.157 1700.264 1700.438 1700.688 1701.037 1701.499 1702.415 1702.89 1703.4 1704.047 1704.739 1706.321 1707.087 1707.761 1708.409 1710.196 1711.086 1711.936 1712.904 1715.484 1716.71 1717.841 1718.535 1718.515 1720.434 1721.561 1723.118 1724.923 1731.612 1733.04 1734.176 1735.32 1736.489 1739.227 1740.423 1741.603 1742.819 1744.905 1745.254 1745.69 1746.141 1747.146 1749.098 1751.898 1754.369 1756.172 1757.217 1757.354 1757.271 
1740.279 1739.219 1738.142 1737.046 1735.845 1734.603 1733.359 1732.167 1730.07 1728.94 1727.809 1726.838 1724.892 1723.908 1722.897 1721.81 1720.632 1718.064 1716.78 1715.355 1713.924 1711.183 1709.774 1708.509 1707.433 1705.665 1704.662 1703.519 1702.341 1701.276 1699.489 1698.491 1697.486 1696.741 1696.812 1697.463 1697.995 1698.517 1699.161 1699.314 1699.334 1699.265 1699.206 1699.096 1698.966 1699.022 1699.516 1700.424 1701.022 1701.627 1702.274 1703.056 1704.541 1705.304 1705.985 1706.599 1707.686 1708.138 1708.722 1709.543 1710.707 1711.299 1711.967 1712.715 1713.517 1716.296 1718.015 1723.118 1724.923 1728.235 1729.62 1730.769 1731.801 1732.988 1736.292 1737.947 1739.209 1740.275 1742.177 1742.61 1743.037 1743.504 1744.951 1747.152 1749.855 1752.331 1754.215 1755.302 1754.959 1754.575 
1738.969 1739.219 1738.142 1735.846 1734.704 1733.477 1732.218 1731.171 1729.214 1728.084 1726.905 1725.936 1724.098 1723.121 1722.119 1721.013 1718.187 1716.753 1715.326 1713.827 1712.388 1709.669 1708.38 1707.3 1706.345 1704.495 1703.495 1702.359 1701.228 1700.263 1698.561 1697.568 1696.563 1695.845 1696.106 1696.699 1697.327 1697.864 1698.565 1698.661 1698.619 1698.514 1698.356 1697.845 1697.57 1697.536 1697.819 1698.507 1699.014 1699.747 1700.594 1701.305 1702.872 1703.637 1704.297 1704.836 1705.858 1706.321 1706.762 1707.104 1707.411 1707.498 1707.581 1707.642 1708.01 1716.296 1718.015 1719.971 1721.778 1724.723 1726.236 1727.642 1728.881 1731.986 1733.977 1735.728 1736.903 1737.616 1738.91 1739.404 1739.893 1740.573 1742.892 1744.926 1746.942 1748.868 1750.526 1751.761 1751.764 1751.376 
1738.969 1737.929 1736.937 1734.744 1733.594 1732.458 1731.348 1730.284 1728.251 1727.123 1726.02 1725.065 1723.236 1722.3 1721.294 1720.147 1717.014 1715.417 1713.786 1712.09 1710.669 1708.267 1707.24 1706.24 1705.168 1703.306 1702.323 1701.252 1700.167 1698.463 1697.647 1696.731 1695.8 1695.153 1695.754 1696.339 1696.98 1697.577 1698.044 1698.075 1697.957 1697.786 1697.545 1696.839 1696.375 1696.1 1696.202 1696.569 1697.215 1698.046 1698.831 1700.41 1701.14 1701.894 1702.636 1703.168 1704.153 1704.667 1705.142 1705.585 1705.976 1706.11 1706.246 1707.642 1708.01 1712.106 1714.327 1716.612 1718.553 1721.371 1722.9 1724.659 1726.454 1729.995 1731.928 1733.618 1734.724 1735.17 1735.662 1735.783 1736.381 1737.39 1740.702 1742.674 1744.457 1745.896 1747.478 1747.919 1748.124 1747.894 
1737.743 1736.707 1735.705 1733.583 1732.571 1731.514 1730.39 1728.361 1727.331 1726.198 1725.104 1724.207 1722.308 1721.345 1720.267 1719.02 1715.819 1713.914 1712.08 1710.336 1708.84 1707.158 1706.299 1705.292 1704.19 1702.048 1700.991 1699.974 1698.987 1697.545 1696.803 1695.975 1695.243 1694.915 1695.499 1695.986 1696.445 1696.974 1697.605 1697.527 1697.319 1697.063 1696.726 1695.966 1695.744 1695.563 1695.423 1695.611 1695.821 1696.343 1697.262 1698.872 1699.637 1700.375 1700.975 1701.515 1702.505 1703.064 1703.598 1704.057 1704.63 1704.806 1706.246 1706.439 1707.347 1708.465 1710.516 1713.122 1715.38 1718.39 1720.229 1722.414 1724.404 1727.94 1729.765 1731.291 1732.136 1732.377 1732.631 1732.729 1733.346 1734.571 1738.38 1740.384 1742.058 1743.222 1744.49 1744.683 1744.673 1744.589 
1736.265 1735.358 1734.362 1732.406 1731.643 1730.678 1729.418 1727.366 1726.299 1725.158 1724.054 1723.153 1721.33 1720.279 1719.053 1717.72 1714.479 1712.375 1710.374 1708.675 1707.572 1706.145 1705.383 1704.47 1703.346 1700.637 1699.484 1698.668 1697.757 1696.529 1695.891 1695.252 1694.771 1694.646 1695.126 1695.601 1695.956 1696.306 1696.852 1696.782 1696.584 1696.24 1695.772 1695.608 1695.39 1695.16 1695.081 1695.339 1695.649 1695.895 1696.102 1697.588 1698.345 1699.027 1699.646 1700.187 1701.177 1701.684 1702.173 1702.721 1704.63 1704.806 1704.99 1705.306 1706.49 1707.211 1708.563 1710.627 1712.654 1716.251 1718.355 1720.622 1722.72 1725.852 1727.119 1728.164 1728.818 1729.057 1729.477 1730.179 1731.095 1732.466 1736.137 1737.844 1739.229 1740.286 1741.527 1741.828 1741.854 1741.799 
1734.705 1733.81 1732.958 1731.361 1730.654 1729.827 1728.764 1726.422 1725.212 1724.016 1722.943 1722.041 1720.221 1719.175 1717.992 1716.75 1713.645 1711.669 1709.748 1708.169 1706.296 1705.426 1704.606 1703.641 1702.483 1699.845 1698.294 1697.054 1696.404 1695.464 1695.034 1694.566 1694.289 1694.405 1694.445 1694.948 1695.515 1695.947 1696.08 1696.024 1695.895 1695.706 1695.365 1695.124 1694.968 1694.976 1694.968 1695.072 1695.255 1695.337 1695.371 1696.474 1697.192 1697.922 1698.599 1699.072 1699.893 1700.346 1702.173 1702.721 1703.412 1703.68 1704.038 1704.487 1705.74 1706.608 1707.564 1708.712 1710.318 1714.159 1716.277 1718.535 1720.67 1723.736 1724.341 1724.736 1725.104 1725.35 1726.298 1727.888 1729.188 1730.724 1734.131 1735.443 1736.428 1737.219 1738.332 1738.791 1739.074 1739.153 
1733.093 1732.314 1731.692 1730.377 1729.653 1728.832 1727.84 1725.41 1724.039 1722.777 1721.789 1720.884 1719.054 1718.174 1717.245 1716.137 1713.252 1711.628 1710.129 1708.945 1706.462 1705.24 1704.155 1703.014 1701.869 1699.304 1697.78 1696.347 1695.532 1694.786 1694.416 1694.109 1694.081 1694.036 1694.291 1694.522 1694.855 1695.269 1695.621 1695.599 1695.466 1695.285 1695.02 1694.878 1694.718 1694.7 1694.843 1694.689 1694.823 1694.979 1695.174 1695.787 1696.207 1696.853 1697.466 1698.423 1699.893 1700.346 1700.821 1701.372 1702.302 1702.666 1703.06 1703.604 1704.952 1705.776 1706.638 1707.374 1708.15 1711.569 1713.638 1715.823 1718.169 1721.397 1721.882 1722.01 1721.773 1721.703 1723.441 1725.954 1727.524 1729.117 1732.152 1733.168 1733.913 1734.564 1735.632 1735.973 1736.231 1736.404 
1731.711 1731.2 1730.668 1729.42 1728.712 1727.851 1726.918 1724.488 1722.908 1721.49 1720.578 1719.64 1718.203 1717.584 1716.742 1715.491 1712.813 1711.527 1710.354 1709.259 1706.696 1705.264 1703.932 1702.732 1701.53 1698.921 1697.651 1696.602 1695.654 1694.467 1694.178 1694.006 1693.901 1694.072 1694.095 1694.202 1694.449 1694.638 1695.001 1695.016 1695.004 1694.975 1694.627 1694.556 1694.572 1694.548 1694.467 1694.548 1694.605 1694.798 1695.034 1695.504 1695.717 1696.008 1696.45 1698.423 1698.803 1699.146 1699.511 1700.058 1701.157 1701.709 1702.299 1702.857 1704.189 1704.927 1705.686 1706.444 1707.081 1709.009 1710.71 1712.811 1715.078 1718.346 1718.795 1718.933 1719.148 1719.766 1721.851 1724.316 1725.91 1727.437 1730.186 1731.109 1731.746 1732.209 1733.253 1733.457 1733.507 1733.639 
1730.787 1730.394 1729.966 1728.67 1727.958 1727.143 1726.231 1723.976 1722.394 1720.967 1720.198 1719.182 1718.549 1717.638 1716.403 1714.98 1712.341 1711.223 1710.206 1709.105 1706.593 1705.211 1703.794 1702.489 1701.341 1698.909 1697.849 1696.881 1695.926 1694.504 1694.098 1693.948 1693.863 1693.791 1693.834 1693.96 1694.115 1694.202 1694.568 1694.64 1694.668 1694.575 1694.393 1694.355 1694.356 1694.353 1694.355 1694.336 1694.414 1694.553 1694.631 1695.086 1695.366 1696.008 1696.45 1697.165 1697.513 1697.977 1698.49 1698.979 1700.267 1700.951 1701.57 1702.082 1703.38 1704.037 1704.715 1705.433 1706.848 1707.463 1708.482 1710.176 1712.007 1714.438 1714.67 1714.854 1715.77 1718.916 1720.807 1722.695 1724.275 1725.746 1728.361 1729.155 1729.701 1730.219 1731.15 1731.333 1731.451 1731.556 
1730.546 1730.143 1729.591 1728.338 1727.614 1726.781 1725.833 1723.799 1722.641 1721.646 1721.165 1720.536 1719.615 1718.161 1716.27 1714.579 1711.92 1710.91 1709.844 1708.671 1706.298 1704.901 1703.546 1702.268 1700.931 1698.894 1697.983 1697.039 1696.075 1694.582 1694.054 1693.843 1693.789 1693.698 1693.721 1693.782 1693.815 1693.972 1694.138 1694.22 1694.277 1694.258 1694.231 1694.172 1694.037 1694.059 1694.148 1694.189 1694.264 1694.335 1694.416 1695.086 1695.366 1695.62 1695.743 1695.956 1696.286 1696.826 1697.467 1698.069 1699.456 1700.178 1700.832 1701.4 1702.566 1703.169 1703.806 1704.508 1705.813 1706.525 1707.196 1708.063 1709.423 1711.114 1710.552 1710.537 1712.198 1717.085 1719.03 1721.032 1722.754 1724.219 1726.607 1727.393 1727.932 1728.378 1729.231 1729.531 1729.809 1729.964 
1730.858 1730.27 1728.957 1728.209 1727.322 1726.337 1725.391 1723.656 1722.868 1722.336 1722.134 1721.114 1719.908 1718.074 1715.938 1713.995 1711.333 1710.349 1709.171 1707.991 1705.7 1704.46 1703.173 1701.884 1699.645 1698.721 1697.864 1697.02 1696.117 1694.511 1693.975 1693.719 1693.587 1693.657 1693.641 1693.578 1693.573 1693.579 1693.831 1693.906 1693.961 1693.957 1693.948 1693.946 1693.947 1693.945 1694.007 1693.984 1693.953 1694.031 1694.416 1694.782 1694.93 1695.047 1695.293 1695.561 1695.632 1695.952 1696.53 1698.125 1698.878 1699.48 1700.008 1700.62 1701.785 1702.339 1702.95 1703.527 1704.758 1705.426 1706.08 1706.786 1707.651 1708.706 1708.245 1708.552 1710.644 1715.302 1717.43 1719.603 1721.325 1723.986 1724.932 1725.609 1726.138 1726.602 1727.416 1727.777 1728.119 1728.518 
1731.383 1730.729 1728.984 1727.992 1726.902 1725.792 1724.899 1723.315 1722.766 1722.311 1721.868 1720.609 1719.249 1717.293 1715.012 1712.557 1710.367 1709.433 1708.415 1707.307 1705.02 1703.827 1702.561 1701.327 1699.435 1698.554 1697.688 1696.857 1695.958 1694.36 1693.811 1693.632 1693.478 1693.384 1693.325 1693.297 1693.37 1693.432 1693.521 1693.551 1693.589 1693.731 1693.705 1693.694 1693.655 1693.715 1693.68 1693.786 1693.953 1694.031 1694.113 1694.409 1694.623 1694.837 1694.971 1695.233 1695.359 1695.615 1696.078 1697.673 1698.388 1698.916 1699.392 1699.994 1701.002 1701.522 1702.025 1702.489 1703.65 1704.258 1704.875 1705.499 1706.105 1706.723 1707.287 1708.346 1710.002 1714.14 1716.2 1718.324 1719.929 1722.405 1723.384 1724.047 1724.503 1724.947 1725.75 1726.197 1726.657 1727.086 
1732.257 1731.276 1728.873 1727.628 1726.316 1725.184 1724.296 1722.893 1722.257 1721.631 1720.964 1719.175 1717.774 1715.927 1713.838 1710.144 1709.08 1708.288 1707.428 1706.46 1704.161 1702.983 1701.812 1700.748 1699.076 1698.253 1697.386 1696.511 1695.755 1694.304 1693.748 1693.426 1693.278 1693.24 1693.24 1693.132 1693.071 1693.227 1693.305 1693.391 1693.445 1693.44 1693.481 1693.426 1693.428 1693.411 1693.68 1693.786 1693.832 1693.833 1693.909 1694.164 1694.366 1694.478 1694.598 1694.958 1695.156 1695.493 1695.955 1697.367 1698.094 1698.619 1699.005 1699.459 1700.292 1700.693 1701.104 1701.446 1702.543 1703.085 1703.579 1704.057 1704.778 1705.545 1706.617 1707.76 1709.09 1713.063 1714.954 1716.905 1718.475 1720.844 1721.903 1722.684 1723.099 1723.418 1724.185 1724.567 1725.078 1725.638 
1732.636 1731.419 1728.526 1727.012 1725.68 1724.602 1723.71 1722.252 1721.463 1720.653 1719.724 1717.559 1716.036 1714.219 1712.374 1708.856 1707.88 1707.144 1706.318 1705.47 1703.201 1702.153 1701.14 1700.156 1698.574 1697.784 1696.935 1696.134 1695.467 1694.076 1693.618 1693.29 1692.986 1692.975 1692.921 1692.85 1692.865 1692.941 1693.044 1693.152 1693.134 1693.135 1693.235 1693.242 1693.428 1693.411 1693.486 1693.578 1693.621 1693.626 1693.78 1693.916 1694.024 1694.138 1694.392 1694.786 1694.981 1695.24 1695.768 1697.083 1697.744 1698.285 1698.705 1699.069 1699.653 1699.929 1700.177 1700.392 1701.197 1701.622 1702.032 1702.397 1703.51 1704.562 1705.804 1707.042 1708.401 1711.913 1713.526 1715.364 1717.014 1719.577 1720.665 1721.441 1721.951 1722.133 1722.513 1722.969 1723.542 1724.191 
1732.532 1731.18 1727.999 1726.357 1725.027 1723.906 1723.06 1721.44 1720.528 1719.501 1718.355 1715.913 1714.267 1712.472 1710.841 1707.779 1706.865 1706.133 1705.35 1704.387 1702.357 1701.351 1700.375 1699.472 1697.884 1697.138 1696.378 1695.646 1694.24 1693.627 1693.243 1693.05 1692.962 1692.757 1692.716 1692.646 1692.661 1692.741 1692.785 1692.877 1692.935 1692.936 1693.027 1693.242 1693.217 1693.139 1693.286 1693.36 1693.399 1693.42 1693.573 1693.711 1693.846 1693.963 1694.158 1694.546 1694.778 1695.121 1695.623 1696.76 1697.357 1697.854 1698.247 1698.604 1699.109 1699.306 1699.392 1699.518 1699.839 1700.078 1700.31 1700.6 1701.908 1703.166 1704.623 1706.091 1707.592 1710.515 1712.026 1713.759 1715.349 1717.957 1719.232 1720.191 1720.692 1720.553 1720.824 1721.394 1722.145 1722.927 
1732.269 1730.758 1727.317 1725.646 1724.251 1723.101 1721.432 1720.504 1719.418 1718.27 1717.114 1714.422 1712.851 1711.254 1709.747 1707.12 1706.138 1705.232 1704.343 1703.359 1701.426 1700.504 1699.582 1698.681 1697.079 1696.377 1695.714 1695.03 1693.747 1693.228 1692.901 1692.843 1692.768 1692.643 1692.492 1692.474 1692.537 1692.487 1692.64 1692.75 1692.729 1692.936 1693.027 1693.063 1693.101 1693.03 1693.063 1693.095 1693.126 1693.21 1693.357 1693.479 1693.65 1693.814 1693.887 1694.294 1694.517 1694.902 1695.362 1696.276 1696.831 1697.343 1697.722 1698.292 1698.472 1698.634 1698.733 1698.762 1698.559 1698.51 1698.518 1698.663 1699.755 1700.987 1702.836 1704.733 1706.167 1708.957 1710.351 1711.954 1713.488 1716.095 1717.497 1718.465 1718.886 1718.839 1719.175 1719.959 1720.799 1721.502 
1731.47 1729.916 1726.328 1724.859 1723.53 1722.242 1720.445 1719.373 1718.243 1717.135 1715.919 1713.235 1711.678 1710.096 1708.778 1706.509 1705.409 1704.399 1703.418 1702.358 1700.365 1699.56 1698.701 1697.791 1696.152 1695.539 1695.038 1694.423 1693.176 1693.006 1692.834 1692.555 1692.546 1692.387 1692.344 1692.345 1692.338 1692.329 1692.427 1692.75 1692.729 1692.785 1692.82 1692.816 1692.809 1692.814 1692.798 1692.823 1692.909 1693 1693.14 1693.233 1693.363 1693.57 1693.682 1694.073 1694.305 1694.619 1694.995 1695.802 1696.19 1696.666 1697.157 1697.743 1697.845 1697.888 1697.938 1697.881 1697.503 1697.323 1697.064 1696.778 1697.382 1698.802 1700.872 1702.956 1704.762 1707.672 1708.857 1710.14 1711.619 1713.95 1715.087 1715.972 1716.712 1717.204 1717.691 1718.417 1719.286 1720.132 
1729.991 1728.398 1725.094 1723.804 1722.56 1721.345 1719.29 1718.203 1717.095 1715.945 1714.713 1712.038 1710.548 1709.08 1707.85 1705.725 1704.598 1703.472 1702.41 1700.329 1699.281 1698.318 1697.497 1696.666 1695.356 1694.881 1694.393 1693.752 1692.825 1692.622 1692.634 1692.532 1692.376 1692.297 1692.197 1692.133 1692.14 1692.193 1692.427 1692.536 1692.526 1692.526 1692.573 1692.621 1692.609 1692.584 1692.591 1692.601 1692.646 1692.769 1692.934 1693.029 1693.171 1693.299 1693.464 1693.837 1694.086 1694.32 1694.617 1695.419 1695.747 1696.097 1696.392 1696.855 1697.025 1697.075 1697.018 1696.92 1696.501 1696.413 1696.316 1696.136 1696.274 1697.132 1698.684 1700.501 1704.248 1705.763 1707.046 1708.374 1709.762 1711.786 1712.661 1713.356 1714.104 1715.538 1716.259 1716.945 1717.731 1718.578 
1728.21 1726.448 1723.722 1722.523 1721.411 1720.308 1718.131 1717.096 1715.998 1714.811 1713.507 1710.867 1709.461 1708.112 1707.026 1704.747 1703.631 1702.549 1701.486 1699.512 1698.456 1697.422 1696.601 1696.003 1694.828 1694.389 1693.873 1693.521 1692.778 1692.625 1692.416 1692.354 1692.208 1692.09 1692.004 1691.955 1692.14 1692.193 1692.277 1692.326 1692.345 1692.426 1692.416 1692.402 1692.37 1692.325 1692.357 1692.442 1692.504 1692.525 1692.688 1692.824 1692.99 1693.099 1693.417 1693.596 1693.841 1694.121 1694.365 1695.053 1695.386 1695.645 1695.772 1695.988 1696.129 1696.237 1696.266 1696.236 1696.089 1696.07 1696.036 1696.042 1696.221 1696.469 1697.628 1699.812 1703.094 1704.573 1705.884 1707.005 1707.967 1709.434 1710.295 1711.074 1711.74 1713.626 1714.563 1715.416 1716.182 1717.867 
1726.224 1724.556 1722.121 1721.032 1720.08 1719.051 1716.938 1715.921 1714.814 1713.626 1711.062 1709.724 1708.446 1707.296 1706.227 1703.912 1702.835 1701.855 1700.863 1698.887 1697.892 1696.897 1696.114 1695.78 1694.704 1694.151 1693.752 1693.366 1692.731 1692.553 1692.49 1692.273 1692.11 1692.06 1692.004 1691.955 1692.04 1692.022 1692.049 1692.144 1692.218 1692.206 1692.21 1692.175 1692.125 1692.171 1692.189 1692.22 1692.317 1692.388 1692.476 1692.602 1692.721 1692.891 1693.205 1693.388 1693.615 1693.854 1694.099 1694.716 1694.967 1695.181 1695.325 1695.529 1695.651 1695.756 1695.876 1695.895 1695.892 1695.918 1695.912 1695.927 1696.233 1696.359 1697.226 1699.342 1702.366 1703.655 1704.719 1705.517 1706.255 1707.265 1707.873 1708.671 1709.8 1711.803 1712.731 1713.688 1714.52 1716.201 
1723.997 1722.7 1720.515 1719.615 1718.737 1717.741 1715.773 1714.64 1713.539 1712.499 1710.014 1708.744 1707.558 1706.501 1705.427 1703.223 1702.239 1701.244 1700.263 1698.445 1697.589 1696.739 1696.033 1695.775 1694.741 1694.161 1693.6 1693.351 1692.842 1692.635 1692.444 1692.334 1692.11 1692.06 1691.988 1691.867 1691.92 1691.862 1691.859 1691.958 1692.029 1692.023 1692.016 1692.002 1691.987 1691.955 1692.014 1692.025 1692.066 1692.176 1692.236 1692.342 1692.519 1692.682 1693.043 1693.219 1693.383 1693.6 1693.835 1694.34 1694.593 1694.767 1694.913 1695.213 1695.401 1695.516 1695.562 1695.728 1695.773 1695.787 1695.809 1695.894 1696.228 1696.379 1697.08 1698.856 1701.594 1702.417 1703.258 1704.117 1704.689 1705.603 1706.267 1707.137 1708.143 1710.279 1711.256 1712.113 1712.86 1714.357 
1721.886 1720.895 1719.114 1718.283 1717.427 1716.496 1714.562 1713.492 1712.468 1711.393 1708.988 1707.833 1706.764 1705.695 1704.625 1702.522 1701.569 1700.686 1699.863 1698.155 1697.281 1696.502 1695.938 1695.168 1694.622 1694.186 1693.763 1693.297 1692.818 1692.619 1692.497 1692.334 1692.047 1691.997 1691.894 1691.815 1691.737 1691.729 1691.773 1691.853 1691.875 1691.845 1691.859 1691.82 1691.782 1691.759 1691.852 1691.86 1691.831 1691.968 1692.096 1692.194 1692.35 1692.481 1692.854 1693.007 1693.159 1693.341 1693.63 1694.044 1694.236 1694.344 1694.569 1694.929 1695.088 1695.249 1695.321 1695.516 1695.567 1695.642 1695.795 1695.899 1696.225 1696.4 1696.999 1698.484 1700.549 1701.506 1702.385 1702.939 1703.594 1703.996 1704.984 1705.859 1706.773 1708.776 1709.655 1710.483 1711.302 1712.63 
1720.096 1718.609 1717.848 1717.051 1716.219 1715.366 1713.328 1712.417 1711.454 1710.375 1708.144 1707.031 1705.964 1704.889 1703.823 1701.818 1700.895 1700.106 1699.363 1697.65 1696.804 1696.19 1695.829 1695.048 1694.546 1694.083 1693.701 1693.386 1692.85 1692.619 1692.497 1692.252 1691.964 1691.837 1691.71 1691.665 1691.663 1691.613 1691.682 1691.721 1691.625 1691.616 1691.642 1691.643 1691.584 1691.574 1691.624 1691.698 1691.732 1691.771 1691.92 1692.048 1692.189 1692.275 1692.591 1692.8 1692.989 1693.076 1693.521 1693.741 1693.939 1694.063 1694.256 1694.681 1694.808 1694.946 1695.122 1695.394 1695.433 1695.519 1695.698 1695.802 1696.23 1696.418 1696.923 1698.149 1699.71 1700.571 1701.312 1701.358 1702.133 1702.899 1703.84 1704.651 1705.513 1707.376 1708.106 1708.943 1709.747 1711.016 
1718.613 1717.286 1716.528 1715.781 1714.984 1714.074 1712.358 1711.496 1710.534 1709.453 1707.243 1706.125 1705.093 1704.088 1703.02 1701.063 1700.231 1699.505 1698.757 1697.105 1696.341 1695.876 1695.722 1695.032 1694.568 1694.098 1693.707 1693.386 1692.85 1692.638 1692.413 1692.235 1691.819 1691.766 1691.742 1691.671 1691.497 1691.481 1691.555 1691.554 1691.503 1691.522 1691.436 1691.38 1691.419 1691.399 1691.44 1691.504 1691.575 1691.565 1691.745 1691.877 1691.975 1692.048 1692.418 1692.592 1692.737 1692.929 1693.333 1693.485 1693.642 1693.849 1694.014 1694.469 1694.592 1694.681 1694.82 1695.191 1695.271 1695.399 1695.589 1695.768 1696.16 1696.37 1696.814 1697.653 1698.932 1699.432 1699.92 1699.893 1701.548 1702.201 1702.862 1703.857 1704.665 1706.245 1706.935 1707.563 1708.138 1709.37 
1717.276 1716.047 1715.28 1714.534 1713.783 1713.011 1711.412 1710.589 1709.643 1708.642 1706.445 1705.271 1704.178 1703.182 1701.162 1700.369 1699.637 1698.893 1698.157 1696.589 1696.023 1695.775 1695.536 1694.993 1694.572 1694.109 1693.707 1693.392 1692.885 1692.58 1692.41 1692.179 1691.888 1691.802 1691.717 1691.633 1691.461 1691.435 1691.405 1691.342 1691.322 1691.315 1691.251 1691.221 1691.227 1691.255 1691.298 1691.33 1691.363 1691.405 1691.599 1691.69 1691.789 1691.973 1692.257 1692.42 1692.563 1692.748 1693.15 1693.321 1693.499 1693.739 1693.89 1694.207 1694.427 1694.559 1694.672 1695.053 1695.189 1695.386 1695.571 1695.961 1696.141 1696.388 1696.695 1697.051 1698.354 1698.694 1698.902 1699.091 1700.116 1701.089 1702.057 1702.948 1703.708 1705.154 1705.778 1706.371 1706.935 1709.37 
1716.028 1714.894 1714.159 1713.4 1712.652 1711.905 1710.399 1709.669 1708.835 1707.756 1705.475 1704.314 1703.248 1702.176 1700.398 1699.67 1698.919 1698.198 1697.535 1696.169 1695.79 1695.606 1695.425 1694.778 1694.572 1694.109 1693.716 1693.134 1692.903 1692.658 1692.426 1692.247 1691.828 1691.695 1691.601 1691.522 1691.354 1691.324 1691.322 1691.29 1691.232 1691.082 1691.075 1691.076 1691.07 1691.078 1691.104 1691.183 1691.227 1691.345 1691.395 1691.496 1691.631 1691.775 1692.089 1692.208 1692.401 1692.608 1692.928 1693.135 1693.288 1693.474 1693.696 1693.974 1694.211 1694.383 1694.557 1694.972 1695.153 1695.272 1695.472 1695.952 1696.202 1696.441 1696.535 1696.625 1697.758 1697.996 1698.194 1698.366 1699.375 1700.534 1701.265 1701.982 1702.742 1704.067 1704.805 1705.414 1706.935 1707.851 
1714.89 1713.7 1712.985 1712.289 1711.535 1710.037 1709.294 1708.523 1707.652 1706.657 1704.418 1703.142 1702.039 1701.073 1699.483 1698.794 1698.144 1697.486 1696.815 1695.828 1695.67 1695.481 1695.425 1694.778 1694.462 1694.121 1693.745 1693.15 1692.904 1692.661 1692.417 1692.191 1691.844 1691.689 1691.561 1691.454 1691.25 1691.229 1691.199 1691.118 1691.086 1690.937 1690.888 1690.871 1690.918 1690.928 1690.918 1690.976 1691.064 1691.191 1691.246 1691.367 1691.532 1691.668 1691.929 1692.076 1692.249 1692.429 1692.741 1692.906 1693.093 1693.32 1693.641 1693.867 1694.103 1694.245 1694.371 1694.84 1694.969 1695.158 1695.339 1695.811 1696.036 1696.292 1696.525 1696.506 1697.167 1697.628 1697.86 1698.109 1699.032 1699.936 1700.454 1701.139 1702.463 1703.172 1704.805 1705.414 1705.828 1706.687 
1713.766 1712.575 1711.861 1711.173 1710.415 1708.929 1708.135 1707.273 1706.309 1705.241 1703.164 1701.973 1700.923 1699.96 1698.527 1697.918 1697.353 1696.741 1696.067 1695.723 1695.516 1695.481 1695.227 1694.683 1694.366 1694.079 1693.824 1693.201 1692.916 1692.656 1692.437 1692.278 1691.835 1691.719 1691.6 1691.426 1691.161 1691.099 1691.056 1690.965 1690.82 1690.821 1690.778 1690.714 1690.761 1690.823 1690.808 1690.828 1690.903 1691.05 1691.156 1691.266 1691.422 1691.529 1691.812 1691.978 1692.138 1692.298 1692.621 1692.786 1692.956 1693.122 1693.442 1693.608 1693.832 1694.045 1694.152 1694.753 1694.966 1695.143 1695.324 1695.716 1695.964 1696.281 1696.512 1696.494 1696.916 1697.287 1697.734 1698.121 1698.844 1699.619 1700.058 1700.432 1702.463 1703.172 1703.813 1704.266 1704.689 1705.47 
1712.731 1711.457 1710.689 1709.978 1709.291 1707.632 1706.75 1705.828 1704.918 1703.997 1701.847 1700.759 1699.723 1698.837 1697.46 1696.891 1696.344 1695.936 1695.571 1695.723 1695.516 1695.258 1695.001 1694.507 1694.327 1694.052 1693.741 1693.272 1692.985 1692.693 1692.466 1692.278 1691.868 1691.67 1691.484 1691.361 1691.126 1690.995 1690.88 1690.807 1690.729 1690.72 1690.679 1690.62 1690.657 1690.647 1690.667 1690.734 1690.815 1690.959 1691.044 1691.156 1691.31 1691.385 1691.71 1691.871 1692.033 1692.194 1692.523 1692.637 1692.771 1692.998 1693.323 1693.492 1693.671 1693.844 1694.016 1694.531 1694.756 1694.925 1695.112 1695.604 1695.846 1696.153 1696.398 1696.558 1696.783 1697.078 1697.467 1697.947 1698.605 1699.256 1700.058 1700.432 1701.657 1702.306 1702.823 1703.169 1703.577 1704.414 
1711.715 1710.331 1709.573 1708.836 1708.055 1706.678 1705.767 1704.583 1703.677 1702.68 1700.517 1699.46 1698.511 1697.691 1696.339 1695.926 1695.656 1695.936 1695.571 1695.378 1695.191 1694.959 1694.734 1694.435 1694.212 1693.97 1693.755 1693.268 1693.006 1692.76 1692.54 1692.295 1691.891 1691.614 1691.431 1691.327 1691.046 1690.896 1690.781 1690.707 1690.63 1690.626 1690.586 1690.509 1690.504 1690.489 1690.534 1690.603 1690.64 1690.869 1690.98 1691.11 1691.218 1691.455 1691.59 1691.757 1691.918 1692.08 1692.418 1692.523 1692.653 1692.898 1693.227 1693.328 1693.476 1693.743 1694.003 1694.456 1694.63 1694.808 1694.984 1695.44 1695.736 1695.997 1696.165 1696.319 1696.514 1696.813 1697.205 1697.678 1698.218 1699.256 1699.548 1699.809 1700.849 1701.391 1701.835 1702.258 1702.597 1703.318 
1710.607 1709.22 1708.422 1707.588 1706.742 1704.961 1704.197 1703.368 1702.354 1701.347 1699.138 1698.029 1697.071 1696.291 1695.559 1695.926 1695.656 1695.424 1695.131 1695 1694.892 1694.823 1694.669 1694.385 1694.146 1693.933 1693.725 1693.264 1692.99 1692.714 1692.499 1692.056 1691.808 1691.591 1691.426 1691.231 1690.961 1690.812 1690.751 1690.669 1690.483 1690.449 1690.439 1690.407 1690.409 1690.466 1690.51 1690.568 1690.572 1690.756 1690.891 1691.027 1691.114 1691.422 1691.577 1691.742 1691.908 1692.065 1692.304 1692.423 1692.52 1692.694 1693.087 1693.284 1693.445 1693.622 1693.802 1694.242 1694.413 1694.584 1694.767 1695.257 1695.491 1695.784 1696.051 1696.173 1696.306 1696.562 1696.917 1697.678 1698.218 1698.72 1699.011 1699.315 1700.035 1700.496 1700.916 1701.32 1701.914 1702.252 
1709.483 1707.934 1707.091 1706.259 1705.413 1703.639 1702.869 1702.041 1701.004 1698.831 1697.781 1696.737 1695.885 1695.408 1695.559 1695.337 1695.095 1694.955 1695.046 1694.941 1694.894 1694.848 1694.727 1694.355 1694.198 1694.001 1693.691 1693.249 1693.049 1692.767 1692.435 1691.939 1691.724 1691.558 1691.368 1691.123 1690.905 1690.748 1690.631 1690.562 1690.365 1690.285 1690.306 1690.306 1690.306 1690.372 1690.442 1690.517 1690.578 1690.676 1690.769 1690.913 1690.999 1691.32 1691.486 1691.646 1691.809 1691.976 1692.242 1692.362 1692.499 1692.586 1692.905 1693.119 1693.348 1693.515 1693.925 1694.127 1694.301 1694.45 1694.554 1695.033 1695.265 1695.56 1695.803 1696.005 1696.1 1696.562 1696.917 1697.243 1697.816 1698.297 1698.486 1698.639 1699.242 1699.618 1699.983 1700.321 1700.985 1701.325 
