NCOLS 40
NROWS 105
XLLCORNER 616843.99
YLLCORNER 4620745.4
CELLSIZE 10
NODATA_VALUE -9999
1508.201 1510.82 1512.908 1513.035 1512.667 1511.99 1511.464 1510.772 1510.302 1510.524 1510.802 1511.407 1512.723 1513.314 1514.038 1516.477 1517.385 1518.592 1520.956 1522.122 1523.107 1523.461 1522.936 1521.85 1520.348 1516.853 1514.942 1512.8 1510.508 1505.064 1502.375 1500.116 1496.43 1494.464 1492.455 1488.593 1486.82 1485.099 1483.44 1480.31 
1508.201 1510.82 1515.168 1514.796 1514.09 1513.008 1512.157 1510.924 1509.032 1508.387 1507.889 1507.379 1508.539 1509.475 1510.792 1513.992 1515.532 1517.614 1519.297 1522.979 1524.005 1524.791 1525.264 1524.271 1522.536 1518.49 1516.338 1514.169 1511.957 1506.182 1503.197 1500.695 1496.866 1494.867 1492.624 1488.553 1486.874 1485.296 1483.726 1480.736 
1512.395 1514.398 1515.168 1514.796 1514.656 1513.332 1512.185 1510.552 1508.999 1506.05 1504.794 1503.647 1503.169 1504.069 1505.874 1510.711 1513.014 1515.185 1518.127 1523.196 1524.532 1525.866 1526.738 1525.957 1524.322 1519.96 1517.734 1515.579 1513.321 1507.456 1504.39 1501.645 1497.475 1495.294 1492.927 1488.667 1486.968 1485.456 1483.97 1481.134 
1514.28 1515.754 1515.378 1515.067 1514.656 1513.332 1512.165 1510.152 1508.199 1503.414 1501.768 1500.677 1499.114 1499.316 1500.661 1506.82 1510.226 1513.222 1516.049 1522.922 1524.963 1526.71 1527.195 1526.945 1525.565 1521.229 1519.024 1516.73 1514.378 1508.684 1505.601 1502.827 1498.137 1495.8 1493.353 1488.932 1487.185 1485.684 1484.229 1481.407 
1515.005 1515.4 1515.664 1515.213 1514.991 1513.585 1512.165 1510.212 1508.124 1503.024 1500.929 1499.455 1498.13 1497.18 1498.057 1502.963 1507.591 1511.848 1515.146 1522.486 1525.463 1527.292 1527.332 1527.011 1526.426 1522.549 1520.039 1517.458 1515.001 1509.599 1506.625 1503.777 1498.843 1496.431 1493.971 1491.614 1487.657 1486.107 1484.596 1481.594 
1515.078 1515.578 1515.515 1515.546 1515.3 1513.693 1512.31 1510.212 1508.124 1503.292 1500.933 1499.454 1498.677 1498.031 1497.101 1501.097 1505.496 1510.54 1514.412 1521.849 1525.362 1527.405 1527.651 1527.554 1527.168 1525.884 1520.573 1517.848 1515.381 1510.221 1507.268 1504.559 1499.633 1497.169 1494.641 1492.358 1488.262 1486.57 1484.993 1481.641 
1514.757 1515.396 1515.657 1515.699 1515.492 1514.811 1512.54 1510.718 1508.618 1503.292 1500.933 1500.811 1499.03 1498.775 1498.816 1499.56 1505.086 1509.785 1513.637 1521.14 1524.357 1526.655 1528.274 1527.504 1527.054 1525.545 1520.535 1517.934 1515.48 1510.36 1507.694 1505.076 1500.18 1497.826 1495.416 1493.09 1488.943 1487.199 1485.424 1481.409 
1514.183 1515.069 1515.72 1515.657 1515.445 1515.096 1513.133 1511.466 1509.479 1504.647 1502.458 1500.811 1499.03 1500.985 1501.125 1501.781 1506.331 1509.909 1513.002 1519.919 1522.954 1525.308 1528.023 1527.855 1526.546 1524.689 1520.069 1517.599 1515.151 1510.216 1507.712 1505.187 1500.625 1498.254 1495.857 1493.593 1489.64 1487.79 1485.767 1481.062 
1513.572 1514.807 1515.74 1515.638 1515.602 1515.445 1513.977 1512.75 1510.906 1506.741 1504.543 1502.891 1501.086 1500.985 1503.151 1503.68 1507.416 1509.757 1512.433 1518.713 1521.498 1523.7 1526.881 1526.893 1525.56 1523.699 1519.156 1516.847 1514.481 1509.682 1507.208 1504.766 1500.277 1498.083 1495.958 1493.703 1490.174 1488.174 1485.985 1480.635 
1512.621 1514.334 1515.549 1515.7 1515.622 1515.639 1514.791 1513.839 1512.58 1508.748 1506.844 1505.349 1503.336 1502.89 1503.151 1503.68 1507.733 1509.879 1512.236 1517.515 1519.983 1522.105 1525.3 1525.194 1523.728 1521.93 1517.95 1515.78 1513.495 1508.66 1506.185 1503.905 1501.669 1497.595 1495.592 1493.634 1490.373 1488.555 1486.043 1480.036 
1511.168 1513.06 1515.352 1515.852 1515.812 1515.613 1515.435 1514.852 1513.907 1511.015 1509.294 1507.615 1504.798 1504.24 1504.288 1504.955 1507.733 1509.879 1511.508 1516.551 1518.708 1520.567 1522.101 1522.456 1521.344 1519.671 1516.247 1514.343 1512.36 1507.242 1504.784 1502.542 1500.541 1496.611 1494.81 1493.109 1490.145 1488.299 1485.649 1479.748 
1509.378 1511.585 1513.386 1515.592 1515.901 1515.845 1515.644 1515.345 1514.738 1512.573 1510.903 1509.157 1507.028 1504.533 1504.299 1504.623 1506.668 1508.637 1511.508 1515.285 1517.084 1518.621 1519.74 1519.065 1518.294 1517.222 1514.266 1512.462 1510.246 1505.431 1503.092 1500.827 1498.679 1495.001 1493.093 1491.645 1489.009 1487.271 1484.894 1479.431 
1507.328 1509.734 1511.772 1514.895 1515.659 1515.905 1515.442 1515.288 1515.086 1513.792 1512.155 1509.763 1506.819 1503.591 1503.135 1503.147 1504.634 1507.477 1510.311 1515.285 1517.084 1516.596 1517.07 1516.486 1515.795 1514.648 1511.969 1510.01 1507.882 1503.353 1501.073 1498.789 1496.51 1492.489 1490.917 1489.572 1487.008 1485.522 1483.62 1479.027 
1504.934 1507.452 1509.746 1513.582 1514.725 1515.18 1515.164 1514.95 1515.07 1514.64 1512.94 1510.082 1505.838 1501.778 1501.063 1500.979 1502.415 1504.555 1507.96 1513.808 1515.386 1516.596 1517.07 1513.816 1513.185 1512.361 1509.426 1507.37 1505.24 1500.869 1498.564 1496.1 1493.593 1489.545 1488.212 1486.956 1484.686 1483.406 1481.935 1480.335 
1502.443 1504.935 1507.554 1511.769 1513.072 1513.976 1514.485 1514.617 1514.609 1514.168 1512.326 1509.087 1504.915 1500.666 1500.22 1500.087 1500.4 1501.61 1504.138 1511.403 1513.329 1514.149 1514.325 1513.816 1513.185 1509.52 1506.665 1504.792 1502.637 1500.509 1495.467 1492.817 1490.4 1486.852 1485.503 1484.324 1482.115 1481.175 1480.328 1479.02 
1500.254 1502.529 1505.067 1509.467 1511.072 1511.996 1513.129 1513.372 1513.401 1512.302 1510.328 1506.971 1502.772 1500.565 1500.537 1500.384 1500.434 1500.309 1500.931 1504.724 1510.658 1511.636 1512.076 1511.382 1510.702 1509.52 1503.421 1501.783 1500.006 1497.648 1492.28 1489.635 1487.441 1484.102 1482.623 1481.292 1479.271 1478.529 1477.948 1477.06 
1498.168 1500.211 1502.313 1506.677 1508.357 1509.61 1511.148 1511.549 1511.718 1511.444 1508.45 1504.984 1501.394 1500.685 1500.502 1500.461 1500.471 1500.491 1500.76 1502.849 1508.297 1509.441 1509.739 1508.634 1507.681 1506.361 1503.421 1501.783 1496.886 1494.581 1489.489 1487.054 1484.844 1481.083 1479.344 1477.966 1476.311 1475.663 1474.919 1474.001 
1496.001 1497.998 1499.919 1503.775 1505.37 1506.688 1508.893 1509.48 1509.801 1509.593 1506.456 1503.416 1501.103 1500.63 1500.567 1500.433 1500.489 1500.454 1500.711 1501.991 1505.908 1506.852 1507.06 1505.675 1504.407 1503.249 1500.495 1498.857 1496.886 1494.581 1486.95 1484.504 1482.132 1477.924 1476.248 1474.938 1472.896 1472.046 1471.269 1470.497 
1493.753 1495.805 1497.779 1501.598 1503.198 1504.577 1506.612 1507.324 1507.658 1507.501 1505.087 1502.895 1501.035 1500.546 1500.521 1500.491 1500.489 1500.521 1500.75 1501.606 1504.579 1505.089 1504.83 1503.771 1502.272 1500.896 1497.922 1496.162 1494.115 1491.815 1486.95 1484.504 1479.352 1474.982 1473.175 1471.653 1470.33 1468.184 1467.522 1466.933 
1491.31 1493.572 1495.748 1499.799 1501.414 1502.679 1504.719 1505.572 1505.992 1505.762 1504.327 1502.924 1501.019 1500.642 1500.555 1500.521 1500.564 1500.637 1500.877 1501.723 1503.588 1503.639 1502.943 1501.482 1500.197 1498.822 1497.272 1493.673 1491.582 1489.419 1484.478 1481.86 1479.352 1472.062 1469.812 1467.831 1466.366 1464.475 1464.017 1463.981 
1488.879 1491.004 1493.412 1497.784 1499.65 1501.195 1503.219 1504.155 1504.61 1504.613 1503.714 1502.993 1501.747 1500.638 1500.684 1500.685 1500.682 1500.689 1501.017 1502.019 1502.831 1502.566 1501.885 1499.636 1498.339 1496.903 1495.182 1491.431 1489.43 1487.109 1482.006 1479.37 1476.871 1472.062 1469.812 1464.233 1463.658 1463.447 1463.704 1463.672 
1486.76 1488.829 1490.948 1495.551 1497.603 1499.398 1500.923 1502.899 1503.39 1503.723 1503.213 1503.016 1502.602 1501.408 1501.169 1500.777 1500.723 1501.341 1501.624 1502.198 1502.206 1501.602 1500.628 1497.925 1496.402 1494.805 1493.035 1489.273 1487.33 1484.656 1479.531 1476.942 1474.445 1468.961 1466.256 1464.233 1463.658 1463.382 1463.408 1463.622 
1484.614 1486.486 1488.452 1492.833 1495.089 1497.223 1499.092 1501.642 1502.192 1502.742 1503.002 1502.914 1502.678 1502.289 1502.04 1501.607 1501.489 1502.152 1502.264 1502.228 1501.697 1500.798 1499.412 1496.228 1494.46 1492.708 1490.822 1486.8 1484.381 1481.984 1477.111 1474.511 1471.913 1466.472 1464.387 1463.494 1463.373 1463.382 1463.394 1463.471 
1482.048 1483.916 1485.873 1490.019 1492.306 1494.647 1496.806 1499.997 1501.09 1501.8 1502.594 1502.609 1502.564 1502.517 1502.485 1502.457 1502.359 1502.28 1502.214 1502.03 1500.878 1499.496 1497.862 1494.44 1492.547 1490.684 1488.743 1483.961 1481.46 1479.026 1474.596 1472.215 1469.479 1466.947 1463.64 1463.463 1463.221 1463.369 1463.394 1463.471 
1479.089 1480.93 1482.907 1487.3 1489.52 1491.671 1493.896 1497.689 1499.19 1500.309 1501.703 1502.033 1502.26 1502.509 1502.395 1502.27 1502.354 1502.046 1501.814 1501.445 1499.243 1497.688 1496.046 1494.309 1490.525 1488.552 1486.232 1480.768 1478.231 1475.961 1471.689 1469.514 1467.32 1465.162 1463.312 1463.112 1463.24 1463.227 1463.432 1463.607 
1476.098 1477.741 1479.683 1484.203 1486.544 1488.729 1490.643 1494.53 1496.193 1497.638 1499.912 1500.677 1501.141 1501.512 1501.639 1501.569 1501.6 1501.183 1500.57 1499.761 1497.097 1495.537 1493.833 1492.041 1488.256 1485.685 1482.827 1477.412 1475.142 1473.098 1469.025 1467.055 1465.318 1464.129 1463.125 1462.981 1463.091 1463.389 1463.701 1463.872 
1473.195 1474.706 1476.408 1478.304 1482.993 1485.343 1487.579 1491.093 1492.684 1494.27 1496.939 1497.949 1498.596 1499.149 1499.678 1499.73 1499.637 1498.982 1498.243 1497.19 1494.507 1492.984 1491.468 1489.931 1485.007 1481.895 1478.818 1474.285 1472.335 1470.306 1466.512 1464.877 1463.881 1463.426 1462.903 1462.92 1462.953 1463.771 1464.283 1464.255 
1470.342 1471.841 1473.422 1474.997 1479.125 1481.342 1483.572 1487.581 1489.229 1490.515 1493.1 1494.249 1495.062 1495.711 1496.689 1496.72 1496.53 1495.818 1495.053 1493.981 1491.647 1490.427 1488.879 1486.828 1480.599 1477.81 1475.278 1471.404 1469.554 1467.736 1464.422 1463.592 1463.285 1462.893 1462.702 1462.762 1462.928 1463.747 1464.246 1464.3 
1467.278 1468.777 1470.374 1472.02 1475.334 1476.97 1478.997 1483.169 1484.958 1486.481 1489.293 1490.394 1491.304 1492.023 1492.832 1492.964 1492.944 1492.303 1491.565 1490.662 1488.605 1486.989 1485 1482.235 1476.437 1474.229 1472.331 1468.723 1466.953 1465.268 1463.974 1462.906 1462.433 1462.365 1462.371 1462.598 1462.757 1463.746 1464.26 1464.263 
1464.382 1465.69 1467.397 1469.07 1472.141 1473.627 1475.021 1478.127 1480.109 1481.942 1485.055 1486.34 1487.423 1488.458 1489.105 1489.3 1489.414 1488.841 1488.257 1487.117 1485.936 1482.332 1480.037 1477.822 1473.174 1471.283 1469.528 1466.143 1464.725 1463.675 1463.08 1462.148 1461.923 1461.841 1462.111 1462.278 1462.438 1463.544 1464.076 1464.197 
1462.348 1463.559 1464.625 1466.188 1469.187 1470.535 1471.882 1474.497 1475.783 1477.001 1478.583 1481.756 1482.921 1483.859 1484.811 1484.974 1484.977 1484.349 1483.551 1482.355 1480.885 1477.347 1475.775 1474.022 1470.277 1468.493 1466.779 1464.003 1463.208 1462.734 1462.197 1461.486 1461.425 1461.43 1461.704 1461.941 1462.132 1463.099 1463.615 1464.045 
1461.258 1462.156 1462.828 1463.747 1466.519 1467.829 1469.021 1471.354 1472.39 1473.464 1474.69 1476.941 1477.965 1478.966 1479.862 1479.971 1479.942 1478.974 1478.237 1477.347 1476.23 1473.579 1472.265 1470.681 1467.462 1465.803 1464.434 1462.786 1462.143 1461.669 1461.289 1460.95 1460.943 1460.993 1461.388 1461.542 1461.869 1462.713 1463.279 1463.668 
1460.837 1461.306 1461.773 1462.236 1464.108 1465.255 1466.445 1468.518 1469.452 1470.366 1471.426 1473.175 1474.004 1474.728 1475.401 1475.38 1475.338 1474.621 1474 1473.223 1472.312 1470.259 1469.128 1467.903 1464.902 1463.901 1463.078 1461.807 1461.355 1460.931 1460.838 1460.778 1460.805 1460.761 1461.144 1461.288 1461.568 1461.903 1462.883 1463.387 
1460.476 1460.869 1461.015 1461.542 1462.548 1463.196 1463.918 1465.739 1466.545 1467.371 1468.208 1469.599 1470.199 1470.593 1470.48 1470.414 1470.543 1470.445 1470.034 1469.402 1468.773 1467.081 1466.162 1465.121 1463.187 1462.5 1461.87 1461.322 1460.865 1460.785 1460.785 1460.785 1460.785 1460.785 1460.886 1461.081 1461.32 1461.655 1462.53 1463.098 
1460.21 1460.654 1460.891 1461.11 1461.815 1462.176 1462.342 1463.375 1463.825 1464.259 1464.765 1465.526 1465.601 1465.749 1465.378 1465.224 1465.401 1465.724 1466.044 1465.67 1465.209 1464.194 1463.684 1463.135 1461.85 1461.33 1461.023 1460.852 1460.784 1460.785 1460.785 1460.785 1460.785 1460.785 1460.772 1460.881 1461.181 1461.487 1462.256 1462.855 
1460.151 1460.337 1460.574 1460.815 1461.456 1461.591 1461.741 1461.812 1461.885 1462.068 1462.249 1462.417 1462.361 1462.322 1462.055 1461.979 1462.124 1462.516 1463.323 1463.187 1463.021 1462.562 1462.144 1461.749 1460.925 1460.827 1460.795 1460.784 1460.785 1460.785 1460.785 1460.785 1460.785 1460.785 1460.783 1460.81 1460.977 1461.289 1461.971 1462.476 
1460.099 1460.118 1460.278 1460.509 1461.093 1461.295 1461.325 1461.106 1461.161 1461.156 1461.158 1461.185 1461.178 1461.109 1461.002 1461.031 1461.142 1461.392 1461.743 1461.71 1461.562 1461.438 1461.353 1461.085 1460.767 1460.785 1460.785 1460.785 1460.785 1460.785 1460.785 1460.785 1460.785 1460.785 1460.785 1460.781 1460.824 1461.023 1461.756 1462.207 
1460.099 1460.118 1460.096 1460.221 1460.729 1460.94 1460.94 1460.96 1460.969 1460.957 1460.884 1460.883 1460.862 1460.79 1460.789 1460.793 1460.798 1460.807 1461.048 1461.031 1461.025 1460.944 1460.823 1460.805 1460.785 1460.785 1460.785 1460.785 1460.785 1460.785 1460.785 1460.785 1460.785 1460.785 1460.785 1460.784 1460.798 1460.939 1461.545 1461.984 
1460.164 1460.084 1460.096 1460.072 1460.318 1460.472 1460.635 1460.728 1460.767 1460.769 1460.774 1460.784 1460.76 1460.687 1460.639 1460.557 1460.481 1460.404 1460.618 1460.804 1460.802 1460.792 1460.785 1460.785 1460.785 1460.785 1460.785 1460.785 1460.785 1460.785 1460.785 1460.785 1460.785 1460.785 1460.785 1460.785 1460.785 1460.826 1461.445 1461.784 
1460.567 1460.095 1460.087 1460.072 1460.318 1460.198 1460.338 1460.419 1460.672 1460.663 1460.671 1460.678 1460.654 1460.575 1460.498 1460.347 1460.273 1460.197 1460.368 1460.721 1460.784 1460.785 1460.785 1460.785 1460.785 1460.785 1460.785 1460.785 1460.785 1460.785 1460.785 1460.785 1460.785 1460.785 1460.785 1460.785 1460.784 1460.791 1461.414 1461.763 
1461.388 1460.384 1460.2 1460.102 1460.066 1460.198 1460.338 1460.235 1460.453 1460.463 1460.538 1460.511 1460.427 1460.356 1460.291 1460.083 1460.083 1460.084 1460.221 1460.549 1460.76 1460.785 1460.785 1460.785 1460.785 1460.785 1460.785 1460.785 1460.785 1460.785 1460.785 1460.785 1460.785 1460.785 1460.785 1460.785 1460.784 1460.792 1461.32 1461.699 
1462.84 1461.151 1460.564 1460.248 1460.115 1460.089 1460.157 1460.235 1460.453 1460.236 1460.235 1460.203 1460.129 1460.076 1460.082 1460.107 1460.119 1460.189 1460.362 1460.547 1460.759 1460.785 1460.785 1460.785 1460.785 1460.785 1460.785 1460.785 1460.785 1460.785 1460.785 1460.785 1460.785 1460.785 1460.785 1460.785 1460.784 1460.793 1461.253 1461.595 
1464.707 1462.498 1461.449 1460.708 1460.344 1460.109 1460.093 1460.142 1460.24 1460.236 1460.106 1460.114 1460.164 1460.26 1460.349 1460.613 1460.662 1460.644 1460.6 1460.636 1460.777 1460.785 1460.785 1460.785 1460.785 1460.785 1460.785 1460.785 1460.785 1460.785 1460.785 1460.785 1460.785 1460.785 1460.785 1460.785 1460.784 1460.793 1461.28 1461.672 
1466.058 1463.852 1462.745 1461.805 1461.142 1460.464 1460.261 1460.134 1460.108 1460.108 1460.106 1460.114 1460.81 1460.984 1461.206 1461.378 1461.391 1461.285 1461.089 1460.991 1460.894 1460.808 1460.786 1460.785 1460.785 1460.785 1460.785 1460.785 1460.785 1460.785 1460.785 1460.785 1460.785 1460.785 1460.785 1460.785 1460.784 1460.794 1461.342 1461.693 
1466.732 1465.088 1464.136 1463.166 1462.555 1461.37 1460.946 1460.69 1460.657 1460.624 1460.596 1460.563 1460.81 1460.984 1462.166 1462.314 1462.156 1461.916 1461.512 1461.242 1461.015 1460.918 1460.781 1460.785 1460.787 1460.786 1460.785 1460.785 1460.785 1460.785 1460.785 1460.785 1460.785 1460.785 1460.785 1460.784 1460.801 1460.926 1461.493 1461.839 
1468.394 1467.65 1465.419 1464.497 1464.105 1462.747 1462.341 1462.162 1462.186 1462.062 1461.933 1461.757 1461.86 1462.04 1462.166 1462.844 1462.676 1462.509 1461.922 1461.561 1461.333 1461.161 1460.85 1460.803 1460.874 1460.85 1460.784 1460.784 1460.785 1460.785 1460.785 1460.785 1460.785 1460.785 1460.785 1460.797 1460.907 1461.133 1461.609 1461.88 
1471.498 1470.258 1467.219 1466.027 1465.206 1463.776 1463.802 1463.865 1463.919 1463.811 1463.567 1463.133 1463.002 1462.99 1463.052 1462.844 1462.676 1462.986 1462.364 1462.061 1461.758 1461.513 1461.074 1460.99 1460.906 1461.005 1460.98 1460.899 1460.781 1460.786 1460.785 1460.785 1460.785 1460.785 1460.784 1460.933 1461.113 1461.343 1461.508 1461.974 
1475.088 1473.063 1468.96 1467.198 1466.003 1464.617 1464.854 1464.991 1464.881 1464.671 1464.264 1463.906 1463.518 1463.579 1463.646 1463.47 1463.261 1462.986 1462.364 1462.478 1462.261 1462.028 1461.432 1461.222 1461.127 1461.024 1461.123 1461.206 1461.22 1461.067 1460.98 1460.895 1460.978 1460.983 1461.052 1461.238 1461.401 1461.558 1461.705 1462.154 
1476.393 1474.526 1470.732 1468.795 1467.499 1466.042 1465.934 1465.866 1465.239 1464.629 1464.144 1463.949 1463.954 1464.131 1464.261 1463.955 1463.671 1463.298 1462.987 1462.478 1462.261 1462.438 1461.971 1461.727 1461.48 1461.194 1461.279 1461.499 1461.597 1461.474 1461.392 1461.31 1461.389 1461.393 1461.467 1461.616 1461.687 1461.768 1461.912 1462.253 
1476.35 1474.937 1472.129 1470.431 1469.102 1467.396 1466.923 1466.463 1466.015 1464.444 1464.037 1463.982 1464.25 1464.544 1464.831 1464.15 1463.9 1463.703 1463.472 1462.8 1462.645 1462.438 1462.47 1462.245 1462.016 1461.647 1461.639 1461.606 1461.587 1461.722 1461.729 1461.802 1461.732 1461.798 1461.789 1461.814 1461.921 1462.073 1462.226 1462.535 
1476.496 1475.606 1473.185 1471.486 1470.254 1468.397 1467.73 1467.054 1466.343 1464.636 1464.313 1464.303 1464.741 1465.177 1465.388 1464.687 1464.288 1464.107 1463.784 1463.148 1462.96 1462.892 1462.47 1462.245 1462.615 1462.19 1462.007 1461.831 1461.735 1462.142 1462.112 1462.095 1462.146 1462.18 1462.107 1462.182 1462.232 1462.383 1462.464 1462.612 
1476.531 1475.979 1473.454 1472.089 1470.97 1469.237 1468.421 1467.716 1467.052 1465.688 1465.466 1465.424 1465.638 1465.83 1465.941 1465.304 1464.826 1464.4 1464.055 1463.352 1463.238 1463.16 1462.912 1462.761 1462.615 1462.19 1462.515 1462.309 1462.266 1462.22 1462.194 1462.111 1462.128 1462.242 1462.378 1462.387 1462.486 1462.495 1462.565 1462.682 
1475.526 1475.068 1473.161 1472.215 1471.408 1469.993 1469.394 1468.791 1468.171 1467.435 1467.122 1466.955 1466.742 1466.609 1466.415 1465.745 1465.127 1464.486 1464.176 1463.606 1463.457 1463.378 1463.282 1463.161 1463.117 1462.995 1462.515 1462.309 1462.746 1462.541 1462.447 1462.357 1462.367 1462.412 1462.398 1462.386 1462.487 1462.485 1462.486 1462.587 
1474.74 1474.236 1473.038 1472.458 1471.9 1470.835 1470.433 1470.051 1469.682 1469.14 1468.894 1468.647 1467.895 1467.549 1467.164 1466.7 1465.456 1464.93 1464.419 1463.959 1463.741 1463.661 1463.544 1463.516 1463.584 1463.534 1463.155 1462.977 1462.746 1463.206 1463.093 1462.914 1462.702 1462.641 1462.624 1462.536 1462.5 1462.494 1462.49 1462.483 
1474.78 1474.184 1473.19 1472.833 1472.32 1471.935 1471.392 1471.191 1471.194 1471.111 1470.938 1470.545 1469.358 1468.735 1468.099 1467.384 1465.949 1465.42 1464.79 1464.085 1463.946 1463.917 1463.958 1463.887 1463.852 1463.774 1463.628 1463.426 1463.363 1463.206 1463.093 1463.527 1463.255 1463.164 1463.055 1462.887 1462.801 1462.703 1462.619 1462.486 
1475.043 1474.421 1473.478 1473.161 1472.907 1472.593 1472.337 1472.363 1472.626 1473.43 1473.125 1472.766 1471.077 1470.091 1469.004 1468.03 1466.216 1465.49 1464.673 1464.134 1464.148 1464.248 1464.24 1464.107 1464.053 1463.984 1464.047 1463.998 1464 1463.888 1463.76 1463.527 1463.255 1463.753 1463.594 1463.429 1463.179 1463.035 1462.944 1462.705 
1475.449 1474.879 1474.018 1473.721 1473.522 1473.212 1473.117 1473.26 1473.788 1475.27 1475.257 1475.108 1472.959 1471.368 1469.942 1468.723 1466.236 1465.085 1464.272 1464.15 1464.284 1464.657 1464.517 1464.216 1464.187 1464.26 1464.276 1464.303 1464.309 1464.19 1464.106 1463.993 1463.994 1463.753 1464.141 1464.013 1463.631 1463.535 1463.362 1463.034 
1475.729 1475.315 1474.97 1474.797 1474.425 1474.068 1473.784 1474.062 1474.637 1476.336 1476.467 1476.349 1474.319 1472.545 1470.946 1469.558 1466.658 1465.289 1464.505 1464.358 1464.742 1465.297 1465.279 1464.557 1464.384 1464.651 1464.75 1464.78 1464.645 1464.178 1464.186 1464.186 1464.186 1464.208 1464.141 1464.013 1464.078 1463.894 1463.669 1463.406 
1475.836 1475.537 1476.24 1476.03 1475.491 1474.782 1474.456 1474.642 1475.158 1476.589 1476.632 1476.509 1475.852 1473.2 1471.836 1470.506 1467.778 1466.523 1465.497 1465.319 1465.606 1465.766 1465.771 1465.306 1465.167 1465.356 1465.341 1465.167 1464.616 1464.18 1464.186 1464.186 1464.185 1464.235 1464.189 1464.193 1464.078 1463.894 1463.936 1463.739 
1475.964 1476.075 1476.39 1476.332 1475.942 1475.877 1475.649 1475.414 1475.685 1476.527 1476.613 1476.469 1475.725 1473.599 1472.569 1471.506 1469.224 1468.144 1467.192 1466.61 1466.568 1466.555 1466.446 1466.13 1465.966 1465.913 1465.549 1465.186 1464.554 1464.181 1464.186 1464.181 1464.184 1464.447 1464.199 1464.184 1464.167 1464.072 1463.936 1463.739 
1476.104 1476.353 1476.473 1476.377 1476.161 1476.322 1476.381 1476.203 1476.118 1476.508 1476.626 1476.459 1475.655 1474.1 1473.401 1472.594 1470.776 1469.829 1468.99 1467.867 1467.571 1467.377 1467.18 1466.771 1466.547 1466.398 1465.81 1465.315 1464.759 1464.19 1464.163 1464.207 1464.335 1464.474 1464.198 1464.184 1464.149 1464.07 1463.994 1463.846 
1476.287 1476.382 1476.4 1476.351 1476.273 1476.366 1476.467 1476.368 1476.277 1476.46 1476.537 1476.371 1475.626 1474.458 1474.504 1474.115 1472.283 1471.4 1470.469 1469.08 1468.568 1468.183 1467.905 1467.355 1467.092 1466.816 1466.078 1465.621 1465.168 1464.751 1464.339 1464.461 1464.641 1464.419 1464.193 1464.184 1464.148 1464.064 1463.987 1463.917 
1476.301 1476.379 1476.386 1476.381 1476.372 1476.382 1476.463 1476.357 1476.285 1476.442 1476.507 1476.305 1475.442 1475.572 1475.994 1475.742 1473.757 1472.542 1471.579 1470.764 1469.508 1469.052 1468.643 1467.97 1467.574 1467.219 1466.471 1466.081 1465.606 1465.257 1464.984 1464.995 1464.874 1464.321 1464.189 1464.185 1464.146 1464.062 1463.986 1463.909 
1476.381 1476.385 1476.386 1476.386 1476.385 1476.386 1476.391 1476.382 1476.368 1476.37 1476.556 1476.316 1475.85 1476.363 1476.525 1476.43 1474.568 1473.275 1472.338 1471.585 1470.341 1469.844 1469.375 1468.528 1468.061 1467.68 1466.921 1466.569 1466.223 1465.956 1465.534 1465.363 1465.006 1464.262 1464.187 1464.185 1464.143 1464.058 1463.984 1463.907 
1476.386 1476.386 1476.386 1476.386 1476.385 1476.39 1476.439 1476.385 1476.385 1476.385 1476.525 1476.524 1476.4 1476.484 1476.348 1475.929 1474.598 1473.727 1472.954 1472.285 1471.117 1470.531 1470.02 1469.034 1468.611 1468.137 1467.37 1467.062 1466.795 1466.447 1465.848 1465.49 1465.099 1464.274 1464.186 1464.185 1464.164 1464.089 1463.987 1463.909 
1476.386 1476.386 1476.386 1476.386 1476.385 1476.389 1476.446 1476.385 1476.385 1476.386 1476.618 1476.681 1476.665 1476.54 1476.263 1475.656 1474.62 1474.083 1473.619 1473.114 1471.92 1471.307 1470.714 1469.651 1469.147 1468.604 1467.803 1467.44 1467.131 1466.742 1466.04 1465.564 1465.175 1464.412 1464.193 1464.182 1464.186 1464.108 1463.95 1463.871 
1476.381 1476.399 1476.474 1476.382 1476.404 1476.475 1476.437 1476.384 1476.385 1476.386 1476.597 1476.609 1476.68 1476.503 1476.25 1475.537 1474.901 1474.807 1474.38 1473.93 1472.719 1471.987 1471.307 1470.122 1469.579 1469.044 1468.597 1467.767 1467.371 1466.992 1466.168 1465.714 1465.372 1464.651 1464.319 1464.186 1464.117 1463.999 1463.875 1463.796 
1476.423 1476.494 1476.491 1476.382 1476.405 1476.477 1476.434 1476.384 1476.385 1476.387 1476.63 1476.683 1476.69 1476.398 1476.05 1475.552 1475.733 1475.979 1475.565 1475.012 1473.138 1472.344 1471.703 1470.55 1469.961 1469.429 1468.968 1468.021 1467.558 1467.132 1466.303 1465.943 1465.603 1464.79 1464.413 1464.182 1464.008 1463.911 1463.836 1463.76 
1476.572 1476.692 1476.609 1476.482 1476.486 1476.485 1476.487 1476.384 1476.385 1476.388 1476.633 1476.685 1476.679 1476.319 1476.148 1476.186 1476.377 1476.494 1476.269 1475.406 1473.485 1472.804 1472.247 1471.037 1470.436 1469.908 1469.351 1468.209 1467.76 1467.254 1466.307 1465.977 1465.558 1464.735 1464.363 1464.19 1464.029 1463.849 1463.767 1463.689 
1476.852 1476.887 1476.809 1476.759 1476.643 1476.488 1476.4 1476.386 1476.385 1476.39 1476.702 1476.685 1476.686 1476.515 1476.335 1476.374 1476.469 1476.342 1475.927 1475.161 1473.88 1473.308 1472.761 1471.489 1470.915 1470.257 1469.579 1468.366 1467.807 1467.219 1466.205 1465.617 1465.06 1464.352 1464.216 1464.073 1463.959 1463.821 1463.782 1463.705 
1477.005 1476.984 1476.905 1476.741 1476.632 1476.482 1476.399 1476.385 1476.395 1476.467 1476.739 1476.786 1476.784 1476.683 1476.535 1476.489 1476.52 1475.868 1475.308 1475.075 1474.373 1473.959 1473.416 1472.063 1471.37 1470.613 1469.919 1468.465 1467.768 1467.18 1465.913 1465.24 1464.73 1464.277 1464.125 1463.965 1463.887 1463.75 1463.717 1463.641 
1477.228 1477.08 1477.002 1476.688 1476.517 1476.393 1476.384 1476.385 1476.396 1476.471 1476.741 1476.785 1476.786 1476.698 1476.534 1476.379 1476.18 1475.669 1475.417 1475.321 1475.247 1474.988 1474.228 1473.489 1471.856 1471.082 1470.329 1468.677 1467.86 1467.039 1465.582 1465.027 1464.513 1464.234 1464.15 1464.037 1463.957 1463.839 1463.715 1463.639 
1477.388 1477.19 1477.103 1476.717 1476.499 1476.392 1476.385 1476.383 1476.413 1476.567 1476.845 1476.894 1476.885 1476.818 1476.537 1476.343 1475.961 1475.746 1475.733 1475.798 1476.329 1476.094 1475.102 1473.949 1472.286 1471.571 1470.794 1469.028 1467.987 1466.953 1465.021 1464.476 1464.238 1464.18 1464.159 1464.071 1463.996 1463.921 1463.77 1463.695 
1477.388 1477.378 1477.203 1476.887 1476.38 1476.385 1476.386 1476.373 1476.437 1476.67 1476.955 1476.971 1476.895 1476.893 1476.624 1476.452 1476.21 1476.117 1476.266 1476.348 1476.42 1475.913 1475.015 1474.211 1472.853 1472.142 1471.433 1469.51 1468.343 1467.139 1464.556 1464.153 1464.172 1464.18 1464.156 1464.142 1464.065 1463.897 1463.753 1463.682 
1477.523 1477.378 1477.203 1476.934 1476.387 1476.385 1476.385 1476.462 1476.666 1476.889 1476.996 1477.017 1477.093 1477.105 1476.783 1476.568 1476.484 1476.475 1476.472 1476.395 1475.868 1475.432 1474.849 1474.545 1473.618 1473.023 1472.3 1470.42 1469.154 1467.674 1464.494 1464.004 1464.103 1464.755 1464.324 1464.17 1464.096 1463.966 1463.814 1463.742 
1477.623 1477.477 1477.313 1476.934 1476.608 1476.39 1476.397 1476.627 1476.88 1477.101 1477.208 1477.201 1477.202 1477.202 1476.952 1476.877 1476.798 1476.717 1476.543 1476.291 1475.403 1475.41 1475.592 1475.522 1474.382 1473.792 1473.344 1471.777 1470.663 1469.159 1467.073 1465.284 1465.317 1465.633 1464.549 1464.127 1464.076 1464.038 1463.93 1463.847 
1477.73 1477.617 1477.501 1477.156 1476.608 1476.39 1476.625 1476.855 1477.106 1477.309 1477.292 1477.327 1477.382 1477.318 1477.166 1477.068 1476.913 1476.712 1476.522 1476.287 1476.091 1476.397 1476.479 1476.505 1474.889 1474.623 1474.438 1473.661 1472.655 1471.24 1469.774 1467.151 1467.081 1466.585 1464.881 1464.268 1464.111 1464.027 1463.967 1463.953 
1477.867 1477.757 1477.606 1477.409 1476.776 1476.559 1476.625 1476.855 1477.405 1477.507 1477.446 1477.368 1477.31 1477.385 1477.253 1477.181 1477.106 1476.86 1476.629 1476.491 1476.479 1476.474 1476.377 1476.157 1475.564 1475.69 1475.581 1475.151 1474.677 1473.666 1472.693 1469.97 1468.671 1467.602 1465.648 1465.054 1464.676 1464.125 1464.093 1463.975 
1478.01 1477.782 1477.71 1477.588 1477.094 1476.985 1476.976 1477.196 1477.405 1477.507 1477.619 1477.498 1477.5 1477.488 1477.289 1477.287 1477.199 1476.902 1476.681 1476.398 1476.379 1476.14 1476.077 1476.072 1476.416 1476.452 1476.437 1476.397 1476.389 1476.114 1474.963 1472.139 1470.434 1468.869 1466.39 1465.585 1464.783 1464.177 1464.18 1464.131 
1477.975 1477.878 1477.819 1477.747 1477.518 1477.404 1477.401 1477.541 1477.633 1477.614 1477.619 1477.561 1477.486 1477.403 1477.412 1477.363 1477.207 1476.845 1476.635 1476.486 1476.329 1476.141 1476.302 1476.377 1476.678 1476.785 1476.775 1476.776 1476.718 1476.581 1476.459 1473.626 1471.693 1469.999 1466.905 1465.455 1464.433 1464.321 1464.184 1464.175 
1477.931 1477.851 1477.854 1477.8 1477.786 1477.747 1477.743 1477.662 1477.688 1477.694 1477.715 1477.561 1477.486 1477.505 1477.452 1477.371 1477.305 1477.013 1476.819 1476.606 1476.519 1476.544 1476.614 1476.69 1476.946 1476.986 1476.987 1477.062 1476.942 1476.879 1476.832 1474.719 1472.915 1471.192 1467.716 1466.069 1464.922 1464.273 1464.168 1464.277 
1477.967 1477.791 1477.778 1477.813 1477.784 1477.785 1477.791 1477.774 1477.692 1477.691 1477.762 1477.583 1477.576 1477.505 1477.452 1477.383 1477.379 1477.334 1476.978 1476.921 1476.837 1476.918 1476.942 1477.085 1477.136 1477.188 1477.179 1477.108 1477.097 1477.067 1476.853 1475.391 1473.902 1472.474 1468.932 1467.268 1465.855 1464.85 1464.956 1464.894 
1477.807 1477.851 1477.838 1477.886 1477.814 1477.815 1477.817 1477.88 1477.764 1477.712 1477.702 1477.599 1477.571 1477.498 1477.443 1477.383 1477.379 1477.269 1477.185 1477.187 1477.126 1477.213 1477.208 1477.198 1477.189 1477.192 1477.181 1477.107 1477.09 1477.066 1476.922 1476.161 1474.994 1473.495 1470.254 1468.625 1467.346 1466.365 1465.572 1465.354 
1477.432 1477.775 1477.864 1477.884 1477.884 1477.901 1477.93 1477.901 1477.802 1477.796 1477.823 1477.649 1477.568 1477.493 1477.427 1477.339 1477.266 1477.269 1477.186 1477.188 1477.203 1477.237 1477.287 1477.281 1477.245 1477.28 1477.183 1477.098 1477.01 1476.896 1476.973 1476.73 1476.253 1474.996 1471.348 1469.849 1468.507 1467.482 1466.152 1465.745 
1476.965 1477.573 1477.773 1477.878 1477.884 1477.904 1477.95 1477.903 1477.869 1477.827 1477.86 1477.661 1477.57 1477.494 1477.323 1477.229 1477.162 1477.157 1477.186 1477.188 1477.295 1477.319 1477.178 1477.188 1477.354 1477.345 1477.169 1477.004 1476.862 1476.865 1476.793 1476.599 1476.318 1475.307 1473.722 1470.798 1469.42 1468.245 1466.793 1466.229 
1476.526 1477.378 1477.682 1477.831 1477.886 1477.885 1477.885 1477.885 1477.879 1477.845 1477.787 1477.686 1477.539 1477.47 1477.221 1477.099 1477.035 1477.03 1477.187 1477.201 1477.295 1477.319 1477.306 1477.289 1477.211 1477.222 1477.042 1476.803 1476.429 1476.499 1476.662 1476.294 1475.789 1474.974 1473.785 1471.277 1470.039 1468.866 1467.306 1466.748 
1476.495 1477.306 1477.639 1477.781 1477.831 1477.845 1477.889 1477.924 1477.859 1477.819 1477.794 1477.572 1477.423 1477.264 1477.049 1476.862 1476.791 1476.784 1477.162 1477.214 1477.357 1477.354 1477.306 1477.289 1477.276 1476.992 1476.813 1476.511 1476.328 1476.405 1476.56 1475.998 1475.231 1474.445 1473.554 1471.357 1470.164 1469.232 1467.623 1467.038 
1476.65 1477.353 1477.631 1477.727 1477.812 1477.837 1477.89 1477.982 1477.906 1477.846 1477.767 1477.383 1477.125 1476.862 1476.67 1476.546 1476.499 1476.495 1476.898 1477.19 1477.275 1477.383 1477.357 1477.292 1477.276 1476.765 1476.621 1476.4 1475.885 1476.13 1476.258 1475.771 1474.967 1473.913 1473.07 1471.084 1470.05 1469.209 1467.691 1467.042 
1476.71 1477.428 1477.63 1477.741 1477.859 1477.905 1477.936 1477.937 1477.883 1477.723 1477.621 1476.996 1476.72 1476.581 1476.41 1476.386 1476.386 1476.377 1476.667 1477.136 1477.28 1477.264 1477.286 1477.261 1477.11 1476.765 1476.621 1476.161 1475.365 1475.088 1474.916 1474.242 1473.75 1473.146 1472.41 1470.608 1469.731 1468.972 1467.375 1466.7 
1476.825 1477.437 1477.636 1477.784 1477.87 1477.924 1477.983 1477.901 1477.735 1477.59 1477.313 1476.725 1476.537 1476.428 1476.388 1476.382 1476.411 1476.461 1476.901 1477.136 1477.277 1477.219 1477.256 1477.152 1476.957 1476.504 1476.414 1476.161 1475.365 1474.405 1474.149 1473.796 1472.847 1472.222 1471.542 1470.01 1469.176 1468.424 1467.146 1466.284 
1476.853 1477.505 1477.699 1477.833 1477.873 1477.919 1477.979 1477.904 1477.654 1477.406 1477.044 1476.508 1476.398 1476.374 1476.401 1476.521 1476.62 1476.786 1477.056 1477.151 1477.247 1477.214 1477.11 1476.968 1476.588 1476.34 1476.076 1475.681 1474.66 1474.405 1473.598 1473.294 1472.256 1471.617 1470.864 1469.344 1468.429 1467.675 1466.453 1465.845 
1476.984 1477.641 1477.886 1478.016 1478.018 1477.953 1477.972 1477.901 1477.514 1477.2 1476.896 1476.517 1476.376 1476.432 1476.575 1476.868 1476.944 1477.068 1477.233 1477.187 1477.183 1477.169 1476.883 1476.708 1476.432 1475.828 1475.385 1475.023 1474.323 1473.983 1473.598 1473.294 1471.883 1471.244 1470.554 1468.788 1467.81 1466.946 1465.464 1465.215 
1477.425 1477.608 1478.074 1478.149 1478.158 1478.041 1478.026 1477.898 1477.347 1476.938 1476.608 1476.406 1476.449 1476.604 1476.884 1477.138 1477.201 1477.24 1477.267 1477.217 1477.188 1477.116 1476.812 1476.636 1476.439 1475.445 1475.139 1474.84 1474.135 1473.706 1473.314 1472.933 1471.883 1471.244 1470.294 1468.538 1467.486 1466.352 1464.302 1464.051 
1477.866 1478.01 1478.259 1478.311 1478.25 1478.197 1478.125 1477.962 1477.334 1476.857 1476.435 1476.377 1476.695 1476.871 1477.149 1477.282 1477.336 1477.293 1477.287 1477.264 1477.154 1477.055 1476.728 1476.542 1476.434 1475.38 1474.984 1474.734 1474.141 1473.626 1473.172 1472.789 1471.781 1471.053 1470.294 1468.538 1467.494 1466.198 1465.08 1464.067 
1478.448 1478.469 1478.509 1478.524 1478.502 1478.354 1478.216 1478.06 1477.404 1477.071 1476.824 1476.751 1477.032 1477.235 1477.377 1477.415 1477.427 1477.337 1477.275 1477.189 1476.988 1476.758 1476.53 1476.433 1476.236 1475.36 1475.115 1474.936 1474.515 1473.795 1473.313 1472.909 1471.844 1471.169 1470.492 1468.677 1467.494 1467.124 1466.055 1464.377 
1478.899 1478.901 1478.77 1478.715 1478.72 1478.543 1478.366 1478.147 1477.729 1477.535 1477.383 1477.295 1477.447 1477.572 1477.599 1477.554 1477.477 1477.442 1477.321 1477.093 1476.767 1476.475 1476.245 1476.209 1475.923 1475.69 1475.629 1475.365 1475.099 1474.133 1473.563 1473.061 1472.272 1471.724 1471.1 1469.277 1468.181 1467.124 1466.055 1465.072 
1479.308 1479.245 1479.1 1479.082 1479.017 1478.79 1478.56 1478.386 1478.284 1478.032 1477.978 1477.836 1477.862 1477.867 1477.812 1477.648 1477.52 1477.481 1477.385 1476.926 1476.547 1476.353 1476.067 1476.04 1476.02 1476.241 1476.348 1476.179 1475.916 1474.53 1473.909 1473.401 1472.701 1472.254 1471.704 1470.486 1469.525 1468.454 1466.952 1465.072 
1479.621 1479.541 1479.484 1479.41 1479.333 1479.017 1478.862 1478.78 1478.712 1478.431 1478.383 1478.288 1478.155 1478.099 1478.025 1477.785 1477.604 1477.537 1477.439 1476.811 1476.49 1476.329 1476.25 1476.211 1476.225 1476.518 1476.563 1476.523 1476.228 1474.777 1474.141 1473.814 1473.155 1472.972 1472.756 1472.419 1471.994 1470.68 1468.859 1465.148 
1480.029 1479.949 1479.795 1479.698 1479.545 1479.361 1479.255 1479.106 1478.959 1478.828 1478.674 1478.53 1478.432 1478.285 1478.153 1477.896 1477.772 1477.637 1477.433 1476.905 1476.668 1476.56 1476.546 1476.492 1476.457 1476.611 1476.621 1476.484 1476.277 1475.021 1474.503 1474.277 1473.833 1473.775 1473.884 1474.307 1475.238 1473.518 1471.664 1466.957 
1480.344 1480.26 1480.163 1480.014 1479.927 1479.724 1479.564 1479.407 1479.237 1479.148 1478.989 1478.895 1478.643 1478.48 1478.323 1478.034 1477.899 1477.738 1477.563 1477.1 1476.895 1476.792 1476.637 1476.585 1476.504 1476.519 1476.619 1476.478 1476.328 1475.323 1474.868 1474.671 1474.512 1474.574 1474.974 1476.051 1476.407 1475.37 1473.707 1470.24 
1480.662 1480.656 1480.464 1480.319 1480.245 1480.088 1479.939 1479.715 1479.614 1479.455 1479.289 1479.153 1478.834 1478.686 1478.525 1478.315 1477.989 1477.834 1477.633 1477.188 1476.95 1476.645 1476.457 1476.459 1476.432 1476.47 1476.543 1476.542 1476.481 1475.749 1475.222 1475.078 1475.026 1475.276 1475.844 1476.318 1476.797 1476.596 1475.671 1473.209 
1481.063 1480.98 1480.822 1480.706 1480.558 1480.548 1480.273 1480.121 1480.039 1479.695 1479.584 1479.358 1479.097 1478.894 1478.733 1478.502 1478.155 1477.93 1477.703 1477.173 1476.774 1476.439 1476.386 1476.385 1476.391 1476.426 1476.47 1476.537 1476.463 1476.016 1475.533 1475.38 1475.586 1475.954 1476.369 1476.568 1476.83 1476.772 1476.657 1475.065 
1481.392 1481.381 1481.117 1481.047 1480.955 1480.802 1480.587 1480.441 1480.365 1479.953 1479.813 1479.647 1479.26 1478.991 1478.845 1478.627 1478.208 1478.026 1477.735 1477.122 1476.62 1476.404 1476.387 1476.372 1476.331 1476.325 1476.384 1476.464 1476.432 1475.948 1475.762 1475.726 1476.251 1476.398 1476.526 1476.775 1476.941 1476.927 1476.811 1475.685 
1481.695 1481.691 1481.487 1481.347 1481.271 1481.194 1480.893 1480.735 1480.583 1480.222 1480.011 1479.858 1479.45 1479.268 1479.031 1478.727 1478.322 1478.046 1477.804 1477.071 1476.652 1476.399 1476.39 1476.348 1476.229 1476.232 1476.082 1476.084 1476.093 1475.874 1475.954 1476.21 1476.367 1476.654 1476.847 1476.997 1477.066 1477.028 1476.951 1475.963 
1482.01 1482.004 1481.794 1481.66 1481.573 1481.417 1481.208 1481.045 1480.887 1480.532 1480.288 1480.061 1479.601 1479.373 1479.144 1478.906 1478.425 1478.114 1477.827 1477.079 1476.779 1476.543 1476.412 1476.258 1476.111 1476.057 1475.883 1475.88 1475.886 1475.868 1476.012 1476.376 1476.462 1476.936 1477.113 1477.232 1477.203 1477.128 1477.079 1476.435 
