NCOLS 44
NROWS 39
XLLCORNER 277076.32
YLLCORNER 3844478.9
CELLSIZE 10
NODATA_VALUE -9999
1347.593 1346.389 1345.13 1343.933 1342.854 1340.134 1339.415 1339.721 1341.038 1342.404 1341.977 1337.371 1334.137 1332.305 1332.948 1333.125 1330.235 1327.292 1329.793 1329.205 1326.933 1325.34 1328.018 1329.908 1331.171 1330.818 1328.774 1326.115 1326.987 1330.12 1333.145 1336.405 1339.73 1344.81 1345.322 1344.658 1343.584 1341.528 1338.784 1329.963 1324.8 1319.495 1315.353 1313.74 
1344.839 1343.802 1342.455 1340.995 1339.733 1337.865 1337.264 1337.533 1338.566 1338.466 1338.071 1334.168 1331.124 1329.161 1329.418 1330.003 1327.593 1327.292 1324.496 1322.726 1321.351 1319.843 1320.889 1323.351 1325.116 1325.182 1323.578 1319.219 1321.394 1325.059 1328.087 1331.371 1334.943 1341.292 1343.376 1344.415 1344.711 1344.3 1343.223 1335.127 1330.681 1327.168 1324.144 1321.644 
1341.314 1340.439 1339.014 1337.615 1336.692 1334.992 1333.992 1333.341 1333.396 1334.259 1333.758 1332.598 1330.562 1327.635 1325.274 1324.554 1327.593 1323.647 1319.447 1316.403 1314.775 1313.726 1313.981 1316.122 1318.249 1319.124 1318.196 1314.336 1316.578 1320.719 1324.03 1326.96 1330.056 1335.635 1337.864 1339.485 1340.676 1341.25 1341.297 1336.542 1333.669 1333.263 1332.182 1330.281 
1336.624 1334.536 1334.002 1333.983 1333.938 1332.661 1331.077 1329.95 1330.68 1332.128 1332.134 1331.301 1328.992 1324.087 1318.786 1324.554 1322.275 1320.285 1317.143 1311.352 1305.046 1305.658 1307.843 1309.028 1310.969 1311.99 1310.521 1308.913 1312.873 1317.495 1320.411 1322.491 1324.896 1329.389 1331.267 1332.735 1333.742 1334.208 1334.383 1333.547 1332.816 1332.751 1333.413 1334.748 
1332.257 1329.698 1329.551 1330.827 1331.314 1330.233 1327.826 1326.106 1327.485 1329.86 1330.169 1328.837 1325.623 1320.867 1318.786 1317.155 1317.475 1316.156 1313.069 1308.596 1304.397 1301.613 1302.066 1302.294 1302.371 1302.255 1302.117 1303.882 1308.056 1312.676 1315.779 1317.44 1319.175 1323.089 1324.905 1326.282 1327.225 1327.683 1328.404 1328.884 1329.238 1329.656 1330.679 1331.618 
1328.692 1324.517 1322.369 1323.612 1323.59 1321.755 1319.346 1318.282 1320.018 1323.253 1325.072 1324.046 1321.694 1320.867 1315.453 1309.585 1309.965 1309.488 1308.559 1306.601 1303.194 1296.797 1296.621 1296.698 1296.579 1296.619 1297.52 1301.196 1304.178 1307.199 1309.768 1311.842 1315.197 1317.044 1318.869 1320.329 1321.235 1321.678 1322.539 1323.318 1324.201 1325.276 1326.488 1327.291 
1322.55 1318.148 1315.333 1315.445 1314.33 1312.672 1310.973 1310.811 1312.79 1315.409 1319.15 1324.046 1321.694 1316.911 1309.488 1301.825 1302.719 1303.218 1303.207 1301.773 1298.247 1292.206 1291.899 1292.026 1291.686 1291.688 1293.42 1297.964 1300.2 1302.43 1304.363 1306.215 1309.729 1311.603 1313.238 1314.495 1315.245 1315.534 1316.465 1317.62 1318.873 1319.922 1321.03 1323.016 
1316.561 1311.807 1307.748 1306.609 1305.783 1304.529 1303.103 1303.105 1305.23 1307.698 1319.15 1319.132 1316.934 1311.968 1305.056 1295.517 1295.341 1295.626 1295.86 1295.765 1294.732 1289.497 1287.479 1287.258 1287.551 1288.272 1290.174 1294.449 1296.116 1297.85 1299.452 1300.999 1304.51 1306.422 1308.003 1308.768 1308.63 1308.203 1310.299 1312.055 1313.555 1314.971 1316.211 1318.864 
1309.695 1305.547 1301.736 1299.739 1297.193 1296.305 1295.973 1296.317 1297.648 1307.698 1312.95 1313.253 1311.489 1307.524 1301.056 1289.107 1287.401 1287.127 1288.026 1288.767 1288.806 1285.264 1283.038 1282.157 1283.25 1284.764 1288.231 1289.852 1291.421 1293.096 1294.675 1296.027 1299.014 1300.562 1301.712 1302.052 1301.676 1301.572 1304.559 1306.753 1308.238 1309.292 1310.18 1315.215 
1302.262 1298.673 1295.788 1293.615 1289.341 1288.672 1288.598 1289.01 1297.648 1302.264 1304.37 1305.813 1305.85 1303.492 1299.543 1286.696 1280.297 1278.623 1279.008 1279.568 1280.804 1280.715 1279.052 1278.239 1279.354 1280.873 1283.359 1284.24 1285.166 1286.178 1287.412 1289.089 1292.949 1294.644 1295.338 1294.594 1294.241 1295.747 1297.343 1299.516 1301.47 1302.797 1303.682 1309.508 
1292.9 1289.532 1286.03 1283.594 1280.818 1280.839 1280.913 1289.01 1290.17 1292.979 1294.843 1296.533 1297.152 1297.354 1296.31 1288.114 1281.157 1276.908 1275.799 1276.094 1276.666 1276.193 1274.884 1273.737 1274.196 1275.59 1277.586 1278.042 1278.386 1278.702 1279.396 1280.851 1284.464 1285.758 1286.472 1286.589 1286.712 1288.423 1289.966 1291.732 1293.409 1294.896 1296.582 1303.37 
1280.878 1280.601 1279.974 1278.815 1278.453 1278.149 1280.913 1281.412 1282.71 1284.401 1285.597 1287.106 1288.39 1289.492 1290.786 1286.574 1282.29 1277.473 1273.387 1272.125 1272.643 1272.573 1271.326 1269.162 1268.415 1269.585 1271.099 1271.352 1271.324 1271.59 1272.422 1275.757 1277.071 1278.023 1278.628 1279.206 1279.648 1281.082 1282.266 1283.828 1285.693 1287.469 1289.494 1296.834 
1282.506 1281.571 1280.969 1279.289 1278.453 1278.149 1277.961 1277.964 1278.038 1278.146 1278.041 1278.223 1278.601 1278.647 1280.098 1280.415 1278.541 1274.951 1271.406 1268.836 1269.372 1269.532 1268.072 1265.087 1262.784 1262.214 1262.94 1263.382 1263.785 1264.627 1266.116 1270.346 1271.862 1272.401 1272.619 1272.981 1273.347 1274.209 1275.29 1276.92 1278.664 1280.194 1281.549 1289.849 
1286.299 1285.884 1285.756 1279.289 1278.082 1277.113 1276.521 1276.062 1275.577 1274.407 1273.916 1273.717 1272.844 1269.976 1269.266 1270.368 1269.604 1268.145 1266.922 1265.347 1265.326 1264.798 1262.361 1258.718 1257.185 1256.138 1255.658 1256.116 1257.02 1258.101 1259.132 1260.555 1261.808 1263.451 1264.822 1265.707 1266.282 1267.512 1268.545 1270.012 1271.571 1273.53 1278.205 1281.897 
1290.996 1291.333 1285.756 1284.87 1283.925 1282.747 1281.316 1279.347 1277.332 1274.933 1273.705 1272.39 1271.212 1270.322 1268.641 1267.731 1267.151 1266.467 1265.212 1263.638 1261.488 1260.55 1258.417 1256.091 1255.744 1255.117 1254.046 1252.549 1252.175 1253.454 1253.817 1252.76 1252.72 1253.029 1253.789 1255.068 1256.407 1259.608 1262.121 1264.126 1265.824 1267.552 1272.637 1276.134 
1295.573 1291.333 1291.582 1291.292 1290.564 1289.404 1288.073 1286.532 1283.247 1281.712 1279.835 1277.867 1276.176 1274.628 1273.017 1272.388 1271.654 1270.702 1269.568 1267.874 1262.66 1260.495 1259.679 1259.699 1259.521 1258.835 1257.666 1255.756 1252.877 1249.898 1249.842 1247.184 1246.319 1245.238 1244.565 1244.459 1246.152 1250.727 1256.335 1259.507 1261.289 1262.958 1268.218 1271.179 
1295.573 1297.52 1298.247 1297.766 1296.876 1295.814 1294.83 1293.864 1289.762 1287.547 1285.459 1283.387 1281.089 1279.004 1276.563 1276.131 1275.81 1275.326 1274.706 1272.326 1269.115 1266.259 1265.374 1265.402 1265.148 1263.472 1262.094 1260.219 1257.652 1254.375 1251.602 1249.746 1248.65 1246.758 1245.079 1243.67 1241.56 1242.079 1245.976 1252.49 1256.883 1258.703 1268.218 1271.179 
1305.759 1306.958 1306.645 1305.109 1303.172 1301.763 1300.471 1299.136 1295.835 1293.468 1290.861 1288.319 1285.685 1282.977 1279.863 1279.939 1279.96 1279.824 1279.668 1278.597 1277.051 1275.199 1273.358 1272.109 1271.262 1268.265 1266.371 1264.543 1262.444 1259.97 1257.861 1255.781 1254.63 1252.848 1250.987 1248.858 1243.764 1240.863 1240.502 1244.235 1249.357 1258.703 1262.535 1265.379 
1313.902 1314.441 1313.203 1311.759 1309.909 1307.887 1306.141 1304.362 1300.907 1298.92 1296.455 1293.533 1290.536 1287.738 1285.635 1286.295 1286.929 1287.094 1287.054 1286.774 1285.334 1283.403 1281.328 1279.661 1278.502 1275.423 1272.206 1268.815 1266.366 1264.879 1262.937 1261.733 1260.482 1258.985 1257.257 1255.647 1248.323 1243.934 1240.42 1240.354 1249.357 1252.925 1256.247 1257.798 
1323.507 1323.784 1321.359 1320.295 1318.93 1316.39 1313.573 1311.056 1306.906 1305.174 1302.857 1299.89 1296.068 1292.729 1294.23 1295.729 1296.958 1297.223 1296.696 1294.938 1292.858 1290.624 1289.119 1288.04 1286.647 1283.166 1280.697 1277.154 1272.847 1270.385 1268.55 1267.639 1266.817 1265.469 1263.609 1261.194 1252.84 1247.371 1242.102 1240.354 1244.163 1249.096 1249.933 1250.747 
1333.125 1334.317 1334.04 1332.524 1329.88 1326.558 1323.265 1320.523 1314.35 1312.092 1310.085 1307.436 1303.207 1300.091 1302.974 1305.262 1306.287 1306.361 1305.495 1301.639 1299.499 1298.172 1297.389 1296.667 1292.744 1290.4 1287.94 1284.809 1281.355 1278.899 1276.527 1275.231 1273.692 1271.92 1269.58 1266.463 1256.256 1249.703 1242.102 1238.514 1240.608 1244.624 1243.981 1242.757 
1337.161 1340.123 1342.039 1340.626 1338.484 1336.204 1333.818 1326.768 1323.047 1320.156 1317.392 1313.96 1310.203 1310.305 1312.379 1313.783 1314.274 1314.21 1313.001 1307.499 1305.062 1304.796 1305.454 1305.658 1302.204 1299.058 1295.396 1292.082 1288.952 1286.51 1283.985 1282.909 1281.247 1278.553 1274.899 1265.638 1258.771 1249.703 1243.408 1238.999 1237.339 1238.767 1237.965 1236.334 
1341.61 1345.533 1349.02 1348.025 1345.781 1343.143 1340.501 1335.304 1331.874 1328.253 1324.72 1320.7 1316.583 1319.533 1321.046 1321.862 1322.029 1321.441 1319.802 1313.974 1312.131 1312.774 1314.303 1315.065 1311.962 1307.887 1303.369 1299.382 1295.731 1292.791 1290.744 1289.884 1287.366 1283.514 1278.983 1268.091 1258.771 1251.843 1246.078 1241.683 1238.016 1235.13 1233.722 1231.729 
1347.074 1352.669 1357.709 1356.388 1353.45 1350.032 1347.356 1341.839 1338.435 1334.773 1330.988 1326.8 1323.528 1327.309 1329.053 1330.105 1330.148 1329.204 1323.734 1320.175 1318.691 1319.989 1321.64 1322.688 1320.244 1316.551 1311.304 1306.282 1302.928 1300.951 1298.318 1296.551 1292.95 1287.845 1278.983 1268.091 1261.166 1255.203 1250.673 1246.806 1245.075 1240.377 1236.983 1231.884 
1354.386 1366.644 1369.872 1368.494 1364.293 1359.327 1355.569 1348.328 1344.617 1340.45 1336.186 1332.236 1331.115 1334.601 1336.407 1338.027 1338.663 1336.84 1329.193 1326.161 1325.774 1327.189 1328.528 1330.069 1326.456 1322.361 1317.96 1313.84 1311.003 1307.915 1306.579 1303.435 1298.7 1287.845 1281.752 1270.995 1265.247 1260.553 1257.509 1256.36 1255.182 1249.978 1242.889 1233.157 
1360.601 1375.081 1380.875 1380.928 1376.338 1370.969 1365.132 1355.599 1351.13 1346.453 1341.831 1338.221 1340.371 1342.882 1345.644 1348.287 1348.93 1345.233 1337.178 1335.241 1334.904 1335.507 1336.312 1336.536 1331.615 1327.929 1324.584 1321.178 1318.406 1314.616 1311.659 1308.44 1298.7 1293.643 1288.228 1277.756 1273.178 1269.687 1266.898 1264.28 1259.489 1255.588 1248.405 1238.007 
1367.809 1380.861 1386.173 1388.352 1386.303 1381.044 1374.849 1364.886 1359.12 1352.794 1348.15 1346.771 1350.94 1353.594 1356.49 1358.571 1357.741 1353.149 1345.672 1344.614 1344.529 1344.605 1344.613 1342.043 1339.796 1335.94 1331.642 1328.975 1325.48 1319.653 1315.94 1308.44 1304.792 1300.12 1295.605 1284.912 1279.995 1275.607 1271.366 1267.566 1257.108 1252.93 1248.494 1242.189 
1376.588 1386.429 1391.043 1394.745 1395.024 1390.312 1379.145 1373.891 1366.879 1359.999 1356.527 1356.196 1360.085 1362.676 1365.624 1367.277 1364.661 1358.264 1351.834 1352.159 1352.702 1353.205 1353.969 1350.875 1347.109 1343.422 1338.95 1333.729 1330.31 1320.76 1315.94 1311.753 1307.838 1303.548 1298.074 1286.525 1280.38 1275.311 1269.929 1264.143 1252.052 1248.064 1244.824 1242.031 
1384.039 1392.247 1396.178 1399.893 1401.743 1399.025 1387.197 1380.874 1374.168 1369.364 1367.188 1365.927 1370.11 1373.893 1376.945 1376.751 1370.355 1363.888 1361.032 1361.57 1362.473 1362.687 1361.045 1353.905 1348.495 1343.197 1338.299 1333.047 1328.775 1320.76 1315.866 1310.468 1305.482 1300.231 1288.219 1282.077 1276.717 1271.297 1264.985 1258.458 1247.923 1243.85 1243.22 1243.823 
1390.209 1398.054 1401.733 1405.641 1408.278 1406.156 1393.764 1387.616 1382.783 1380.249 1378.742 1377.606 1382.7 1386.991 1387.169 1381.942 1375.595 1371.546 1371.665 1371.692 1371.034 1368.781 1364.196 1352.165 1345.026 1338.12 1332.408 1327.949 1328.775 1318.053 1312.15 1306.156 1301.041 1295.679 1282.609 1277.407 1273.074 1267.14 1259.851 1255.464 1251.16 1249.442 1250.994 1252.523 
1401.043 1404.474 1408.345 1412.4 1414.708 1412.441 1400.643 1395.043 1391.076 1389.885 1389.022 1388.292 1392.317 1394.105 1392.732 1388.471 1384.461 1382.113 1381.734 1381.004 1377.942 1371.004 1364.022 1348.888 1340.351 1332.85 1332.408 1327.949 1318.088 1312.102 1305.952 1300.597 1295.455 1289.577 1277.784 1273.65 1269.808 1264.246 1257.02 1255.727 1258.326 1260.484 1262.076 1262.075 
1408.519 1411.39 1415.052 1418.576 1419.961 1418.03 1408.042 1402.985 1399.217 1397.655 1396.768 1397.444 1398.49 1399.081 1398.633 1397.032 1394.625 1391.812 1390.057 1385.863 1379.111 1371.456 1364.144 1347.682 1338.957 1332.85 1326.405 1321.376 1310.371 1304.772 1299.485 1294.176 1288.186 1281.443 1272.688 1269.363 1266.606 1263.29 1259.569 1262.187 1264.073 1266.394 1268.526 1268.035 
1415.712 1418.428 1421.165 1424.176 1425.84 1423.902 1414.918 1411.089 1407.938 1405.332 1404.071 1404.479 1404.873 1405.072 1404.919 1404.603 1403.595 1397.646 1392.676 1385.932 1377.973 1371.202 1364.048 1347.89 1338.957 1331.597 1324.385 1316.025 1301.874 1297.645 1292.382 1285.967 1279.346 1274.057 1267.851 1265.999 1264.317 1263.749 1265.704 1269.911 1272.124 1273.343 1273.27 1271.016 
1424.156 1425.745 1428.396 1431.853 1433.676 1430.96 1422.044 1418.965 1416.461 1414.854 1414.098 1413.769 1413.757 1413.739 1412.71 1409.951 1406.811 1397.996 1391.841 1384.5 1376.236 1369.514 1354.193 1347.89 1339.294 1331.604 1323.17 1313.156 1296.508 1290.536 1283.762 1278.342 1274.635 1268.79 1266.529 1266.464 1267.79 1271.002 1273.728 1278.757 1280.539 1280.016 1276.399 1271.237 
1433.609 1434.528 1437.234 1440.554 1441.453 1434.61 1429.795 1426.125 1423.659 1422.446 1421.77 1421.344 1420.508 1418.703 1415.493 1410.743 1405.625 1396.05 1389.925 1382.276 1374.178 1366.735 1354.193 1346.343 1337.886 1329.117 1319.698 1306.749 1290.466 1283.141 1278.043 1277.626 1277.68 1272.476 1273.71 1275.426 1278.268 1281.753 1284.514 1286.024 1285.098 1282.123 1276.56 1269.94 
1442.728 1443.827 1445.643 1447.979 1448.966 1443.184 1438.865 1436.352 1434.331 1431.433 1429.276 1428.07 1425.311 1419.777 1413.857 1407.742 1397.908 1393.362 1387.435 1379.642 1371.164 1366.735 1349.679 1340.483 1331.573 1323.489 1314.176 1300.779 1285.631 1281.362 1280.578 1282.046 1283.049 1284.762 1285.326 1286.777 1288.746 1290.358 1291.807 1291.563 1287.781 1281.639 1274.5 1268.038 
1451.961 1453.955 1456.698 1458.227 1458.354 1450.965 1447.421 1446.32 1445.013 1442.512 1439.933 1431.551 1424.629 1417.273 1410.907 1404.48 1394.251 1389.1 1383.41 1379.642 1371.164 1363.405 1345.724 1334.882 1326.217 1318.458 1307.015 1289.373 1286.93 1286.493 1288.414 1289.894 1290.919 1292.976 1294.01 1295.367 1296.906 1298.31 1299.577 1294.097 1287.777 1281.05 1275.331 1270.483 
1459.801 1463.381 1466.544 1467.533 1467.163 1461.618 1457.833 1455.178 1453.787 1451.038 1444.536 1430.443 1422.031 1414.296 1408.654 1403.056 1390.447 1384.91 1383.41 1375.978 1366.923 1359.915 1343.56 1334.02 1326.19 1317.995 1306.633 1297.393 1298.736 1300.561 1302.205 1302.487 1302.001 1301.912 1302.448 1303.279 1304.626 1306.482 1306.368 1294.138 1285.891 1279.932 1278.439 1277.811 
1466.299 1471.01 1473.721 1474.581 1474.718 1469.457 1465.47 1460.5 1454.23 1448.646 1434.574 1426.887 1419.253 1412.459 1406.668 1401.044 1387.698 1384.91 1378.549 1370.595 1362.43 1355.527 1341.035 1333.151 1325.959 1319.28 1313.344 1315.529 1319.094 1321.089 1320.988 1319.313 1316.615 1313.434 1312.565 1312.777 1314.078 1314.23 1301.643 1294.038 1287.12 1282.573 1283.008 1285.068 
