NCOLS 42
NROWS 24
XLLCORNER 276816.32
YLLCORNER 3833358.9
CELLSIZE 10
NODATA_VALUE -9999
1514.178 1513.537 1511.778 1505.797 1504.467 1504.448 1503.801 1502.546 1497.001 1493.161 1489.407 1484.895 1479.727 1475.737 1469.184 1466.249 1465.672 1465.579 1463.751 1461.757 1461.538 1461.236 1460.987 1460.881 1461.122 1461.965 1462.568 1463.584 1464.943 1467.548 1468.338 1467.701 1466.424 1465.925 1466.294 1467.909 1473.407 1475.31 1477.325 1479.653 1482.529 1485.866 
1513.659 1513.476 1511.033 1508.287 1506.641 1505.82 1504.572 1502.366 1496.143 1492.019 1487.958 1484.003 1479.561 1476.013 1472.476 1471.675 1471.292 1470.929 1467.655 1462.699 1461.449 1460.658 1460.347 1460.089 1459.922 1460.932 1461.674 1462.581 1464.943 1466.037 1466.392 1465.814 1464.481 1463.317 1464.244 1467.035 1472.103 1474.612 1476.385 1478.069 1480.626 1483.685 
1512.189 1511.746 1510.583 1508.958 1507.402 1505.683 1503.628 1501.462 1495.66 1492.247 1488.679 1484.712 1480.103 1476.153 1475.573 1476.446 1477.033 1476.373 1473.065 1465.291 1464.494 1463.122 1460.172 1459.531 1459.124 1459.544 1461.674 1462.581 1463.489 1464.028 1463.767 1463.328 1462.716 1462.8 1464.242 1466.241 1471.286 1473.572 1475.696 1477.796 1479.632 1481.142 
1512.317 1511.736 1511.288 1510.372 1508.153 1504.615 1501.4 1499.483 1494.872 1492.337 1489.563 1486.511 1483.201 1478.672 1479.663 1480.694 1480.668 1478.732 1475.573 1469.005 1467.43 1466.143 1463.151 1459.628 1458.771 1459.544 1460.108 1460.798 1461.596 1462.132 1461.566 1461.482 1461.555 1462.148 1463.266 1464.843 1469.609 1472.117 1474.55 1476.779 1478.219 1478.959 
1513.303 1513.189 1512.952 1512.147 1509.989 1506.156 1501.755 1499.432 1495.127 1492.314 1489.325 1487.073 1485.803 1483.469 1484.297 1485.27 1484.669 1481.403 1477.568 1471.792 1469.705 1467.664 1464.949 1462 1458.402 1458.531 1458.881 1459.198 1459.741 1460.2 1459.597 1459.951 1460.19 1460.858 1462.044 1463.337 1467.479 1470.377 1473.248 1475.545 1476.978 1479.182 
1513.737 1513.602 1513.697 1513.382 1511.51 1507.943 1504.096 1498.868 1497.233 1495.053 1492.041 1489.675 1488.78 1487.937 1488.958 1489.545 1488.736 1485.51 1480.42 1473.593 1471.424 1469.097 1466.51 1462 1457.964 1457.565 1457.365 1457.531 1457.984 1458.248 1457.592 1457.866 1458.705 1459.74 1460.904 1462.123 1465.353 1468.382 1471.6 1474.203 1475.887 1477.83 
1513.555 1513.524 1514.049 1513.824 1511.752 1508.703 1505.282 1500.411 1499.58 1498.282 1495.748 1493.147 1491.989 1492.12 1492.741 1492.32 1490.796 1488.293 1483.809 1476.029 1473.72 1471.418 1466.51 1463.757 1459.468 1458.208 1457.005 1456.18 1456.249 1456.32 1454.967 1455.871 1457.187 1458.306 1459.714 1462.318 1464.144 1467.066 1470.588 1473.618 1475.736 1476.673 
1512.494 1512.506 1512.591 1511.986 1510.766 1508.907 1505.673 1501.907 1501.08 1500.339 1498.766 1496.656 1495.846 1495.881 1496.09 1495.154 1492.895 1490.322 1483.161 1479.538 1476.571 1471.418 1468.595 1465.771 1461.641 1459.691 1457.916 1456.674 1455.283 1452.956 1452.975 1454.502 1455.558 1456.741 1458.325 1461.668 1463.841 1466.806 1470.204 1473.401 1475.964 1475.496 
1509.313 1508.443 1508.42 1507.552 1506.669 1506.392 1505.395 1502.406 1502.319 1501.985 1500.843 1500.054 1499.48 1499.432 1500.103 1499.16 1495.701 1491.049 1486.785 1483.585 1476.571 1474.047 1471.417 1468.437 1463.803 1461.988 1459.809 1457.582 1455.594 1453.408 1451.783 1452.975 1454.074 1455.087 1456.729 1461.402 1463.603 1465.977 1468.626 1471.487 1473.731 1473.098 
1504.887 1501.867 1502.469 1502.472 1502.083 1502.092 1502.234 1502.376 1502.787 1502.473 1501.957 1502.035 1501.662 1501.96 1502.038 1500.861 1498.285 1495.233 1486.785 1483.585 1480.28 1477.152 1474.49 1471.636 1466.098 1463.905 1461.539 1458.836 1456.643 1452.221 1451.206 1451.521 1452.391 1453.379 1455.29 1460.835 1463.004 1465.064 1466.925 1468.506 1469.724 1468.961 
1503.654 1500.088 1498.984 1497.836 1497.602 1497.668 1497.953 1499.163 1499.679 1500.303 1500.906 1501.299 1500.881 1500.596 1499.92 1498.4 1496.181 1495.233 1490.213 1487.944 1484.568 1480.53 1477.102 1474.219 1467.461 1465.044 1462.803 1460.21 1457.531 1452.799 1451.457 1450.929 1450.939 1451.732 1454.05 1459.295 1461.618 1463.646 1465.07 1465.752 1465.535 1465.104 
1503.364 1500.994 1499.31 1496.907 1494.424 1491.419 1492.269 1493.668 1494.661 1495.357 1495.823 1496.092 1495.343 1494.563 1493.486 1492.077 1496.181 1493.839 1491.402 1490.27 1486.979 1481.762 1477.961 1471.224 1468.265 1465.833 1463.508 1461.171 1458.627 1453.518 1451.915 1451.109 1450.749 1451.195 1452.87 1457.048 1459.371 1461.757 1463.272 1463.714 1462.797 1463.276 
1501.201 1499.071 1497.051 1494.444 1490.971 1489.047 1487.118 1488.425 1489.581 1489.989 1489.884 1489.817 1488.584 1487.655 1486.332 1492.077 1490.398 1489.133 1488.9 1487.801 1484.747 1480.285 1476.488 1471.975 1469.525 1467.033 1464.77 1462.697 1460.176 1454.352 1452.346 1451.197 1450.718 1450.877 1451.762 1455.176 1457.478 1459.968 1461.331 1461.559 1461.545 1462.604 
1499.82 1498.217 1495.061 1492.167 1490.343 1488.164 1486.496 1486.292 1486.188 1486.385 1486.139 1484.019 1480.371 1479.446 1486.332 1484.69 1482.751 1481.631 1481.471 1480.247 1478.105 1475.978 1474.358 1471.553 1469.934 1467.858 1465.81 1464.04 1461.393 1454.922 1452.835 1451.29 1450.728 1450.72 1452.582 1454.394 1456.291 1457.987 1459.067 1459.619 1460.754 1462.262 
1501.805 1500.338 1498.527 1495.596 1492.18 1490.448 1489.331 1488.014 1486.297 1484.837 1482.627 1478.531 1474.084 1479.446 1477.706 1475.454 1474.08 1474.424 1474.116 1473.556 1472.886 1472.345 1471.41 1469.365 1468.272 1467.085 1465.644 1464.103 1461.601 1454.663 1453.012 1451.399 1450.737 1450.726 1452.257 1453.766 1455.154 1456.349 1457.331 1458.019 1459.734 1461.381 
1504.222 1501.696 1499.563 1497.107 1495.417 1494.554 1493.666 1492.042 1490.157 1488.934 1487.753 1475.336 1474.084 1473.61 1473.099 1472.875 1473.018 1471.281 1470 1469.454 1468.923 1468.692 1468.096 1467.293 1466.658 1465.659 1464.513 1463.053 1455.954 1453.433 1452.14 1451.115 1450.73 1450.724 1451.909 1453.086 1454.237 1455.269 1456.031 1456.728 1458.291 1459.393 
1509.156 1503.798 1499.446 1498.287 1498.442 1499.223 1499.265 1497.596 1495.073 1493.088 1487.753 1479.375 1476.298 1474.554 1473.806 1473.62 1473.371 1470.375 1467.58 1465.356 1465.005 1464.895 1464.888 1465.209 1465.001 1464.16 1462.523 1460.187 1453.351 1451.858 1451.187 1450.732 1450.714 1450.717 1451.506 1452.551 1453.639 1454.529 1454.905 1455.182 1456.237 1457.23 
1511.776 1506.554 1501.611 1499.697 1501.502 1504.175 1503.933 1502.466 1500.467 1493.088 1491.631 1485.492 1481.545 1479.013 1477.978 1476.744 1474.912 1470.757 1467.6 1464.541 1463.546 1463.165 1462.964 1463.113 1463.211 1462.4 1460.431 1457.934 1452.965 1452.117 1451.46 1450.82 1450.717 1450.713 1451.132 1451.938 1452.944 1453.867 1454.011 1453.595 1454.182 1454.734 
1513.373 1509.537 1505.692 1504.214 1506.466 1509.065 1508.672 1507.055 1500.467 1498.26 1495.92 1490.253 1487.205 1484.755 1482.988 1480.568 1477.771 1474.625 1471.381 1467.614 1465.848 1464.768 1462.429 1462.077 1461.896 1460.988 1459.785 1458.276 1455.088 1453.939 1452.557 1451.215 1450.63 1450.649 1450.787 1451.254 1452.112 1452.829 1452.751 1451.761 1451.993 1453.167 
1514.586 1511.185 1509.163 1509.676 1512.357 1514.152 1513.572 1507.055 1504.827 1502.63 1500.445 1495.51 1492.561 1490.382 1488.745 1485.432 1478.239 1475.401 1472.823 1470.326 1467.765 1466.036 1463.009 1462.159 1461.627 1461.09 1460.316 1459.476 1457.463 1455.831 1454.334 1452.824 1451.97 1450.768 1450.707 1450.96 1451.419 1451.939 1452.024 1451.249 1451.58 1452.603 
1514.685 1511.912 1512.161 1514.238 1516.601 1518.134 1513.572 1511.795 1509.465 1507.196 1505.013 1501.147 1499.159 1496.26 1492.914 1489.419 1480.891 1477.364 1474.21 1471.292 1468.482 1465.643 1463.079 1462.835 1462.525 1462.053 1461.662 1461.157 1459.992 1458.314 1456.677 1454.975 1453.995 1451.243 1450.745 1450.679 1450.802 1451.265 1451.34 1451.311 1452.198 1453.306 
1516.186 1512.899 1515.604 1518.422 1520.945 1518.134 1517.024 1515.098 1513.381 1511.297 1506.794 1505.073 1503.424 1500.43 1495.982 1491.011 1481.892 1477.894 1474.906 1472.456 1469.736 1466.63 1464.609 1464.686 1464.434 1463.976 1463.726 1463.13 1462.499 1461.377 1459.706 1457.653 1455.842 1451.99 1450.813 1450.634 1450.734 1450.5 1450.57 1451.447 1452.528 1453.334 
1517.035 1516.948 1519.958 1518.422 1520.945 1522.474 1520.255 1518.021 1516.594 1514.637 1510.783 1508.133 1504.934 1501.126 1496.537 1491.379 1482.596 1478.581 1475.651 1473.98 1472.317 1470.457 1468.006 1467.729 1467.37 1466.824 1466.502 1465.633 1465.135 1464.294 1462.437 1459.812 1457.343 1452.959 1451.452 1450.81 1450.681 1450.589 1450.311 1450.778 1451.615 1451.939 
1521.455 1521.102 1519.958 1522.948 1525.479 1525.676 1523.939 1521.71 1519.401 1517.083 1512.796 1509.362 1505.16 1500.976 1496.646 1492.017 1483.796 1479.297 1476.027 1474.76 1474.481 1473.103 1471.974 1471.538 1471.217 1470.669 1470.195 1468.402 1467.424 1466.165 1463.787 1461.242 1459.53 1455.723 1453.158 1451.642 1451.019 1450.385 1449.51 1449.642 1449.58 1449.408 
