NCOLS 41
NROWS 57
XLLCORNER 277417.98
YLLCORNER 3857991.5
CELLSIZE 10
NODATA_VALUE -9999
1194.437 1194.645 1194.914 1195.201 1195.548 1196.287 1196.699 1197.093 1197.524 1198.053 1198.648 1198.967 1199.354 1199.636 1199.941 1200.619 1201.664 1202.295 1202.7 1202.828 1202.981 1202.931 1202.701 1200.525 1201.192 1203.36 1205.552 1211.165 1214.395 1217.321 1220.121 1223.057 1229.001 1231.342 1232.418 1232.301 1231.437 1230.645 1233.372 1236.74 1239.375 
1195.108 1195.354 1195.676 1196.035 1196.842 1197.248 1197.73 1198.314 1198.962 1199.694 1201.695 1202.566 1202.896 1203.173 1203.488 1203.369 1204.194 1205.119 1205.888 1206.239 1206.396 1206.273 1202.701 1202.51 1202.378 1202.318 1203.405 1208.053 1210.894 1213.601 1216.221 1218.973 1224.28 1226.724 1228.103 1228.139 1227.583 1227.33 1230.456 1233.081 1235.201 
1195.802 1196.146 1196.553 1196.964 1197.872 1198.443 1199.092 1199.785 1200.58 1201.545 1204.055 1205.581 1206.726 1206.98 1206.617 1205.975 1206.705 1207.726 1208.602 1209.032 1209.186 1206.273 1206.054 1205.686 1205.143 1204.555 1203.929 1205.586 1207.507 1209.498 1211.631 1214.308 1220.137 1222.313 1223.332 1222.982 1222.371 1222.57 1227.309 1230.118 1232.344 
1196.615 1197.054 1197.549 1197.983 1199.015 1199.702 1200.511 1201.328 1202.238 1203.561 1206.057 1207.437 1208.664 1209.177 1208.971 1208.226 1209.011 1210.082 1210.982 1211.51 1209.186 1209.039 1208.841 1208.674 1208.445 1207.902 1205.833 1205.333 1205.797 1206.522 1207.377 1209.326 1215.561 1217.935 1219.104 1218.891 1218.275 1220.596 1223.379 1226.156 1228.128 
1197.487 1197.97 1198.446 1198.994 1200.236 1201.039 1201.88 1202.821 1203.788 1204.959 1207.212 1208.644 1210.014 1210.803 1210.879 1210.853 1211.404 1212.384 1210.982 1211.51 1211.74 1211.606 1211.515 1211.248 1211.001 1210.558 1209.057 1207.798 1206.818 1206.68 1207.066 1207.505 1210.76 1212.565 1214.282 1215.136 1215.597 1218.011 1219.915 1221.761 1223.277 
1198.257 1198.756 1199.265 1199.867 1201.213 1202.085 1202.962 1203.941 1204.959 1206.91 1208.1 1209.288 1210.396 1211.387 1212.155 1213.313 1214.069 1212.384 1213.432 1213.869 1214.034 1214.473 1214.357 1214.108 1213.724 1213.239 1211.72 1210.691 1209.596 1208.778 1208.631 1209.24 1208.866 1209.405 1210.443 1211.301 1212.594 1215.181 1216.567 1217.946 1219.27 
1198.849 1199.406 1199.925 1200.521 1202.061 1202.927 1203.819 1204.778 1205.727 1207.629 1208.856 1210.209 1211.503 1212.768 1213.755 1215.595 1214.069 1214.966 1215.81 1216.363 1217.055 1217.188 1217.14 1216.93 1216.608 1216.005 1214.409 1213.445 1212.496 1211.618 1211.134 1211.125 1210.675 1210.472 1210.262 1210.229 1210.902 1212.06 1212.854 1213.952 1214.966 
1199.277 1199.868 1200.438 1201.036 1202.613 1203.482 1204.328 1205.209 1206.22 1208.517 1210.09 1211.689 1213.284 1214.889 1215.919 1215.595 1216.809 1217.9 1218.654 1219.095 1219.854 1220.026 1220.098 1219.939 1219.615 1219.029 1217.408 1216.472 1215.502 1214.637 1214.134 1213.253 1212.546 1212.5 1212.343 1212.372 1212.48 1213.035 1213.041 1213.235 1213.434 
1199.661 1200.272 1200.926 1202.266 1203.058 1203.862 1204.767 1205.77 1206.718 1209.38 1211.149 1213.077 1215.105 1216.722 1216.51 1217.192 1218.32 1219.825 1221.293 1222.31 1223.611 1223.905 1223.964 1223.726 1223.297 1222.425 1220.57 1219.349 1218.15 1217.32 1217.22 1216.71 1215.59 1214.745 1214.25 1215.068 1216.415 1218.279 1218 1217.253 1216.555 
1200.069 1200.667 1201.41 1202.728 1203.429 1204.243 1205.153 1206.176 1207.196 1210.477 1212.68 1214.877 1216.785 1216.722 1218.526 1218.852 1219.576 1221.486 1224.088 1225.963 1228.543 1228.612 1228.451 1228.168 1227.708 1225.723 1224.157 1222.259 1220.362 1218.954 1219.047 1219.972 1218.294 1216.466 1215.698 1216.986 1219.089 1221.653 1221.89 1221.859 1220.909 
1200.344 1201.168 1201.991 1203.274 1203.965 1204.686 1205.514 1206.452 1207.463 1211.707 1214.215 1216.585 1216.785 1218.347 1221.145 1221.622 1222.453 1224.508 1226.867 1229.845 1233.672 1233.655 1233.381 1233.116 1232.614 1230.375 1228.493 1226.124 1223.639 1221.837 1221.701 1221.33 1219.454 1217.74 1216.791 1217.749 1222.185 1223.83 1225.138 1226.197 1225.658 
1200.68 1201.483 1202.475 1203.893 1204.596 1205.328 1205.961 1206.729 1209.978 1212.992 1214.215 1216.585 1218.485 1220.24 1225.175 1226.833 1228.114 1229.185 1229.762 1232.098 1238.651 1239.908 1239.762 1239.407 1238.34 1235.039 1232.991 1230.427 1227.763 1226.128 1225.461 1222.423 1220.323 1218.689 1217.817 1218.408 1221.596 1225.616 1229.483 1230.548 1230.412 
1201.09 1202.009 1202.964 1204.802 1205.481 1206.015 1206.604 1207.244 1211.264 1212.992 1215.884 1218.271 1220.487 1223.449 1230.197 1232.534 1233.657 1233.496 1232.626 1238.664 1243.317 1245.824 1246.14 1245.619 1244.13 1239.217 1236.318 1233.29 1230.766 1229.902 1228.099 1225.129 1221.888 1219.891 1218.947 1218.393 1220.895 1225.914 1231.146 1233.847 1234.33 
1201.676 1202.681 1203.555 1205.488 1206.362 1207.104 1207.637 1208.549 1211.264 1214.587 1217.736 1220.516 1223.628 1227.306 1234.233 1236.939 1238.755 1239.122 1238.442 1241.657 1244.228 1246.515 1248.245 1248.235 1247.359 1242.973 1239.794 1236.377 1233.798 1233.493 1232.22 1229.105 1225.287 1222.297 1220.224 1218.668 1219.499 1223.903 1229.462 1233.212 1234.867 
1202.358 1203.377 1205.35 1206.282 1207.153 1208.196 1209.375 1208.549 1213.306 1216.569 1219.976 1223.356 1226.968 1230.823 1237.639 1241.428 1244.22 1244.729 1243.967 1243.524 1245.205 1248.063 1250.351 1250.745 1249.692 1245.394 1242.523 1239.779 1237.942 1237.196 1235.077 1232.382 1228.827 1225.199 1222.209 1220.017 1218.436 1220.866 1226.25 1231.228 1234.254 
1202.964 1204.065 1206.042 1207.012 1208.05 1209.362 1209.375 1210.473 1215.59 1218.496 1221.737 1225.842 1230.085 1237.505 1241.546 1244.965 1246.782 1247.121 1246.951 1246.601 1248.645 1251.853 1253.807 1253.819 1250.133 1247.008 1244.025 1242.029 1241.305 1241.135 1238.033 1234.526 1230.827 1227.757 1225.675 1223.004 1218.809 1219.492 1224.049 1229.327 1232.965 
1203.635 1204.669 1206.715 1207.878 1209.334 1209.362 1210.791 1212.139 1217.17 1219.903 1222.94 1226.668 1231.068 1238.643 1242.544 1245.799 1247.486 1247.81 1248.139 1250.761 1252.851 1255.011 1256.726 1256.671 1253.011 1249.493 1245.88 1243.703 1243.902 1244.587 1242.477 1237.618 1232.534 1230.163 1229.93 1226.986 1223.356 1220.907 1222.866 1228.179 1232.082 
1204.318 1205.267 1207.337 1208.802 1209.334 1210.81 1212.03 1215.613 1217.571 1219.731 1222.443 1225.837 1229.749 1236.84 1240.782 1244.18 1246.559 1248.06 1248.817 1252.495 1254.982 1256.862 1258.394 1258.591 1255.805 1252.889 1249.403 1246.924 1246.529 1246.765 1245.388 1241.926 1237.405 1234.711 1234.376 1233.316 1230.543 1229.113 1228.74 1227.014 1230.173 
1205.099 1205.882 1207.337 1208.802 1210.514 1212.403 1214.859 1217.189 1217.655 1218.563 1220.801 1224.233 1227.708 1233.738 1237.336 1240.832 1243.728 1245.693 1248.635 1250.302 1252.467 1254.945 1257.102 1257.515 1254.894 1252.927 1251.036 1249.505 1248.695 1248.336 1246.707 1244.366 1241.452 1240.238 1241.661 1239.322 1234.298 1231.169 1229.775 1229.454 1229.535 
1205.813 1205.882 1208.089 1209.823 1212.018 1214.61 1217.49 1219.858 1218.857 1218.349 1219.583 1221.863 1224.689 1230.481 1233.451 1236.45 1239.126 1241.475 1244.426 1245.817 1247.648 1249.896 1251.842 1252.587 1251.529 1250.8 1250.27 1249.938 1250 1249.577 1248.61 1246.297 1243.901 1243.829 1245.613 1241.725 1236.165 1232.462 1231.368 1230.98 1230.033 
1205.813 1207.116 1208.852 1211.581 1214.759 1217.863 1220.036 1221.342 1220.544 1219.531 1218.932 1219.747 1222.051 1227.569 1229.952 1231.899 1233.827 1235.698 1239.324 1240.972 1242.627 1244.247 1245.652 1246.741 1247.732 1248.276 1249.026 1249.619 1250.425 1251.372 1251.666 1250.356 1247.852 1247.929 1248.355 1242.161 1238.401 1235.468 1234.107 1232.457 1229.919 
1207.124 1207.826 1209.764 1213.053 1216.446 1219.205 1221.129 1223.138 1222.044 1220.868 1220.21 1219.33 1222.124 1225.103 1227.671 1229.092 1229.788 1230.651 1233.381 1234.976 1236.974 1239.032 1240.498 1241.824 1244.792 1245.692 1246.729 1248.818 1250.321 1253.516 1254.546 1254.052 1252.908 1252.426 1250.876 1243.722 1242.854 1240.652 1237.354 1234.776 1232.226 
1208.473 1209.89 1211.308 1213.999 1216.993 1219.111 1220.67 1223.083 1224.238 1224.629 1223.82 1221.939 1222.039 1224.266 1226.97 1227.995 1228.403 1229.021 1230.2 1230.734 1231.912 1233.745 1235.541 1239.532 1242.279 1244.268 1245.4 1247.369 1250.082 1254.215 1255.737 1256.46 1256.793 1256.275 1250.645 1248.261 1246.699 1244.403 1241.199 1238.302 1232.226 
1210.169 1212.225 1213.952 1216.042 1217.136 1218.302 1219.814 1223.667 1227.108 1229.892 1230.202 1228.782 1226.786 1226.318 1227.476 1228.19 1228.959 1229.371 1229.885 1229.707 1229.833 1230.341 1231.303 1234.7 1237.814 1240.832 1243.038 1245.093 1248.49 1255.108 1257.361 1258.808 1259.436 1259.205 1255.092 1252.373 1249.6 1246.473 1243.135 1238.302 1236.571 
1211.723 1215.384 1217.625 1218.545 1217.853 1217.733 1221.324 1224.365 1227.512 1230.523 1233.035 1233.503 1231.465 1230.203 1229.646 1229.525 1229.826 1230.126 1230.215 1230.259 1230.276 1230.477 1231.021 1234.733 1238.287 1241.53 1242.785 1244.104 1249.583 1256.574 1258.233 1259.121 1259.698 1259.609 1258.083 1255.583 1252.172 1248.202 1243.135 1240.734 1243.035 
1214.019 1217.971 1220.024 1221.022 1220.2 1218.984 1219.786 1222.604 1226.158 1229.23 1231.844 1233.563 1234.167 1233.9 1233.222 1232.916 1232.555 1232.474 1232.768 1233.046 1233.293 1233.96 1235.093 1240.158 1242.647 1244.387 1246.49 1250.052 1257.151 1257.792 1258.653 1259.318 1259.466 1259.921 1258.966 1257.741 1255.483 1248.202 1244.565 1242.964 1246.736 
1215.852 1219.857 1222.388 1223.939 1222.776 1220.781 1219.172 1221.353 1224.951 1228.282 1230.669 1232.455 1236.874 1238.247 1238.136 1238.488 1238.108 1237.487 1237.554 1237.864 1238.505 1239.791 1241.526 1245.385 1247.425 1250.042 1253.675 1256.716 1257.822 1258.419 1258.857 1259.112 1259.573 1259.776 1259.673 1258.796 1255.483 1251.832 1247.647 1248.016 1251.478 
1219.599 1222.695 1226.539 1228.583 1227.557 1225.27 1221.109 1222.082 1225.008 1228.238 1230.586 1235.073 1239.103 1242.138 1243.345 1244.175 1244.123 1243.296 1243.084 1243.257 1243.755 1244.671 1246.126 1249.054 1251.827 1254.899 1256.02 1258.352 1258.163 1258.486 1258.712 1259.1 1259.622 1260.206 1259.673 1258.796 1256.955 1254.291 1253.047 1253.13 1256.1 
1222.137 1226.687 1231.166 1233.133 1233.139 1231.949 1227.344 1226.749 1227.567 1228.798 1230.913 1236.503 1240.611 1243.733 1245.531 1246.546 1246.997 1247.148 1247.009 1246.859 1246.64 1247.191 1249.177 1250.63 1252.942 1255.274 1256.208 1257.155 1258.26 1258.452 1258.215 1257.66 1258.807 1259.948 1259.888 1259.688 1258.43 1257.025 1256.964 1255.977 1257.366 
1226.276 1230.9 1233.825 1234.735 1235.158 1235.24 1233.238 1231.861 1230.949 1229.819 1230.134 1235.605 1240.486 1244.259 1245.631 1246.405 1247.027 1247.798 1247.946 1248.021 1247.967 1247.827 1249.093 1250.378 1251.83 1253.035 1254.138 1254.711 1254.547 1254.082 1254.161 1255.303 1258.807 1259.979 1260.265 1260.237 1259.614 1258.986 1258.229 1257.14 1257.848 
1229.376 1232.956 1234.358 1234.892 1235.597 1236.257 1235.405 1233.612 1232.271 1231.58 1230.719 1232.796 1238.219 1243.83 1245.369 1246.099 1246.472 1247.237 1247.492 1247.757 1248.002 1248.396 1248.576 1249.087 1249.785 1250.474 1250.998 1251.476 1249.441 1246.853 1245.78 1255.303 1256.722 1260.023 1260.28 1260.351 1260.3 1260.214 1259.81 1259.442 1259.618 
1230.19 1232.554 1233.904 1234.921 1235.862 1236.05 1235.572 1234.721 1233.641 1233.16 1232.501 1235.102 1239.698 1243.622 1244.921 1245.561 1246.129 1246.732 1247.091 1247.432 1248 1247.954 1246.531 1246.287 1247.281 1247.911 1247.868 1246.224 1244.66 1242.659 1245.78 1249.285 1256.212 1260.097 1260.247 1260.465 1260.952 1260.812 1260.704 1260.36 1260.255 
1229.769 1231.401 1232.88 1234.182 1235.611 1235.898 1235.569 1235.385 1234.989 1234.745 1234.717 1238.051 1240.874 1242.85 1243.776 1244.393 1244.79 1245.645 1246.653 1247.223 1247.507 1247.562 1244.58 1244.099 1245.031 1245.929 1244.948 1242.533 1241.244 1242.659 1244.449 1252.658 1257.864 1259.856 1260.308 1260.925 1261.229 1261.382 1260.767 1260.587 1260.616 
1230.576 1231.928 1233.067 1234.062 1235.321 1235.598 1235.47 1235.353 1235.331 1235.716 1236.325 1238.719 1240.155 1241.424 1242.307 1242.806 1243.625 1244.492 1245.663 1246.995 1247.438 1246.164 1242.738 1241.924 1242.552 1242.355 1240.837 1237.019 1241.244 1241.361 1247.272 1257.92 1260.449 1259.137 1259.968 1261.075 1262.074 1261.911 1260.944 1260.93 1260.855 
1232.555 1233.439 1234.092 1234.697 1235.112 1235.062 1235.001 1235.013 1235.269 1235.826 1237.507 1238.451 1239.362 1240.133 1240.7 1241.238 1242.585 1243.476 1244.476 1245.314 1245.53 1242.5 1240.674 1238.936 1237.674 1236.427 1240.837 1237.019 1238.19 1241.987 1248.714 1256.536 1257.079 1256.841 1257.44 1259.557 1262.041 1260.687 1260.553 1260.346 1260.393 
1233.628 1233.935 1234.472 1235.086 1234.862 1234.112 1233.743 1233.754 1234.302 1235.146 1236.842 1237.534 1238.062 1238.48 1238.905 1239.439 1240.921 1241.658 1242.577 1243.505 1243.179 1237.474 1235.12 1234.878 1234.24 1236.427 1234.361 1233.165 1237.388 1242.601 1247.441 1251.562 1251.184 1251.331 1252.809 1255.222 1257.088 1257.79 1258.423 1258.494 1259.338 
1234.006 1234.316 1234.396 1234.408 1232.956 1232.119 1231.459 1231.798 1233.201 1234.282 1235.471 1236.204 1236.659 1236.506 1236.707 1237.37 1238.829 1239.897 1240.123 1238.737 1238.214 1235.325 1232.981 1231.824 1234.24 1232.54 1231.788 1232.242 1235.025 1240.1 1244.941 1246.421 1243.884 1243.954 1245.803 1248.101 1249.99 1253.473 1256.411 1256.856 1258.387 
1232 1232.355 1232.041 1231.319 1229.401 1228.565 1228.494 1229.811 1231.887 1233.592 1233.721 1234.027 1234.292 1234.256 1234.534 1235.862 1236.877 1237.584 1237.961 1237.711 1234.412 1232.629 1231.292 1231.824 1231.784 1231.778 1231.853 1231.847 1231.82 1235.019 1241.498 1243.099 1243.263 1243.326 1243.918 1245.078 1247.168 1251.835 1257.071 1257.839 1259.209 
1225.407 1225.75 1226.506 1226.632 1223.427 1222.298 1223.45 1226.153 1228.812 1230.894 1231.568 1231.333 1231.356 1231.693 1232.049 1233.775 1234.705 1235.231 1235.719 1235.465 1233.412 1228.57 1231.292 1230.393 1231.916 1232.552 1234.094 1234.765 1235.868 1238.638 1242.656 1244.213 1245.707 1247.407 1250.382 1254.568 1258.999 1258.077 1258.212 1258.866 1259.611 
1218.274 1218.885 1220.729 1222.08 1218.582 1217.05 1219.329 1222.757 1224.535 1225.677 1226.593 1226.799 1227.2 1228.314 1228.741 1231.597 1232.822 1233.128 1233.208 1232.355 1229.388 1228.57 1228.039 1229.14 1232.838 1234.34 1239.937 1242.104 1243.748 1245.254 1246.197 1248.597 1253.602 1256.674 1259.101 1260.688 1260.768 1258.532 1258.779 1259.013 1259.361 
1212.221 1212.915 1214.774 1215.71 1210.878 1209.998 1213.96 1218.45 1219.895 1220.662 1220.421 1220.823 1222.631 1224.058 1223.725 1225.107 1226.94 1226.627 1224.897 1223.319 1224.732 1221.556 1223.606 1229.178 1233.371 1236.171 1241.568 1244.836 1246.927 1248.159 1250.044 1253.321 1257.86 1258.431 1258.527 1258.828 1258.365 1257.959 1258.115 1258.529 1259.024 
1203.386 1204.472 1207.39 1209.818 1202.521 1202.5 1207.552 1212.167 1213.064 1210.036 1211.022 1213.968 1217.553 1220.724 1220.444 1217.989 1219.749 1218.339 1215.255 1223.319 1219.855 1219.019 1221.637 1226.624 1231.389 1233.803 1238.432 1242.229 1244.128 1245.419 1247.086 1252.594 1254.941 1255.821 1255.914 1256.126 1256.453 1256.48 1256.876 1257.426 1258.066 
1189.713 1192.865 1196.517 1199.067 1194.712 1195.242 1197.178 1198.746 1201.429 1199.496 1200.381 1204.219 1208.76 1212.153 1210.834 1209.406 1210.953 1218.339 1215.255 1216.287 1217.271 1217.965 1219.016 1221.74 1226.866 1230.383 1234.453 1236.707 1239.296 1241.962 1243.918 1249.447 1251.738 1252.772 1252.328 1251.819 1252.296 1253.797 1254.629 1255.671 1256.818 
1185.784 1187.574 1188.702 1190.005 1190.849 1191.811 1192.798 1193.669 1194.705 1197.753 1201.058 1202.627 1203.253 1204.892 1206.963 1209.89 1210.953 1211.609 1214.032 1215.066 1217.463 1218.828 1219.835 1220.665 1222.309 1226.099 1230.386 1231.451 1233.734 1237.635 1241.887 1247.413 1249.214 1249.498 1247.802 1246.367 1246.744 1248.518 1250.343 1252.85 1254.932 
1191.113 1192.596 1192.566 1192.067 1193.683 1195.087 1195.074 1195.594 1197.042 1204.187 1206.541 1208.072 1208.543 1207.147 1209.303 1209.89 1214.162 1217.607 1219.58 1222.048 1222.023 1223.398 1225.186 1225.489 1225.07 1229.976 1230.285 1230.268 1230.711 1233.28 1239.331 1246.701 1247.552 1246.488 1244.004 1242.287 1242.59 1243.862 1246.146 1249.01 1250.943 
1197.383 1199.254 1199.954 1198.313 1198.391 1202.191 1206.913 1209.073 1211.398 1213.859 1214.359 1215.844 1218.051 1217.554 1209.303 1215.328 1220.496 1222.589 1225.01 1228.693 1230.797 1230.89 1231.098 1231.458 1231.903 1231.465 1231.072 1230.915 1230.792 1231.836 1236.616 1245.566 1245.547 1243.654 1240.951 1239.368 1240.171 1241.618 1243.915 1245.701 1246.883 
1203.748 1206.035 1207.868 1208.171 1206.444 1205.526 1209.195 1216.672 1221.333 1221.543 1221.581 1221.899 1223.211 1217.554 1213.706 1216.8 1221.055 1225.436 1229.955 1232.976 1233.512 1233.619 1233.668 1233.694 1233.62 1232.738 1231.999 1231.555 1231.353 1231.509 1233.666 1241.785 1241.36 1239.259 1237.14 1236.032 1238.182 1240.422 1242.328 1243.393 1244.177 
1209.911 1211.944 1213.987 1214.538 1212.155 1209.721 1211.15 1217.843 1222.781 1223.489 1224.519 1226.661 1223.211 1223.731 1218.064 1217.636 1219.85 1223.535 1227.456 1232.574 1233.044 1233.423 1233.815 1234.179 1234.549 1233.559 1232.679 1231.981 1231.573 1231.619 1233.655 1234.903 1234.494 1233.611 1233.093 1232.861 1235.75 1238.077 1240.735 1242.885 1243.581 
1215.557 1217.928 1219.501 1220.291 1218.821 1216.428 1214.971 1217.308 1223.303 1225.408 1227.589 1226.661 1228.988 1229.442 1222.458 1219.623 1219.121 1221.523 1225.543 1231.539 1232.624 1233.079 1233.78 1234.328 1234.714 1234.518 1233.674 1232.596 1231.939 1231.514 1231.404 1231.471 1231.39 1231.421 1231.992 1233.029 1237.046 1240.547 1243.143 1244.116 1244.279 
1218.317 1220.866 1222.748 1222.306 1220.905 1219.817 1218.686 1218.267 1222.361 1225.408 1227.589 1230.186 1232.481 1233.392 1228.995 1224.82 1222.298 1223.107 1226.252 1230.905 1232.054 1232.435 1233.218 1234.072 1234.673 1235.063 1234.801 1233.967 1233.009 1232.467 1231.524 1231.281 1231.464 1231.54 1232.302 1234.193 1239.634 1243.436 1244.78 1244.929 1244.812 
1217.827 1220.612 1222.724 1222.296 1221.95 1221.223 1220.36 1219.923 1222.361 1225.401 1228.149 1230.59 1232.489 1234.42 1233.832 1231.232 1229.362 1230.152 1227.936 1230.094 1231.284 1232.014 1232.316 1233.194 1234.91 1235.537 1235.99 1235.77 1235.137 1234.995 1233.548 1232.691 1231.826 1231.202 1231.636 1232.699 1239.195 1242.567 1244.417 1244.854 1245.081 
1216.081 1219.346 1222.203 1222.341 1222.537 1222.568 1222.294 1219.923 1221.429 1224.734 1227.989 1230.543 1232.415 1234.947 1234.512 1233.641 1233.01 1231.974 1231.252 1230.364 1231.29 1231.654 1231.942 1232.232 1234.764 1236.107 1237.045 1237.712 1238.245 1238.894 1238.822 1237.702 1236 1234.476 1233.767 1236.474 1239.499 1241.733 1243.608 1244.37 1244.61 
1213.418 1217.118 1221.335 1222.141 1222.768 1223.139 1222.294 1220.894 1221.708 1225.527 1229.661 1230.952 1232.165 1234.562 1235.16 1235.46 1234.994 1233.882 1233.402 1232.536 1232.206 1231.976 1231.673 1231.87 1234.123 1236.378 1238.134 1239.648 1241.044 1242.339 1243.856 1243.433 1242.312 1240.59 1238.933 1239.936 1240.654 1241.807 1242.73 1243.437 1243.927 
1210.109 1214.407 1220.196 1221.41 1222.465 1223.139 1223.343 1222.708 1224.105 1226.583 1228.422 1230.392 1231.791 1234.479 1235.583 1236.736 1237.667 1238.234 1236.313 1235.654 1235.023 1234.084 1233.048 1232.222 1234.517 1237.156 1239.146 1241.01 1242.85 1244.054 1245.922 1246.102 1245.734 1244.855 1243.924 1242.89 1242.136 1242.219 1242.897 1243.164 1243.462 
1207.448 1211.052 1218.764 1220.644 1222.465 1223.263 1223.869 1225.048 1226.044 1227.297 1228.643 1229.916 1231.317 1233.746 1235.591 1237.875 1240.057 1242.264 1240.865 1239.869 1238.748 1237.52 1236.219 1235.45 1237.217 1238.424 1240.183 1241.871 1243.567 1245.644 1246.484 1246.828 1247.102 1247.186 1246.736 1245.073 1244.349 1243.919 1243.749 1243.679 1243.495 
1206.717 1211.761 1216.115 1220.644 1221.547 1222.615 1223.544 1225.496 1226.626 1227.813 1228.835 1229.783 1230.95 1233.642 1235.947 1238.912 1241.548 1243.698 1244.835 1244.034 1242.773 1241.578 1240.526 1239.978 1241.233 1240.682 1241.142 1242.114 1243.005 1245.566 1246.599 1247.316 1248.002 1248.409 1248.413 1247.251 1246.661 1246.053 1245.193 1244.386 1243.737 
1209.545 1211.761 1216.115 1219.158 1220.762 1221.735 1222.577 1225.296 1226.736 1228.115 1229.181 1229.823 1231.681 1233.937 1236.838 1239.586 1241.991 1243.954 1246.092 1246.18 1245.724 1244.691 1244.089 1243.649 1243.556 1242.958 1242.413 1242.154 1242.158 1245.172 1246.348 1247.642 1248.703 1249.659 1250.084 1249.775 1249.283 1248.339 1247.118 1246.397 1244.564 
