NCOLS 92
NROWS 90
XLLCORNER 452028.49
YLLCORNER 3771475.4
CELLSIZE 10
NODATA_VALUE -9999
339.4931 339.5428 339.5624 339.6394 339.6296 339.6994 339.7468 339.7394 339.7329 339.7387 339.8422 339.8363 339.837 339.9634 340.027 340.0396 340.0306 340.0268 340.0706 340.1274 340.136 340.1286 340.1258 340.1174 340.1644 340.2578 340.3153 340.3324 340.3106 340.261 340.2058 340.2296 340.3101 340.2958 340.3128 340.3391 340.3317 340.3335 340.3298 340.116 340.0022 339.9159 339.7939 339.627 339.4788 339.0389 338.6225 338.7676 339.3099 339.5883 339.8258 340.5787 340.7266 340.8834 341.0705 341.1996 341.3409 341.6419 341.7715 341.8449 341.8951 341.9943 342.0814 342.0695 342.1011 342.1125 342.0634 341.9842 341.9113 342.0066 342.0728 342.1306 342.118 342.1177 342.1169 342.1165 342.116 342.1154 342.1201 342.1024 341.9992 341.9609 341.9307 341.9541 342.0042 342.0534 342.1524 342.1619 342.1611 342.1611 342.1611 342.1611 
339.3966 339.4398 339.4594 339.5371 339.5326 339.6002 339.6443 339.6362 339.7329 339.7387 339.8422 339.8363 339.837 339.8285 339.8421 339.9113 339.9297 339.9376 339.9248 339.9483 340.0117 340.0105 340.0243 340.0264 340.0743 340.131 340.1379 340.1378 340.1147 340.1207 340.1371 340.1573 340.1793 340.3521 340.2862 340.2318 340.2241 340.2207 340.1861 340.1435 340.0232 339.9113 339.7892 339.6435 339.5474 339.006 338.5642 338.7337 339.3257 339.5964 339.782 340.3241 340.5083 340.745 340.9269 341.0244 341.1533 341.4401 341.5887 341.694 341.737 341.8228 341.8588 341.8821 341.9388 341.8923 341.8773 341.9866 341.9876 342.0172 342.0032 341.9937 341.9896 341.9893 341.9882 341.9876 341.987 341.9864 341.9879 341.9799 341.9547 341.91 341.8838 341.9277 342.0336 342.1245 342.1613 342.1611 342.1611 342.1611 342.1611 342.1611 
339.2917 339.3391 339.4594 339.5371 339.5326 339.6002 339.6443 339.6362 339.6319 339.6427 339.7396 339.7336 339.7336 339.7336 339.7314 339.7226 339.785 339.8111 339.8183 339.8309 339.8214 339.819 339.9012 339.9145 339.9385 340.0053 339.9969 340.0185 340.0262 340.038 340.0898 340.1339 340.1395 340.2195 340.2347 340.2025 340.1318 340.0649 340.0536 340.1153 340.0416 339.9343 339.8045 339.675 339.5491 338.9681 338.5098 338.7104 339.3225 339.6088 339.7795 340.1656 340.3743 340.5603 340.7641 341.0056 341.1227 341.2625 341.4099 341.5481 341.6108 341.6432 341.6837 341.8228 341.9028 341.9221 341.9397 342.0552 342.002 342.002 341.9987 342.0271 342.0692 342.0678 342.0695 342.0706 342.0717 342.0727 342.0735 342.0754 342.0816 342.0857 342.0859 342.0999 342.137 342.1608 342.1611 342.1611 342.1611 342.1611 342.1611 342.1611 
339.2917 339.3391 339.3515 339.4165 339.4317 339.4823 339.5285 339.5349 339.5304 339.5376 339.6312 339.6348 339.633 339.6327 339.6323 339.6322 339.6234 339.6136 339.6519 339.7129 339.7321 339.7272 339.7701 339.7523 339.7513 339.8203 339.8189 339.9109 339.923 339.9607 340.0135 340.0273 340.0184 340.1026 340.1392 340.0913 340.0143 340.0034 340.0584 340.0411 340.0873 339.9828 339.8273 339.7308 339.5607 338.9608 338.4431 338.704 339.3482 339.561 339.7315 339.9834 340.1653 340.3472 340.5482 340.8108 341.0182 341.2561 341.4011 341.5608 341.6537 341.6998 341.7961 341.9867 342.0869 342.1367 342.1283 342.1171 342.1229 342.1232 342.1202 342.1424 342.1643 342.1609 342.1611 342.1611 342.1611 342.1611 342.1611 342.1611 342.1611 342.1611 342.1611 342.1611 342.1611 342.1611 342.1611 342.1611 342.1611 342.1611 342.1611 342.1611 
339.1723 339.2263 339.2299 339.2339 339.338 339.3188 339.372 339.4375 339.4314 339.4279 339.4815 339.5081 339.5017 339.501 339.5003 339.4988 339.5204 339.5321 339.5189 339.537 339.5974 339.59 339.5807 339.6195 339.6629 339.7224 339.7375 339.8281 339.8209 339.8117 339.8359 339.8957 339.9222 339.973 339.9564 339.8916 339.9329 340.0411 340.0181 339.8519 339.9001 339.9158 339.8425 339.7245 339.5569 338.9165 338.3925 338.6881 339.3452 339.4962 339.5806 339.699 339.9188 340.1599 340.3604 340.5876 340.8325 341.3327 341.6399 341.8203 341.9673 342.0519 342.0855 342.1456 342.1642 342.161 342.1611 342.1611 342.1611 342.1611 342.1611 342.1611 342.1611 342.1611 342.1611 342.1611 342.1611 342.1611 342.1611 342.1611 342.1611 342.1611 342.1611 342.1611 342.1611 342.1611 342.1611 342.1611 342.1611 342.1611 342.1611 342.1611 
339.0165 339.0513 339.1118 339.1379 339.2285 339.2247 339.2751 339.3363 339.3284 339.3277 339.3206 339.3174 339.3176 339.3172 339.3169 339.3151 339.3703 339.3938 339.406 339.4254 339.4144 339.4178 339.4913 339.5206 339.5612 339.6256 339.6272 339.7181 339.7227 339.7188 339.7115 339.7228 339.7822 339.7754 339.765 339.8615 339.9341 339.9195 339.9048 339.817 339.7733 339.7515 339.7747 339.7414 339.6073 338.883 338.2994 338.5877 339.2853 339.3571 339.2527 339.5135 339.8031 340.1305 340.4096 340.6216 340.8248 341.3596 341.7375 342.0139 342.1755 342.1714 342.1611 342.1611 342.1611 342.1611 342.1611 342.1611 342.1611 342.1611 342.1611 342.1611 342.1611 342.1611 342.1611 342.1611 342.1611 342.1611 342.1611 342.1611 342.1611 342.1611 342.1611 342.1611 342.1611 342.1611 342.1611 342.1611 342.1611 342.1611 342.1611 342.1611 
338.8606 338.9096 338.937 338.9984 339.0787 339.1173 339.1594 339.2101 339.2297 339.2289 339.2253 339.2238 339.2234 339.2242 339.2266 339.2264 339.2201 339.2095 339.2394 339.2974 339.3213 339.3167 339.3879 339.4215 339.4386 339.4923 339.5197 339.5605 339.6101 339.6218 339.6161 339.6115 339.6145 339.6502 339.7698 339.8362 339.8119 339.8151 339.8093 339.7208 339.7174 339.6798 339.6958 339.7745 339.6805 338.8622 338.251 338.6064 339.2538 339.1262 339.0432 339.4606 339.7137 340.0012 340.2513 340.3879 340.6162 341.3862 341.6526 341.9346 342.0684 342.0652 342.1249 342.1123 342.15 342.1636 342.161 342.1611 342.1611 342.1611 342.1611 342.1611 342.1611 342.1611 342.1611 342.1611 342.1611 342.1611 342.1611 342.1611 342.1611 342.1611 342.1611 342.1611 342.1611 342.1611 342.1611 342.1611 342.1611 342.1611 342.1611 342.1611 
338.7088 338.7447 338.8 338.8251 338.9127 338.9629 339.0042 339.0414 339.0919 339.0898 339.1153 339.128 339.1277 339.1141 339.0836 339.0824 339.0789 339.1055 339.1143 339.1387 339.2227 339.2139 339.2888 339.3267 339.3091 339.321 339.3775 339.4098 339.4446 339.4956 339.5192 339.5167 339.5156 339.6044 339.6476 339.6893 339.7143 339.7107 339.7134 339.6352 339.6026 339.6129 339.6126 339.5946 339.5717 338.8545 338.1333 338.3106 338.9035 339.0008 339.1067 339.5331 339.726 339.8815 340.1429 340.4711 340.7078 341.3771 341.6299 341.7826 341.8459 341.8468 341.8767 341.9245 341.9751 341.9808 341.9849 342.0597 342.1615 342.1611 342.1611 342.1611 342.1611 342.1611 342.1611 342.1611 342.1611 342.1611 342.1611 342.1611 342.1611 342.1611 342.1611 342.1611 342.1611 342.1611 342.1611 342.1611 342.1611 342.1611 342.1611 342.1611 
338.5526 338.6007 338.6313 338.6882 338.7694 338.805 338.8474 338.8987 338.918 338.916 338.9635 338.9855 338.9847 338.9612 338.9099 338.9091 338.9059 338.9426 338.992 339.0302 339.0793 339.116 339.1486 339.1996 339.2238 339.214 339.2119 339.3052 339.3033 339.3659 339.4004 339.3603 339.4194 339.5161 339.4979 339.5573 339.623 339.6158 339.6175 339.5335 339.5006 339.5107 339.4931 339.4398 339.4117 338.8239 337.9979 338.0416 338.7429 339.1109 339.2852 339.5904 339.8416 340.079 340.283 340.5436 340.7426 341.2182 341.384 341.5564 341.6515 341.638 341.639 341.6567 341.6592 341.6793 341.749 341.8445 342.039 342.103 342.0627 342.0699 342.1627 342.1612 342.1611 342.1611 342.1611 342.1611 342.1611 342.1611 342.1611 342.1611 342.1611 342.1611 342.1611 342.1611 342.1611 342.1611 342.1611 342.1611 342.1611 342.1611 
338.4062 338.4382 338.4904 338.5203 338.6071 338.6544 338.6961 338.7373 338.7847 338.7793 338.8039 338.8171 338.8138 338.8162 338.8215 338.8163 338.8153 338.803 338.8514 338.9193 338.9136 339.0111 339.0092 339.035 339.0635 339.0753 339.1127 339.1928 339.2158 339.2331 339.2569 339.2631 339.3168 339.4121 339.4044 339.4283 339.4536 339.4501 339.45 339.4159 339.4025 339.4044 339.4082 339.4012 339.3695 338.7776 337.9327 338.1839 339.0519 339.252 339.432 339.7649 339.9488 340.1404 340.2483 340.4344 340.9215 341.0564 341.1709 341.2853 341.3916 341.4312 341.3596 341.4198 341.4315 341.4583 341.5615 341.6367 341.6719 341.7899 341.8762 341.9733 342.126 342.1646 342.1611 342.1611 342.1611 342.1611 342.1611 342.1611 342.1611 342.1611 342.1611 342.1611 342.1611 342.1611 342.1611 342.1611 342.1611 342.1611 342.1611 342.1611 
338.2261 338.2977 338.3264 338.3779 338.4601 338.4985 338.5437 338.5739 338.574 338.6099 338.6585 338.6771 338.6692 338.6689 338.6664 338.7097 338.722 338.7116 338.7279 338.7789 338.815 338.8467 338.9012 338.9178 338.9044 338.9126 338.9595 339.0443 339.0917 339.1009 339.1395 339.211 339.2167 339.3102 339.3055 339.3027 339.2995 339.2996 339.2992 339.3021 339.3031 339.3025 339.3019 339.3013 339.322 338.7018 337.8871 338.2858 339.2769 339.4256 339.5337 339.826 339.9523 340.0235 340.145 340.4061 340.6428 340.8351 341.002 341.0749 341.1393 341.1614 341.0541 341.0525 341.1702 341.2583 341.2883 341.3669 341.3342 341.5311 341.6413 341.7405 341.966 342.0346 342.0217 342.0241 342.0224 342.0215 342.0204 342.0194 342.0173 342.0161 342.0214 341.9865 341.9182 341.9158 341.9793 342.0071 342.0004 341.9998 341.9954 342.0023 
338.0337 338.1008 338.1817 338.2167 338.3018 338.3463 338.3925 338.4127 338.4212 338.4647 338.4582 338.4877 338.5159 338.5103 338.5036 338.5504 338.5595 338.5906 338.6125 338.613 338.6634 338.7059 338.7358 338.7523 338.7751 338.8093 338.8138 338.9038 338.9722 339.0096 339.041 339.1101 339.1148 339.2165 339.2053 339.2064 339.2083 339.2018 339.2015 339.2009 339.2006 339.1997 339.2018 339.2093 339.2325 338.4308 337.747 338.349 339.3759 339.499 339.5649 339.7507 339.8294 339.9783 340.1873 340.3112 340.5356 340.6797 340.7346 340.8239 340.9185 340.8445 340.9134 340.799 340.7501 340.8362 340.8903 340.9171 341.0612 341.197 341.3007 341.4036 341.5735 341.6632 341.7561 341.7168 341.7222 341.7208 341.7194 341.7181 341.7156 341.7141 341.7137 341.7076 341.6971 341.6942 341.7727 341.804 341.7926 341.7923 341.7913 341.7894 
337.8936 337.9409 338.0235 338.0737 338.1552 338.1945 338.2396 338.2694 338.2705 338.3082 338.3079 338.3378 338.3588 338.3726 338.4164 338.4109 338.4015 338.4247 338.4802 338.5123 338.5061 338.6027 338.6141 338.6007 338.6127 338.6586 338.7064 338.7964 338.8305 338.8751 338.921 338.9535 339.0108 339.0351 339.086 339.0752 339.053 339.1095 339.1088 339.1069 339.1058 339.1143 339.097 339.0471 338.9878 337.9285 337.5224 338.3385 339.3736 339.4237 339.5628 339.726 339.8542 340.0099 340.1242 340.1981 340.4629 340.5258 340.5098 340.5628 340.6441 340.617 340.4921 340.5155 340.4391 340.3102 340.2985 340.4055 340.5172 340.6509 340.9731 341.1859 341.2728 341.4141 341.4926 341.5127 341.5035 341.4984 341.4978 341.4971 341.4954 341.4943 341.4933 341.4927 341.4921 341.4909 341.4904 341.5496 341.5935 341.5863 341.5853 341.5827 
337.708 337.8062 337.8669 337.8651 337.9582 338.0177 338.0653 338.0647 338.1182 338.1648 338.1541 338.1845 338.2074 338.2141 338.2519 338.2481 338.2932 338.3081 338.3129 338.364 338.4098 338.4341 338.4419 338.4732 338.499 338.5219 338.606 338.6254 338.6749 338.7151 338.7588 338.8098 338.8393 338.9052 338.9276 338.9227 338.9113 338.9377 338.9365 338.9406 338.9473 338.9159 338.8492 338.7509 338.5282 337.4927 337.3743 338.3392 339.3649 339.3861 339.5665 339.7104 339.8429 339.9334 340.0105 340.1106 340.3077 340.3087 340.2975 340.3484 340.4013 340.323 340.1356 340.207 340.2065 340.0484 339.9016 339.8558 339.9393 340.083 340.313 340.6071 340.8831 341.0274 341.1871 341.2065 341.2489 341.3058 341.2994 341.2979 341.296 341.2913 341.2876 341.287 341.2859 341.2851 341.2771 341.3385 341.388 341.38 341.379 341.3766 
337.5294 337.5829 337.6672 337.7108 337.7945 337.8312 337.8727 337.9258 337.9601 337.9447 337.9858 338.03 338.0761 338.1148 338.1085 338.0994 338.1242 338.1823 338.2087 338.2045 338.2474 338.3029 338.2892 338.3523 338.4146 338.4112 338.4406 338.4966 338.5646 338.6114 338.6074 338.6423 338.703 338.7367 338.7322 338.7318 338.7318 338.7285 338.7302 338.6754 338.6578 338.6304 338.5288 338.3415 338.0115 337.1954 337.2287 338.2906 339.37 339.3851 339.5414 339.6427 339.7351 339.8182 339.8978 340.0038 340.1928 340.1833 340.182 340.1944 340.1829 340.0976 339.9325 339.7979 339.7364 339.7014 339.6 339.5158 339.4211 339.5363 339.8039 340.1535 340.5072 340.8094 340.9875 341.0089 341.0003 341.0019 340.999 340.9935 340.9853 341.0468 341.0912 341.0805 341.0798 341.0788 341.071 341.1319 341.1815 341.1737 341.1724 341.1624 
337.387 337.4171 337.4653 337.5511 337.6207 337.6896 337.731 337.7571 337.7473 337.7936 337.8326 337.8766 337.9279 337.9503 337.9398 337.9963 338.0033 338.0118 338.0659 338.1077 338.0995 338.1931 338.2101 338.2189 338.2287 338.2414 338.2939 338.3872 338.4231 338.4218 338.447 338.5092 338.5308 338.5177 338.523 338.5262 338.5246 338.5266 338.5193 338.4327 338.3989 338.29 338.1368 337.9294 337.5742 337.0156 337.1839 338.2868 339.376 339.3946 339.5597 339.6437 339.7292 339.8112 339.8904 339.9815 340.0872 340.0816 340.0851 340.1002 340.0492 339.8907 339.6521 339.5302 339.4539 339.3825 339.2609 339.1033 339.0781 339.1805 339.4599 339.7861 340.0561 340.3033 340.4782 340.5594 340.6433 340.6876 340.7025 340.779 340.778 340.7717 340.8218 340.883 340.8763 340.8724 340.8643 340.9247 340.9754 340.962 340.978 341.0602 
337.1874 337.2688 337.3123 337.3433 337.4273 337.5041 337.5543 337.5347 337.545 337.6342 337.6835 337.7325 337.7394 337.7493 337.8024 337.8232 337.8851 337.9041 337.9025 337.9482 338.0046 338.0219 338.0237 338.0635 338.0974 338.1146 338.1991 338.2101 338.2715 338.3038 338.3058 338.3153 338.3218 338.4155 338.3558 338.3147 338.3191 338.3236 338.3218 338.1725 338.0497 337.8829 337.6841 337.4431 337.2326 336.8193 337.0004 338.1434 339.2942 339.3077 339.3794 339.4659 339.5398 339.6616 339.8096 339.8939 339.9841 339.9854 339.9303 339.8851 339.8745 339.7718 339.4326 339.3293 339.1863 339.0715 339.0724 339.0616 339.0581 339.2044 339.5375 339.8283 340.0012 340.172 340.2718 340.3277 340.4289 340.4831 340.4753 340.4744 340.5456 340.5785 340.5708 340.5646 340.5826 340.6607 340.6573 340.7179 340.762 340.7856 340.8575 340.9331 
337.0371 337.1134 337.1502 337.2339 337.2802 337.3168 337.3649 337.4051 337.4005 337.4916 337.5344 337.5325 337.5538 337.6097 337.6394 337.6983 337.7101 337.7686 337.8074 337.8065 337.8221 337.8833 337.8978 337.899 337.9477 338.0046 338.0254 338.1018 338.1086 338.1105 338.1391 338.2011 338.1938 338.13 338.1169 338.1089 338.119 338.1044 338.0333 337.8725 337.7228 337.5514 337.3421 337.1001 336.8311 336.6766 336.8162 338.0007 339.253 339.1272 339.2412 339.3397 339.4716 339.6149 339.7018 339.7888 339.8807 339.8807 339.8833 339.8507 339.7439 339.5721 339.2238 339.1027 339.061 339.0609 339.0611 339.0609 339.1054 339.3768 339.7115 339.9051 339.983 340.0742 340.1734 340.1694 340.1644 340.1992 340.2709 340.2694 340.265 340.2568 340.3038 340.3666 340.3576 340.3624 340.4559 340.5095 340.5547 340.5692 340.672 341.0219 
336.9458 337.0067 337.0132 337.0998 337.1726 337.2117 337.2099 337.252 337.3047 337.3219 337.3236 337.3628 337.4117 337.4428 337.5013 337.5874 337.6048 337.6106 337.6176 337.6365 337.6962 337.7066 337.7712 337.7992 337.7919 337.8292 337.8957 337.9071 337.9674 338.0049 338.0008 338.0172 338.014 337.9907 337.9979 337.9565 337.9117 337.9068 337.8124 337.5458 337.4729 337.2924 337.077 336.9616 336.6934 336.5804 336.7105 337.9567 339.1612 338.7695 339.1183 339.3097 339.4295 339.5136 339.5974 339.6857 339.7872 339.7182 339.6857 339.6538 339.5659 339.4527 339.0785 339.0592 339.0616 339.0611 339.0604 339.0646 339.2892 339.5416 339.721 339.8021 339.8662 339.8751 339.9713 339.9642 339.9629 339.9622 339.9576 339.9644 340.0626 340.0568 340.0485 340.0791 340.1543 340.1487 340.2213 340.2544 340.291 340.3852 340.4794 341.2465 
336.8135 336.8499 336.9015 336.993 337.0262 337.0247 337.0544 337.1077 337.1354 337.205 337.1929 337.2021 337.2469 337.2972 337.3275 337.417 337.4126 337.4568 337.499 337.4906 337.5203 337.593 337.5952 337.6531 337.6981 337.6869 337.7135 337.8036 337.7445 337.7572 337.8161 337.8095 337.8081 337.8076 337.8134 337.7683 337.6797 337.6042 337.5165 337.334 337.2037 337.0159 336.8586 336.776 336.6013 336.4255 336.4767 337.091 337.878 338.2621 339.0627 339.2636 339.3207 339.4055 339.4982 339.5721 339.5843 339.5131 339.467 339.4846 339.441 339.2591 339.0595 338.9939 339.001 339.0614 339.072 339.1625 339.5122 339.6339 339.6694 339.6624 339.6616 339.6606 339.6522 339.7142 339.762 339.7541 339.7543 339.7514 339.8188 339.8535 339.8406 339.873 339.9406 340.0216 340.1047 340.2431 340.4173 340.5997 340.9117 341.8106 
336.6967 336.7215 336.8043 336.8179 336.8775 336.9047 336.9037 336.939 337.003 337.0185 337.0728 337.0935 337.1277 337.203 337.1983 337.279 337.2945 337.2919 337.3408 337.3971 337.3879 337.4687 337.4897 337.4871 337.5358 337.6052 337.5869 337.5818 337.6015 337.5945 337.6053 337.6036 337.6027 337.6008 337.6065 337.5636 337.4704 337.3835 337.2973 337.1311 336.9843 336.8412 336.7556 336.6731 336.4187 336.2854 336.3372 336.6884 337.2681 337.8531 338.957 339.1627 339.2728 339.3761 339.3915 339.4728 339.3955 339.3652 339.3757 339.341 339.2485 339.1605 338.9767 339.016 339.0612 339.0805 339.1946 339.362 339.4641 339.4573 339.456 339.4547 339.4534 339.4521 339.4521 339.4496 339.4405 339.4725 339.545 339.5446 339.5423 339.5326 339.5778 339.6394 339.6289 339.7067 339.7926 339.8657 339.9937 340.1526 340.4017 341.5267 
336.595 336.6013 336.6191 336.6835 336.7167 336.7132 336.7455 336.8058 336.8135 336.8781 336.9063 336.9546 337.0079 337.0075 337.0157 337.1022 337.1584 337.1904 337.1865 337.2199 337.2809 337.3589 337.3955 337.3929 337.3535 337.3195 337.3905 337.3897 337.3907 337.3855 337.3847 337.3841 337.3832 337.3861 337.3988 337.356 337.259 337.1718 336.9948 336.9188 336.771 336.6292 336.5504 336.4644 336.29 336.192 336.1804 336.4799 336.9881 337.4571 338.6738 339.068 339.1896 339.2052 339.2717 339.2715 339.1891 339.1599 339.1658 339.1692 339.1512 339.0447 339.003 339.068 339.1004 339.1981 339.2621 339.2597 339.1793 339.1438 339.1481 339.1467 339.1426 339.1529 339.2503 339.2439 339.2435 339.2413 339.2337 339.2393 339.336 339.334 339.335 339.3253 339.3407 339.4257 339.4929 339.5721 339.7849 340.0763 340.2641 340.9601 
336.487 336.4919 336.489 336.5063 336.5704 336.6014 336.5965 336.6302 336.6932 336.6993 336.7639 336.7998 336.8366 336.8901 336.8956 336.9857 337.0509 337.096 337.077 337.1002 337.1777 337.2686 337.2318 337.2308 337.2859 337.268 337.2779 337.2732 337.3284 337.3631 337.3611 337.3611 337.3613 337.3071 337.2171 337.1786 337.1472 337.0739 336.9887 336.8327 336.7082 336.6241 336.5361 336.4536 336.2026 336.0896 336.0297 336.2183 336.6963 337.2294 338.359 338.7585 338.9379 338.9998 339.0925 339.1533 339.0609 338.9981 338.9453 338.9957 339.0452 338.95 339.0019 339.1341 339.1732 339.1267 339.0494 339.0464 339.0538 338.991 338.9421 338.9431 338.9626 339.0397 339.0385 339.0379 339.0362 339.0378 339.0432 339.0366 339.0289 339.0863 339.1363 339.1288 339.1258 339.2001 339.3563 339.5381 339.7181 339.8576 339.9022 340.0371 
336.4376 336.3857 336.3893 336.3948 336.4093 336.4064 336.4361 336.4956 336.5143 336.5889 336.589 336.6412 336.689 336.7161 336.7803 336.8675 336.8924 336.9388 336.9879 337.0091 337.0745 337.0607 337.0885 337.0753 337.1149 337.1793 337.178 337.1696 337.2359 337.288 337.2782 337.2734 337.275 337.2094 337.106 337.0679 337.0439 336.9688 336.8938 336.7302 336.5981 336.5628 336.5416 336.4553 336.204 336.0203 335.9176 336.1198 336.5454 336.909 337.9399 338.3385 338.5688 338.7372 338.8639 338.8568 338.8543 338.8542 338.8614 338.8204 338.741 338.7511 339.0088 339.0625 339.0541 339.0233 338.9286 338.8497 338.8438 338.849 338.8469 338.8415 338.8401 338.8348 338.8319 338.8371 338.8348 338.8641 338.9359 338.9326 338.9409 338.941 338.9363 338.9315 338.9455 339.0287 339.1418 339.3274 339.5753 339.7333 339.5912 339.3229 
336.351 336.286 336.2764 336.2065 336.1992 336.2451 336.2951 336.3192 336.3872 336.4696 336.4825 336.5327 336.5864 336.6009 336.6832 336.6829 336.7487 336.7935 336.7834 336.8056 336.8803 336.9486 336.9819 336.9675 337.0048 337.0804 337.0754 337.072 337.0757 337.0715 337.1028 337.1786 337.1715 337.0651 337.0728 337.0258 336.966 336.9535 336.7841 336.6954 336.6018 336.5614 336.5406 336.4559 336.2089 335.9544 335.8456 336.0111 336.4742 336.8699 337.695 338.0685 338.2523 338.4266 338.5474 338.5577 338.6513 338.6465 338.6523 338.6137 338.5346 338.5577 338.8252 338.8447 338.8447 338.808 338.7387 338.7317 338.7068 338.7513 338.6974 338.6317 338.6299 338.6384 338.6318 338.6882 338.744 338.7383 338.7242 338.7325 338.7971 338.8323 338.824 338.8283 338.8351 338.9097 338.9901 339.2325 339.5312 339.7333 339.5912 339.3229 
336.2451 336.1774 336.1749 336.0149 336.0587 336.1005 336.1322 336.1882 336.2029 336.2904 336.3508 336.3877 336.4203 336.4842 336.4962 336.5813 336.5739 336.6292 336.6785 336.6924 336.7721 336.8495 336.881 336.871 336.8679 336.8917 336.9689 336.9689 336.9686 336.9679 336.9685 336.9706 336.9665 336.9653 336.972 336.9254 336.8635 336.8532 336.6773 336.6621 336.6095 336.561 336.5455 336.4432 336.1855 335.9598 335.8049 336.011 336.4502 336.7755 337.267 337.6538 338.0141 338.1393 338.1728 338.3298 338.4092 338.4444 338.4466 338.4022 338.3494 338.44 338.6118 338.645 338.6446 338.6028 338.5284 338.5279 338.5373 338.5383 338.5416 338.5014 338.4476 338.5211 338.5379 338.5317 338.5754 338.6033 338.5446 338.6256 338.6278 338.6319 338.6233 338.6528 338.8351 338.9097 338.9901 339.2325 339.5312 339.5967 339.4175 339.0385 
336.1701 336.1576 336.0725 335.8175 335.8019 335.8572 335.9449 336.029 336.0877 336.1612 336.1835 336.2269 336.278 336.3015 336.3744 336.4539 336.4804 336.4682 336.5061 336.571 336.5831 336.6726 336.7292 336.7753 336.768 336.7649 336.7747 336.871 336.8651 336.8658 336.8656 336.8638 336.8627 336.8622 336.8688 336.8226 336.7605 336.7473 336.6562 336.6661 336.609 336.5612 336.5412 336.457 336.2165 335.8871 335.6881 335.9462 336.4311 336.6622 337.1491 337.4458 337.5838 337.6866 337.8757 338.0206 338.0998 338.1927 338.2416 338.1972 338.1417 338.2282 338.4001 338.5037 338.4958 338.3821 338.3213 338.3204 338.4024 338.4419 338.3816 338.3188 338.339 338.3284 338.3936 338.4286 338.418 338.4136 338.4199 338.6256 338.6278 338.6319 338.6233 338.6528 338.7361 338.826 338.986 339.146 339.3041 339.4051 339.293 338.96 
336.1507 336.0571 335.8893 335.5377 335.4938 335.5055 335.537 335.6508 335.8097 335.9725 336.0522 336.1382 336.1841 336.1692 336.183 336.2734 336.3315 336.3691 336.3978 336.4666 336.4748 336.5659 336.6231 336.6723 336.6649 336.661 336.6682 336.7678 336.7693 336.7156 336.6812 336.7599 336.7588 336.7648 336.6971 336.6936 336.7419 336.6446 336.5602 336.5611 336.5611 336.5628 336.5417 336.4572 336.221 335.8159 335.6366 335.9188 336.3241 336.56 336.9707 337.2333 337.3976 337.5045 337.6331 337.7209 337.9096 337.9225 337.9801 338.0105 337.9483 338.0334 338.2048 338.2978 338.2282 338.1081 338.1305 338.1387 338.2232 338.2199 338.1745 338.1494 338.2186 338.3284 338.3936 338.4286 338.418 338.4136 338.4199 338.4264 338.4882 338.5209 338.517 338.5466 338.6217 338.8172 338.9716 339.0964 339.1668 339.1915 339.1212 338.9578 
336.0062 335.7603 335.5871 335.3118 335.2264 335.1839 335.2239 335.3185 335.4076 335.5742 335.6511 335.78 335.9635 336.083 336.0838 336.1668 336.2268 336.2675 336.294 336.3633 336.3713 336.4626 336.5193 336.5689 336.5617 336.5578 336.5645 336.6696 336.6023 336.5507 336.5572 336.5554 336.551 336.6266 336.6075 336.5527 336.5239 336.466 336.5644 336.5609 336.561 336.5644 336.5381 336.4591 336.2369 335.7483 335.5746 335.9306 336.3048 336.4769 336.9034 337.0503 337.2825 337.358 337.2455 337.4078 337.6944 337.7015 337.7964 337.8892 337.8558 337.9165 338.0692 338.0805 337.9549 337.9336 338.0041 338.0051 338.2232 338.2199 338.1745 338.1494 338.2186 338.234 338.2337 338.2168 338.2042 338.2071 338.237 338.3151 338.3036 338.3048 338.3633 338.4313 338.4636 338.7114 338.8435 338.9677 339.0081 339.0005 338.9995 338.848 
335.6406 335.4587 335.2838 335.0139 334.9249 334.8847 334.8859 334.9073 334.9926 335.163 335.2469 335.3234 335.4391 335.6136 335.7823 336.0527 336.0661 336.0999 336.1959 336.2604 336.2676 336.3596 336.4158 336.4655 336.4582 336.4576 336.4569 336.4533 336.4543 336.4551 336.4544 336.4539 336.4529 336.4492 336.4527 336.4552 336.4516 336.4523 336.534 336.5595 336.5602 336.5203 336.4473 336.4675 336.3728 335.7118 335.5004 335.9259 336.3107 336.4719 336.786 336.8923 336.8958 336.9633 337.1174 337.1497 337.3879 337.41 337.4413 337.5834 337.7285 337.6912 337.7927 338.0805 337.9549 337.9336 338.0041 338.0051 338.0106 338.021 338.0237 338.018 338.0266 338.0985 338.1233 338.0666 338.0146 338.0437 338.1094 338.1226 338.1145 338.1693 338.2664 338.3563 338.4427 338.5764 338.6606 338.7491 338.7982 338.7903 338.79 338.7426 
335.1678 335.0622 334.8867 334.61 334.5204 334.4796 334.4785 334.496 334.5831 334.6747 334.7195 334.8602 335.0041 335.0782 335.1699 335.4217 335.6125 335.8934 336.0973 336.1572 336.1623 336.3342 336.3634 336.3549 336.3548 336.3543 336.3532 336.3527 336.3521 336.3521 336.3496 336.3454 336.3496 336.3423 336.4104 336.4222 336.3407 336.3642 336.4511 336.4457 336.4393 336.4415 336.4187 336.3355 336.311 335.6518 335.3795 335.8541 336.3055 336.4456 336.5547 336.6112 336.6505 336.7358 336.8835 337.125 337.1293 337.41 337.4413 337.5834 337.7285 337.6912 337.7927 337.8537 337.7529 337.7035 337.6966 337.7682 337.7962 337.8722 337.8839 337.8383 337.8864 337.8973 337.9016 337.9045 337.906 337.9067 337.9328 338.028 338.0233 338.074 338.1543 338.221 338.298 338.399 338.4401 338.5197 338.5938 338.5946 338.6137 338.6136 
334.6615 334.5272 334.2836 334.101 334.0063 333.9651 333.9637 333.9807 334.0678 334.1583 334.2094 334.2984 334.3799 334.4586 334.5485 334.8021 334.9265 335.1185 335.4909 335.9467 336.0548 336.2291 336.2589 336.2519 336.2515 336.2509 336.25 336.2495 336.2499 336.2531 336.2139 336.1544 336.2495 336.2407 336.2973 336.3063 336.2757 336.3551 336.3593 336.3531 336.296 336.2428 336.215 336.1354 336.1235 335.4208 335.2529 335.8432 336.2007 336.2969 336.2697 336.3648 336.6505 336.7358 336.8835 337.125 337.1293 337.1917 337.2896 337.4342 337.4629 337.3803 337.4161 337.4846 337.4774 337.4887 337.4984 337.5072 337.5725 337.6445 337.6884 337.6621 337.5876 337.6774 337.6818 337.6783 337.6902 337.7094 337.7696 337.8749 337.9194 337.9626 338.005 338.0288 338.0904 338.248 338.2183 338.2892 338.3858 338.4022 338.4783 338.46 
334.0709 334.039 333.8559 333.6571 333.5982 333.5495 333.5542 333.5487 333.5536 333.7167 333.8072 333.8383 333.8619 333.9297 333.9218 333.9725 334.0409 334.1844 334.472 334.9442 335.5979 336.1293 336.165 336.1582 336.1616 336.1609 336.1577 336.1589 336.1435 336.0705 335.998 336.0004 336.0979 336.1445 336.1342 336.1703 336.2717 336.3363 336.3528 336.2777 336.242 336.219 336.1191 335.9974 335.5236 334.8849 335.0677 335.8432 336.2007 336.2969 336.2697 336.3648 336.455 336.58 336.7853 337.0126 336.8792 336.8928 337.0441 337.0977 337.0657 337.0707 337.1445 337.1729 337.1684 337.2238 337.2849 337.3449 337.3991 337.3929 337.3723 337.3533 337.3642 337.453 337.4055 337.4322 337.4987 337.4813 337.487 337.6639 337.7632 337.7899 337.8171 337.898 337.9264 338.0011 338.0505 338.1279 338.1898 338.2258 338.2746 338.3162 
333.5913 333.4317 333.3459 333.1699 333.1499 333.0967 333.071 333.1471 333.1431 333.2023 333.2934 333.3312 333.3214 333.316 333.3136 333.3055 333.2995 333.2832 333.289 333.322 333.5248 335.5904 335.8425 335.8549 335.9272 335.9314 335.8052 335.7603 335.5492 335.37 335.4156 335.4727 335.7404 335.9347 336.0197 336.0623 336.1263 336.1426 336.2472 336.1869 336.1485 336.1154 336.1191 335.9974 335.5236 334.8849 335.0677 335.896 336.155 336.0688 336.0965 336.1863 336.3335 336.5097 336.6597 336.8044 336.8942 336.7973 336.7823 336.8158 336.7882 336.763 336.8311 336.8765 336.9277 337.0144 337.0679 337.0809 337.1537 337.2023 337.1631 337.0979 337.0921 337.1563 337.1666 337.2206 337.2658 337.2803 337.2898 337.4602 337.5238 337.5576 337.6104 337.6929 337.7416 337.8562 337.9031 337.9565 338.0343 338.0821 338.1184 338.1752 
333.2958 333.1058 332.9685 332.9513 332.9503 332.9517 332.952 332.9485 332.9478 332.9433 332.9379 332.9349 332.9342 332.9331 332.9321 332.9302 332.9293 332.9286 332.9261 332.9212 332.8246 332.7386 332.9944 333.3156 333.4608 333.5804 333.3397 333.0734 333.1342 333.7443 334.5077 334.942 335.3229 335.5051 335.6962 335.8363 336.1263 336.1426 336.2472 336.1869 336.1485 336.1154 335.9696 335.6955 334.98 334.5125 335.0177 335.9719 336.1598 336.0739 336.0565 336.1633 336.3475 336.4683 336.5376 336.6264 336.8446 336.8513 336.6578 336.4661 336.5531 336.481 336.5263 336.6047 336.713 336.7917 336.819 336.9167 336.9626 336.9913 336.9792 336.9364 336.8918 336.8882 336.9104 336.9528 337.011 337.0786 337.0858 337.2585 337.2661 337.3084 337.4123 337.4794 337.5148 337.6528 337.7272 337.8512 337.9238 337.9238 337.9654 337.9883 
333.0113 332.9512 332.9566 332.8849 332.8589 332.8539 332.8492 332.8487 332.8488 332.8614 332.8611 332.8611 332.8611 332.8611 332.8611 332.8611 332.8611 332.8611 332.8611 332.8611 332.8607 332.9203 332.9357 332.903 332.8897 332.8779 332.8942 332.9283 332.9459 333.0976 333.6931 334.942 335.3229 335.5051 335.6962 335.8363 335.9203 336.0273 336.1224 336.1293 336.0901 335.9546 335.7401 335.4406 334.657 334.2293 334.8607 335.979 336.1633 336.0745 336.0594 336.1523 336.2881 336.3797 336.4621 336.5565 336.7606 336.6847 336.5814 336.4489 336.2706 336.2465 336.2556 336.3313 336.4874 336.654 336.7719 336.8343 336.7888 336.783 336.7398 336.6695 336.6798 336.6731 336.6928 336.7364 336.8137 336.8726 336.8767 337.0515 337.1005 337.1342 337.1937 337.2839 337.3799 337.5091 337.5356 337.6626 337.7794 337.7736 337.8075 337.8867 
332.9557 332.9372 332.8595 332.8519 332.8603 332.8106 332.7596 332.7603 332.7651 332.856 332.8506 332.8504 332.85 332.8496 332.8493 332.8485 332.8483 332.8478 332.8475 332.8471 332.8457 332.8396 332.8362 332.8351 332.8397 332.858 332.8942 332.9283 332.9459 333.0976 333.6931 334.2487 334.8885 335.1563 335.3826 335.5154 335.6198 335.7902 335.8875 335.8906 335.8451 335.6747 335.382 335.0164 334.3434 334.05 334.8019 335.9705 336.1399 336.0685 336.0471 336.1179 336.2739 336.4303 336.5045 336.5615 336.7541 336.6556 336.4199 336.2285 336.097 336.0549 336.0991 336.2307 336.3911 336.5728 336.7382 336.739 336.6452 336.5924 336.5395 336.4596 336.4362 336.4697 336.5412 336.5751 336.6009 336.6799 336.7155 336.8398 336.937 336.9919 337.0439 337.1199 337.1639 337.3013 337.3275 337.4467 337.5849 337.621 337.6551 337.7319 
332.9232 332.8561 332.8445 332.7427 332.7432 332.7464 332.75 332.7497 332.7492 332.7415 332.7414 332.7409 332.7404 332.74 332.7395 332.7379 332.737 332.7365 332.736 332.735 332.8457 332.8396 332.8362 332.8351 332.8397 332.858 332.8597 332.9106 332.9352 333.0545 333.393 333.7849 334.4813 334.7631 335.0312 335.2158 335.3095 335.4737 335.5726 335.5649 335.4624 335.2449 334.968 334.6433 334.1328 333.8266 334.7064 335.997 336.0648 336.0469 335.9926 336.1806 336.3469 336.4711 336.5395 336.5632 336.6948 336.5697 336.282 336.078 336.0579 336.0624 336.1237 336.1978 336.3179 336.5016 336.6178 336.619 336.5606 336.4399 336.327 336.2327 336.1683 336.2641 336.3289 336.3641 336.3886 336.4879 336.5721 336.6429 336.7134 336.8047 336.8959 336.9685 337.0175 337.0998 337.1537 337.2757 337.3926 337.4716 337.508 337.5258 
332.8519 332.8335 332.7605 332.6831 332.6592 332.6611 332.6616 332.6541 332.6396 332.638 332.6374 332.637 332.6365 332.636 332.6344 332.7379 332.737 332.7365 332.736 332.735 332.7523 332.7617 332.761 332.7596 332.7778 332.8409 332.8386 332.8409 332.9002 332.9948 333.1695 333.5122 334.161 334.4152 334.6645 334.8694 335.0037 335.1682 335.2728 335.1909 335.0401 334.83 334.5657 334.3159 333.9634 333.6611 334.4909 335.8501 336.1176 336.0415 335.9452 336.1917 336.3104 336.3823 336.4703 336.5271 336.5252 336.4245 336.1971 336.0574 336.0609 336.0618 336.1135 336.2512 336.3921 336.476 336.5213 336.5246 336.4642 336.3099 336.1626 336.0732 336.0046 336.0937 336.1374 336.1832 336.2236 336.2707 336.3594 336.4994 336.5673 336.6561 336.7442 336.8166 336.8595 337.003 337.0328 337.0877 337.1726 337.2638 337.3496 337.3852 
332.8241 332.7531 332.7403 332.6437 332.6451 332.6453 332.6504 332.6319 332.5645 332.5611 332.6374 332.637 332.6365 332.636 332.6344 332.6484 332.6612 332.6611 332.6611 332.6606 332.7241 332.7462 332.7397 332.739 332.7352 332.7318 332.7594 332.8169 332.9058 332.9235 333.0035 333.3058 333.7903 333.9852 334.1897 334.448 334.6955 334.8341 334.9458 334.8004 334.6373 334.4542 334.1866 333.9716 333.8235 333.597 333.9393 334.9995 335.7788 335.7256 335.9565 336.1671 336.2647 336.3562 336.4863 336.4874 336.3951 336.3159 336.1689 336.0589 336.0608 336.06 336.1315 336.3765 336.5475 336.4808 336.3683 336.3688 336.3434 336.2089 336.0825 336.0383 335.9663 335.9971 336.0063 336.0216 336.0638 336.1233 336.2079 336.323 336.4123 336.4962 336.5831 336.661 336.7074 336.8172 336.8775 336.9394 337.0339 337.1122 337.1404 337.2285 
332.8344 332.743 332.6581 332.5803 332.5587 332.6453 332.6504 332.6319 332.5645 332.5611 332.5611 332.5611 332.5611 332.5611 332.5604 332.6133 332.6471 332.6407 332.64 332.6383 332.6303 332.6259 332.6418 332.6612 332.6605 332.6649 332.7544 332.8281 332.8609 332.8814 332.9846 333.1309 333.5305 333.7449 333.9634 334.1624 334.3356 334.4553 334.5802 334.4364 334.3181 334.1628 333.938 333.7769 333.6061 333.4416 333.5739 334.2059 334.8645 335.1138 335.9571 336.1363 336.1863 336.3014 336.497 336.5127 336.3077 336.2597 336.2021 336.0847 336.0615 336.0847 336.2263 336.4616 336.5919 336.4556 336.201 336.1903 336.2169 336.1333 336.0356 335.9856 335.9098 335.9095 335.9038 335.9275 335.9745 336.0125 336.0435 336.1729 336.2598 336.3448 336.433 336.5075 336.5441 336.6683 336.7576 336.8534 336.921 336.9442 336.9997 337.0997 
332.8344 332.743 332.6581 332.5803 332.5587 332.5463 332.5327 332.5359 332.5423 332.5419 332.5415 332.5412 332.5408 332.5403 332.5399 332.532 332.5274 332.5259 332.5333 332.5577 332.561 332.5595 332.595 332.636 332.6398 332.6601 332.7354 332.8111 332.8427 332.891 332.9756 333.067 333.3705 333.5264 333.7255 333.8894 333.9924 334.1472 334.3054 334.2003 334.0691 333.9109 333.7449 333.6115 333.4409 333.2987 333.4057 333.8745 334.4058 334.8558 335.8806 336.1271 336.1973 336.3068 336.4821 336.5088 336.2735 336.2215 336.2634 336.1733 336.0525 336.1899 336.3548 336.4915 336.5016 336.3418 336.0996 336.0933 336.1525 336.124 336.0247 335.9359 335.8593 335.8034 335.7932 335.8494 335.9117 335.9128 335.9585 336.0741 336.162 336.2462 336.3402 336.4071 336.4038 336.5721 336.667 336.7225 336.7466 336.8105 336.8942 336.9734 
332.8176 332.7315 332.6584 332.5386 332.5456 332.5065 332.4438 332.4295 332.4295 332.429 332.4285 332.428 332.4275 332.4271 332.4251 332.4456 332.4614 332.4597 332.4766 332.5338 332.531 332.5292 332.5434 332.5602 332.5711 332.6288 332.7137 332.7401 332.7994 332.8971 332.9693 333.0378 333.3246 333.4293 333.5064 333.6205 333.7795 333.8639 334.0669 333.9466 333.807 333.7121 333.5854 333.5093 333.3495 333.1635 333.2337 333.6855 334.1935 335.203 335.7377 336.0781 336.2004 336.329 336.5189 336.4376 336.3206 336.231 336.2423 336.2563 336.1795 336.2608 336.3719 336.4293 336.3861 336.2529 336.0544 335.9933 336.0672 336.0965 336.0343 335.9312 335.7959 335.6877 335.7353 335.7878 335.7961 335.8139 335.8983 335.9664 336.0591 336.1525 336.2184 336.2414 336.2995 336.4797 336.5221 336.5509 336.6202 336.7127 336.7903 336.8582 
332.718 332.6612 332.6559 332.4803 332.4582 332.4532 332.4133 332.3612 332.3611 332.3611 332.3611 332.3611 332.3611 332.3611 332.3603 332.4077 332.4375 332.4305 332.4264 332.4246 332.4617 332.4598 332.4891 332.545 332.5619 332.563 332.6447 332.7155 332.8085 332.9014 332.9598 332.9716 333.3206 333.3874 333.4247 333.553 333.7117 333.7961 333.9856 333.8952 333.7449 333.6732 333.5832 333.4588 333.2628 333.0795 333.0376 333.3435 333.9338 335.1501 335.6843 336.0523 336.2029 336.3314 336.5189 336.3393 336.2407 336.1475 336.1125 336.1683 336.2222 336.2083 336.272 336.3186 336.2784 336.1775 336.0605 335.961 336.0307 336.0661 336.0469 335.9299 335.7548 335.6611 335.6902 335.6967 335.7117 335.7708 335.8028 335.8812 335.9532 336.0107 336.0373 336.1074 336.1976 336.3206 336.3571 336.4329 336.5216 336.6098 336.6939 336.7562 
332.7295 332.6577 332.634 332.4893 332.4455 332.399 332.3581 332.3588 332.3309 332.3316 332.3312 332.3306 332.3302 332.3297 332.3289 332.3203 332.3379 332.3615 332.3604 332.3674 332.4291 332.4222 332.4359 332.4792 332.5347 332.5607 332.6297 332.723 332.8104 332.8839 332.9218 332.9719 333.2835 333.3845 333.4625 333.5848 333.7462 333.8319 333.9855 333.9046 333.7734 333.6894 333.5986 333.465 333.1695 332.9798 332.8843 333.1509 333.8404 335.1464 335.6853 336.0495 336.2097 336.3004 336.4128 336.2511 336.0914 336.0071 336.0141 336.0713 336.1049 336.0998 336.1673 336.2211 336.1803 336.0821 335.9907 335.8975 335.923 335.9835 335.9896 335.8829 335.7592 335.5923 335.5962 335.6259 335.6813 335.6959 335.695 335.8523 335.8829 335.9247 335.9715 336.0096 336.0892 336.1656 336.2458 336.3339 336.4185 336.507 336.5842 336.65 
332.7386 332.6472 332.558 332.4904 332.399 332.3591 332.3586 332.3201 332.2606 332.261 332.261 332.261 332.261 332.261 332.261 332.2598 332.2914 332.3285 332.3241 332.3213 332.3483 332.3606 332.3839 332.4338 332.4702 332.5197 332.6339 332.7214 332.8165 332.8616 332.8714 332.9642 333.2242 333.322 333.3979 333.5005 333.6301 333.7128 333.7576 333.7212 333.7175 333.6795 333.5472 333.4639 333.119 332.8987 332.8011 333.1306 333.8381 335.1281 335.7327 336.0822 336.212 336.2687 336.307 336.1571 336.0639 336.003 335.9681 336.008 336.0032 335.9973 336.075 336.0838 336.0212 335.9958 335.9592 335.8106 335.7902 335.8128 335.8301 335.792 335.6953 335.4994 335.4758 335.5376 335.5971 335.5992 335.6619 335.7664 335.7944 335.8359 335.8948 335.9077 335.9836 336.0515 336.1465 336.2306 336.3156 336.4012 336.5559 336.5796 
332.7067 332.6238 332.4708 332.4345 332.3929 332.3484 332.3069 332.261 332.2618 332.2387 332.2224 332.2246 332.2241 332.2236 332.2225 332.2196 332.2398 332.2614 332.2611 332.2609 332.3014 332.3526 332.3605 332.3729 332.4219 332.4601 332.6361 332.7282 332.7927 332.8258 332.8764 332.9608 333.1692 333.2692 333.3831 333.4819 333.5198 333.5914 333.6433 333.6624 333.669 333.6493 333.5551 333.2867 333.1367 332.8353 332.7252 333.1331 333.8263 335.11 335.7632 336.0981 336.2014 336.2823 336.3151 336.0949 336.0595 336.0151 335.9336 335.8979 335.8995 335.898 335.9225 335.9161 335.8932 335.9023 335.895 335.7172 335.6903 335.6989 335.6761 335.6246 335.5965 335.4912 335.4579 335.4692 335.515 335.5708 335.5976 335.6887 335.6797 335.7271 335.7884 335.7947 335.8851 335.9802 336.0371 336.1282 336.2104 336.289 336.4703 336.4796 
332.6252 332.5497 332.4781 332.3854 332.3609 332.321 332.2586 332.2585 332.2237 332.1774 332.1591 332.1611 332.1611 332.1611 332.1611 332.1596 332.186 332.2225 332.2145 332.2162 332.2593 332.2846 332.3381 332.3608 332.3701 332.4568 332.6385 332.6912 332.7203 332.7797 332.8771 332.9628 333.129 333.2088 333.3245 333.4207 333.4845 333.6129 333.5509 333.5988 333.5782 333.4863 333.4435 333.2848 333.1419 332.8108 332.7311 333.1824 333.8346 335.1212 335.7992 336.1761 336.2429 336.2971 336.3519 336.0731 336.0611 336.0237 335.8927 335.7759 335.7878 335.7975 335.7946 335.7945 335.7954 335.8011 335.7974 335.6072 335.5837 335.607 335.5326 335.4203 335.4795 335.4498 335.4644 335.4233 335.4084 335.4895 335.4968 335.5899 335.6315 335.6764 335.7089 335.7682 335.8704 335.88 335.9242 336.011 336.1234 336.2805 336.381 336.4397 
332.6096 332.5512 332.4276 332.3847 332.3427 332.3005 332.2558 332.2125 332.1607 332.1611 332.1611 332.1611 332.1611 332.1611 332.1611 332.1611 332.1611 332.1605 332.1658 332.2106 332.2616 332.2835 332.3304 332.3748 332.4293 332.5106 332.6352 332.688 332.7553 332.8293 332.8755 332.9611 333.1328 333.2187 333.3008 333.3874 333.4851 333.5538 333.4271 333.4196 333.4408 333.3861 333.2968 333.2769 333.1649 332.7825 332.7133 333.2143 333.8375 335.1189 335.817 336.2204 336.2623 336.2741 336.2818 336.0788 336.0609 336.0202 335.9167 335.8215 335.7606 335.6915 335.6938 335.6982 335.7038 335.6803 335.6188 335.5832 335.5239 335.4936 335.4522 335.3677 335.3865 335.3146 335.3511 335.3853 335.3727 335.3827 335.3849 335.4796 335.5387 335.5833 335.6051 335.682 335.7547 335.8331 335.9126 335.9983 336.0876 336.1882 336.2809 336.3467 
332.5518 332.5142 332.3674 332.3329 332.2876 332.2438 332.2008 332.1612 332.1276 332.1133 332.1159 332.1152 332.1147 332.1142 332.1109 332.1466 332.1626 332.1602 332.1707 332.2196 332.2612 332.3288 332.3621 332.3881 332.4893 332.5591 332.6287 332.7226 332.8204 332.8617 332.8755 332.9595 333.1324 333.217 333.31 333.3857 333.4078 333.4018 333.3324 333.3013 333.2894 333.2178 333.1294 333.1423 333.1065 332.6641 332.5872 333.2156 333.833 335.1783 335.8409 336.2143 336.2638 336.2624 336.2496 336.0766 336.0609 336.0242 335.9034 335.7676 335.6784 335.5858 335.5985 335.5455 335.5359 335.5815 335.4952 335.4343 335.3875 335.3884 335.3599 335.2871 335.2855 335.2687 335.2767 335.2883 335.2794 335.2893 335.3615 335.4424 335.4757 335.517 335.5694 335.5841 335.7493 335.8354 335.9209 336.0061 336.0952 336.1689 336.1738 336.2476 
332.4991 332.4059 332.3254 332.2787 332.2375 332.1894 332.159 332.1602 332.0676 332.0604 332.0611 332.0611 332.0611 332.0611 332.0591 332.0887 332.1087 332.1286 332.1624 332.1612 332.2477 332.288 332.327 332.3925 332.4693 332.5055 332.6319 332.7234 332.7818 332.8157 332.8742 332.9608 333.14 333.2291 333.2912 333.3067 333.3015 333.3035 333.2345 333.1646 333.0901 333.0174 333.0046 332.9646 332.8018 332.4191 332.5094 333.2188 333.8292 335.21 335.8596 336.1647 336.2247 336.2649 336.2491 336.1406 336.0938 336.0215 335.8937 335.7384 335.6613 335.4973 335.4823 335.4836 335.4453 335.3955 335.3897 335.3101 335.3323 335.3452 335.2494 335.1725 335.1888 335.2095 335.1694 335.1694 335.1989 335.2711 335.281 335.3487 335.3764 335.4087 335.5067 335.5662 335.6498 335.7385 335.823 335.9102 336.0055 336.0811 336.0734 336.0729 
332.4074 332.3571 332.2722 332.2292 332.1828 332.1609 332.1546 332.1071 332.0624 332.031 332.0054 332.009 332.0085 332.0065 332.0508 332.062 332.0598 332.0683 332.1187 332.1597 332.236 332.261 332.3 332.4062 332.4614 332.4651 332.6395 332.7334 332.7609 332.781 332.878 332.9645 333.0684 333.1672 333.2086 333.1996 333.1978 333.1928 333.1269 333.033 332.9476 332.8725 332.8312 332.6949 332.4973 332.2273 332.4552 333.2187 333.8292 335.1364 335.8342 336.1741 336.1731 336.2072 336.2579 336.163 336.1097 336.0191 335.9002 335.7249 335.5765 335.4706 335.4178 335.3822 335.3852 335.3555 335.2826 335.1703 335.2461 335.2451 335.1716 335.1522 335.0787 335.1446 335.1632 335.1605 335.1689 335.1771 335.251 335.2689 335.3229 335.3687 335.3906 335.4792 335.6472 335.7325 335.8241 335.8749 335.8704 335.8894 335.9759 335.9636 
332.2801 332.3105 332.2134 332.1841 332.1308 332.1113 332.1064 332.0575 332.0072 331.9745 331.9596 331.9611 331.9611 331.9607 331.9939 332.0013 332.033 332.0618 332.0679 332.104 332.1918 332.2409 332.2806 332.3262 332.4085 332.4727 332.5883 332.651 332.7232 332.7931 332.8727 332.8975 332.9802 333.0515 333.1016 333.085 333.0973 333.1597 333.096 333.0106 332.8888 332.7497 332.6761 332.5168 332.3642 332.1101 332.3864 333.2225 333.8166 335.1008 335.7231 336.038 336.1194 336.1764 336.1906 336.1011 336.0744 336.0354 335.908 335.7216 335.5579 335.3991 335.3109 335.2719 335.2895 335.266 335.1792 335.1628 335.1761 335.1813 335.1432 335.0768 335.0645 335.0751 335.0787 335.0779 335.0755 335.0669 335.154 335.2435 335.267 335.2998 335.3943 335.4639 335.5476 335.6373 335.7311 335.7795 335.7695 335.7668 335.8477 335.8648 
332.1158 332.1511 332.1064 332.1204 332.096 332.0391 332.0082 332.0068 331.9603 331.9626 331.9366 331.8985 331.9019 331.9003 331.9469 331.9618 331.9806 331.9977 332.0092 332.0632 332.1472 332.1841 332.2178 332.2907 332.3694 332.3992 332.5451 332.6205 332.7146 332.7775 332.8025 332.8621 332.9431 332.9825 333.026 333.062 333.0764 333.1634 333.1032 333.0043 332.9116 332.7927 332.6517 332.4285 332.2635 332.0029 332.3142 333.225 333.8232 335.048 335.5374 335.917 336.103 336.0886 336.0859 336.0822 336.0312 335.9442 335.8525 335.7331 335.5692 335.3943 335.3077 335.2223 335.1753 335.1815 335.169 335.0741 335.0779 335.0844 335.048 334.9698 334.9739 334.9753 334.9716 334.9621 334.9935 335.0588 335.0637 335.1327 335.228 335.2674 335.2896 335.3799 335.4677 335.534 335.5692 335.6046 335.6705 335.6643 335.7369 335.8253 
332.0064 332.0025 332.0089 331.9644 331.9868 331.9842 331.8994 331.8964 331.9013 331.9034 331.8797 331.8602 331.861 331.8609 331.8871 331.8948 331.9278 331.9619 331.9633 331.9965 332.0839 332.1257 332.209 332.2791 332.2997 332.36 332.4835 332.5405 332.6367 332.7204 332.7704 332.8553 332.8915 332.8836 332.9218 333.0171 333.0739 333.0877 333.0693 333.0602 332.9815 332.8044 332.6497 332.3425 332.1527 331.8959 332.244 333.2063 333.7133 334.8268 335.4079 335.7844 335.963 336.0009 335.9933 335.9303 335.8322 335.7904 335.7678 335.6529 335.482 335.3067 335.2166 335.1201 335.0719 335.0614 334.9851 334.9753 334.9748 334.9746 334.9766 334.9521 334.8739 334.8615 334.9202 334.9628 334.9655 334.9668 335.0455 335.0638 335.1191 335.1671 335.1833 335.2766 335.3654 335.4302 335.464 335.4988 335.5627 335.5701 335.7387 335.8239 
331.9131 331.9117 331.9084 331.8281 331.8117 331.8283 331.8162 331.86 331.8611 331.8611 331.8611 331.8611 331.8611 331.8611 331.861 331.861 331.873 331.9184 331.9615 331.9692 332.0602 332.1207 332.1812 332.2071 332.283 332.3649 332.439 332.5269 332.5779 332.6206 332.6919 332.7751 332.786 332.8264 332.872 332.909 332.9874 333.0466 333.0624 333.0634 333.026 332.8936 332.7317 332.3342 332.0829 331.7741 332.2089 333.2798 333.6979 334.6682 335.1588 335.4965 335.6666 335.7408 335.8073 335.7242 335.6887 335.6469 335.5581 335.4694 335.3754 335.1936 335.1678 335.1293 335.0349 334.9733 334.9598 334.8675 334.8719 334.8712 334.871 334.8698 334.8608 334.8612 334.8664 334.8671 334.8596 334.876 334.9657 335.0308 335.0634 335.1001 335.1624 335.1746 335.2617 335.3263 335.3612 335.3893 335.4802 335.5663 335.7377 335.8235 
331.7388 331.7479 331.8085 331.7826 331.7255 331.6832 331.7 331.728 331.7853 331.8072 331.802 331.8021 331.7997 331.7927 331.7914 331.7858 331.8229 331.8738 331.9028 331.9659 332.0469 332.0797 332.1209 332.1721 332.1989 332.2835 332.3774 332.4463 332.4887 332.5092 332.5858 332.6663 332.7479 332.7739 332.8134 332.8727 332.8964 332.9769 333.0384 333.063 333.072 332.9895 332.7488 332.2725 331.9775 331.6595 332.1399 333.3024 333.6933 334.3092 334.7342 335.1376 335.3661 335.4329 335.5076 335.4947 335.4893 335.4948 335.4592 335.363 335.2708 335.1679 335.118 335.0293 334.9378 334.8719 334.8635 334.7601 334.7654 334.7647 334.7653 334.7669 334.7661 334.7641 334.7559 334.8013 334.8616 334.8622 334.8584 334.9284 334.9611 334.9969 335.0603 335.069 335.2421 335.2587 335.3085 335.3598 335.3755 335.4608 335.7138 335.8292 
331.6053 331.5988 331.6844 331.7085 331.6847 331.6608 331.661 331.6608 331.6888 331.6988 331.6964 331.6921 331.7084 331.7578 331.761 331.7605 331.7664 331.808 331.8619 331.89 331.9801 332.0265 332.0701 332.1001 332.1749 332.2621 332.3447 332.3734 332.4145 332.4708 332.4905 332.5758 332.6472 332.7354 332.7806 332.7796 332.7861 332.9546 332.9722 333.0189 333.0658 333.0276 332.825 332.1544 331.9452 331.6111 332.0625 333.2784 333.6092 334.1326 334.4386 334.7626 334.9838 335.1271 335.2013 335.2642 335.2986 335.2412 335.1823 335.1875 335.1731 335.0736 335.022 334.9296 334.8375 334.7654 334.7649 334.7609 334.761 334.7632 334.7356 334.6621 334.659 334.7291 334.7633 334.761 334.7605 334.7572 334.8398 334.8579 334.9096 334.9591 334.979 335.0548 335.1297 335.2265 335.2577 335.2869 335.3807 335.4641 335.7133 335.8284 
331.4441 331.5023 331.5923 331.5988 331.598 331.5999 331.5972 331.5901 331.5869 331.5856 331.5857 331.579 331.6034 331.6906 331.6832 331.7337 331.7606 331.7918 331.8608 331.8611 331.9323 332.0261 332.0612 332.0887 332.1732 332.1772 332.2484 332.3371 332.3752 332.4062 332.4678 332.5517 332.5761 332.6367 332.6809 332.6949 332.7648 332.8495 332.9295 333.0163 333.0654 333.0335 332.8439 332.157 331.816 331.442 331.9922 333.275 333.6057 333.9824 334.1525 334.4405 334.6723 334.7936 334.8149 334.99 335.0514 335.0501 334.9419 334.8759 334.8751 334.8769 334.8206 334.7203 334.6605 334.6632 334.6652 334.5875 334.6102 334.6685 334.661 334.6606 334.6601 334.659 334.6581 334.6579 334.6526 334.6678 334.7598 334.7505 334.8072 334.8545 334.8703 334.9611 335.0569 335.1099 335.2005 335.2908 335.3802 335.4638 335.7198 335.8356 
331.3094 331.4034 331.5025 331.4937 331.4951 331.4866 331.5002 331.5574 331.5611 331.5611 331.5611 331.5608 331.5638 331.5789 331.6433 331.6757 331.7194 331.7731 331.7956 331.8592 331.9359 331.9757 332.0146 332.0787 332.0826 332.1505 332.1715 332.2347 332.2807 332.3007 332.3781 332.4597 332.475 332.5209 332.618 332.6686 332.6797 332.8389 332.9244 333.0197 333.0673 333.016 332.755 332.0633 331.7803 331.3863 331.9071 333.2839 333.5752 333.829 333.9308 334.1081 334.3658 334.4614 334.4078 334.6913 334.6672 334.7246 334.7491 334.6668 334.6649 334.6704 334.6074 334.5556 334.5612 334.5638 334.4757 334.4474 334.5131 334.5648 334.5576 334.557 334.5559 334.5554 334.5549 334.5544 334.5505 334.5677 334.6563 334.7213 334.7632 334.7592 334.7765 334.8608 335.0413 335.0623 335.0973 335.2311 335.3894 335.4906 335.843 335.9486 
331.2141 331.2996 331.3847 331.4001 331.3853 331.4164 331.4832 331.5008 331.4911 331.4912 331.4847 331.5167 331.5643 331.5606 331.5775 331.6385 331.6848 331.717 331.7769 331.7975 331.8871 331.9377 331.9881 331.985 331.9936 332.0872 332.1471 332.1807 332.2198 332.2765 332.2968 332.3837 332.4424 332.4774 332.5134 332.6015 332.6796 332.8503 332.941 332.9803 332.9964 332.9369 332.6579 331.9656 331.6885 331.285 331.8211 333.3051 333.6615 333.5495 333.7347 333.97 334.1108 334.1701 334.1704 334.4169 334.4836 334.414 334.3849 334.4622 334.4622 334.4637 334.402 334.3438 334.3869 334.4425 334.3512 334.3502 334.4088 334.4615 334.4544 334.4537 334.4527 334.4522 334.4514 334.4472 334.4787 334.5515 334.6329 334.6547 334.7037 334.7567 334.7782 334.8661 335.0373 335.1339 335.2204 335.3378 335.516 335.6933 336.0307 336.0644 
331.0989 331.1114 331.1809 331.2721 331.2979 331.2959 331.3062 331.3063 331.3914 331.387 331.3814 331.3829 331.3934 331.4005 331.488 331.4937 331.4901 331.5188 331.5955 331.6024 331.6882 331.7447 331.7947 331.8128 331.8808 331.8862 331.9563 331.9872 332.0236 332.0903 332.0835 332.1597 332.2541 332.2784 332.306 332.4005 332.4862 332.6592 332.7523 332.796 332.7607 332.6581 332.4627 331.7679 331.4803 331.1153 331.7821 333.3954 333.667 333.5146 333.6743 333.8649 333.9686 333.9791 334.0526 334.197 334.3423 334.2806 334.134 334.1837 334.3366 334.2455 334.2519 334.252 334.2549 334.2324 334.2312 334.252 334.305 334.3584 334.3511 334.3506 334.3495 334.3487 334.3457 334.3918 334.4514 334.4588 334.548 334.6142 334.6489 334.6744 334.7709 334.8562 335.0219 335.1778 335.3024 335.4177 335.6049 335.7766 336.042 336.0613 
330.9869 330.9865 331.0844 331.088 331.1393 331.1839 331.1912 331.2637 331.2855 331.2729 331.3148 331.3625 331.3609 331.3635 331.3744 331.3665 331.4107 331.4732 331.4694 331.5569 331.6491 331.6819 331.6674 331.6955 331.7762 331.7665 331.8398 331.8708 331.9063 331.9733 331.9833 332.066 332.1282 332.2242 332.2694 332.2984 332.3713 332.4559 332.4859 332.4867 332.4651 332.3354 332.0591 331.5089 331.3498 331.0117 331.7172 333.3307 333.3966 333.5339 333.6118 333.7538 333.8654 333.8762 333.9527 333.942 334.0786 334.0812 333.9346 333.9631 334.0381 334.0481 334.0492 334.0482 334.0421 334.0602 334.1548 334.1432 334.197 334.2498 334.2485 334.2475 334.2462 334.2391 334.2995 334.3563 334.3409 334.3525 334.4309 334.4931 334.5374 334.5662 334.6465 334.7326 334.8816 335.0487 335.1902 335.342 335.5877 335.7471 335.9841 336.0397 
330.901 330.9668 330.9816 331.0327 331.074 331.1112 331.1788 331.1846 331.171 331.2268 331.2799 331.2822 331.2764 331.2783 331.3623 331.3615 331.3623 331.3966 331.4592 331.4735 331.4716 331.5229 331.6177 331.6765 331.6712 331.7468 331.7686 331.8193 331.8737 331.8651 331.8739 332.0503 332.0703 332.1365 332.1051 331.9765 332.0887 332.1226 332.1332 332.0883 331.9409 331.8115 331.5689 331.3162 331.1381 330.8471 331.6537 333.2074 333.2881 333.4564 333.5691 333.7094 333.7897 333.8596 333.8564 333.848 333.9183 333.8639 333.7637 333.8447 333.8365 333.9058 333.9451 333.9448 333.944 333.9601 334.043 334.043 334.0358 334.0774 334.1495 334.1456 334.1432 334.1365 334.1924 334.2486 334.2422 334.2406 334.2279 334.2898 334.3831 334.4272 334.4418 334.521 334.6429 334.865 335.1902 335.342 335.5877 335.7471 335.9841 336.0397 
330.7952 330.8799 330.8707 330.9382 330.9888 330.9775 331.002 331.0732 331.1397 331.1804 331.1762 331.1658 331.1841 331.2614 331.2764 331.2653 331.307 331.3733 331.3738 331.3644 331.4338 331.4752 331.4656 331.495 331.5667 331.6486 331.6652 331.717 331.7682 331.7875 331.8624 331.874 331.7979 331.81 331.8661 331.8914 331.9426 331.8291 331.8793 331.7772 331.5917 331.4197 331.243 331.0494 331.0081 330.7452 331.5603 333.3087 333.3059 333.3451 333.5282 333.666 333.6799 333.7532 333.7532 333.7511 333.7494 333.7018 333.6411 333.634 333.6401 333.6311 333.6832 333.7879 333.8461 333.8601 333.8678 333.9055 333.9498 333.9871 334.0458 334.0425 334.0404 334.0335 334.0895 334.1468 334.1402 334.1394 334.1336 334.1874 334.2212 334.4272 334.4418 334.521 334.6429 334.865 335.1272 335.2881 335.4505 335.6001 335.7729 335.7948 
330.7725 330.7787 330.8417 330.8763 330.8654 330.8985 330.9657 330.977 331.0741 331.0629 331.1099 331.1634 331.1649 331.1684 331.1616 331.2208 331.273 331.2622 331.2789 331.3632 331.3677 331.3598 331.4012 331.4692 331.4646 331.5409 331.6364 331.671 331.6584 331.691 331.7567 331.5755 331.6193 331.6603 331.7034 331.7217 331.5624 331.5627 331.425 331.3401 331.3357 331.1942 330.9586 330.8775 330.858 330.6534 331.4452 333.2211 333.2895 333.327 333.4134 333.4922 333.582 333.6497 333.6425 333.6442 333.5844 333.5386 333.512 333.4362 333.5153 333.5393 333.5908 333.6818 333.7319 333.7537 333.8507 333.8363 333.8947 333.9516 333.9391 333.9386 333.9377 333.9319 333.9772 334.024 334.1402 334.1394 334.1336 334.1874 334.2212 334.2632 334.3308 334.3673 334.7164 334.7706 334.8887 335.0745 335.2209 335.3076 335.4949 335.5516 
330.6684 330.6769 330.7691 330.826 330.8633 330.8581 330.884 330.9594 331.0369 331.0634 331.0635 331.0626 331.0805 331.1619 331.161 331.1562 331.2041 331.2621 331.2635 331.2639 331.2569 331.3149 331.3702 331.3594 331.3728 331.4658 331.4549 331.5248 331.4974 331.3472 331.3616 331.541 331.5643 331.5689 331.4802 331.3623 331.4515 331.2943 331.1682 331.1462 331.1303 330.9906 330.7581 330.7504 330.756 330.5935 331.4502 333.0949 333.1757 333.3268 333.4158 333.4506 333.4747 333.5237 333.4472 333.4385 333.4422 333.3887 333.3201 333.3287 333.3292 333.4003 333.5 333.5438 333.5639 333.6485 333.7409 333.7298 333.787 333.8434 333.9391 333.9386 333.9377 333.9319 333.9772 334.024 334.0174 334.0186 334.035 334.0369 334.0831 334.1674 334.2516 334.3221 334.4491 334.5472 334.677 334.8425 334.9957 335.0781 335.2409 335.3277 
330.6612 330.6597 330.7395 330.7664 330.8099 330.8638 330.8586 330.8708 330.9649 331.0201 331.0631 331.0611 331.0616 331.0613 331.1313 331.1635 331.1628 331.1628 331.1597 331.2401 331.2629 331.2612 331.259 331.2846 331.3589 331.3611 331.2922 331.248 331.2549 331.2528 331.2627 331.4345 331.4655 331.3469 331.2338 331.2516 331.2571 330.9337 330.8782 330.9609 330.9255 330.8093 330.6555 330.6483 330.6533 330.4821 331.3589 333.0882 333.1807 333.2451 333.2998 333.3524 333.3384 333.3242 333.3293 333.3334 333.2838 333.1888 333.1286 333.1288 333.213 333.3047 333.3887 333.4829 333.5482 333.6485 333.7409 333.7298 333.787 333.8434 333.8366 333.8359 333.8351 333.8352 333.8303 333.8253 333.8208 333.8334 333.9331 333.985 334.0117 334.0388 334.1103 334.0978 334.1746 334.3106 334.407 334.5189 334.6784 334.7618 334.9499 335.0447 
330.6601 330.6614 330.6593 330.7208 330.763 330.7929 330.8591 330.86 330.9338 330.9715 330.959 330.9899 331.0578 331.0614 331.0624 331.0548 331.0989 331.1655 331.1616 331.159 331.153 331.2108 331.2648 331.2651 331.2318 331.1227 331.1603 331.1544 331.1538 331.1503 331.1656 331.2541 331.1117 331.0208 331.0796 331.156 331.1413 330.8069 330.7857 330.8514 330.8216 330.7119 330.5531 330.5453 330.5499 330.3802 331.2731 333.191 333.1966 333.1361 333.1895 333.2395 333.2029 333.1326 333.1324 333.1322 333.1336 333.0833 333.0147 333.0195 333.213 333.3047 333.3887 333.4829 333.5482 333.5635 333.6563 333.6598 333.6947 333.7394 333.734 333.7333 333.7325 333.7321 333.7316 333.7314 333.727 333.7382 333.8347 333.824 333.8148 333.8423 333.8935 333.8917 334.0302 334.0807 334.1144 334.2287 334.3673 334.4521 334.6989 334.821 
330.5845 330.6545 330.6598 330.7185 330.7633 330.7567 330.7772 330.853 330.8621 330.862 330.8552 330.8859 330.961 330.9609 330.9596 331.0125 331.0657 331.0575 331.0571 331.0614 331.1215 331.1663 331.1153 331.0462 331.0494 331.0533 331.0513 331.0509 331.047 331.0764 331.1553 330.9837 330.9321 330.9421 330.9805 331.0324 330.9165 330.6294 330.6423 330.6372 330.645 330.6039 330.4627 330.4417 330.4409 330.3229 331.1938 333.0078 333.0873 333.0432 333.0278 333.0136 333.0171 333.022 333.1324 333.1322 333.1336 333.0833 333.0147 333.0195 333.1331 333.2077 333.2842 333.3688 333.4615 333.5387 333.5977 333.6381 333.6378 333.631 333.6312 333.6307 333.6299 333.6295 333.6292 333.629 333.6245 333.6355 333.7349 333.7276 333.7268 333.7237 333.713 333.724 333.8147 333.839 333.9407 334.0396 334.0854 334.141 334.3837 334.5101 
330.4751 330.5626 330.6624 330.6546 330.7027 330.7618 330.7612 330.7629 330.8293 330.8667 330.8601 330.8598 330.8745 330.9624 330.9582 330.9562 330.9557 330.959 330.9716 331.0594 330.9837 330.9395 330.9508 330.9559 330.95 330.9561 330.9615 330.9586 330.9894 331.0592 331.0153 330.8329 330.8527 330.8607 330.8558 330.82 330.7256 330.5666 330.5346 330.5488 330.5091 330.4363 330.4391 330.3333 330.344 330.2224 330.7686 332.2227 332.7985 333.0432 333.0278 333.0136 333.0171 333.022 333.0195 333.0251 332.9674 332.8624 332.7964 332.8466 333.1305 333.1317 333.1858 333.2939 333.3739 333.4316 333.4578 333.5011 333.5364 333.5288 333.5287 333.5283 333.5274 333.5271 333.5267 333.5265 333.5233 333.5305 333.5952 333.6138 333.6284 333.6236 333.6209 333.6261 333.7173 333.7338 333.813 333.8953 333.8762 333.8702 334.0865 334.1741 
330.4777 330.5556 330.6311 330.6604 330.7007 330.7651 330.7617 330.761 330.761 330.7589 330.7971 330.8623 330.8576 330.8577 330.8613 330.8588 330.8933 330.9639 330.9451 330.8602 330.8611 330.8584 330.8954 330.9362 330.8657 330.9288 330.957 330.9517 330.9572 330.8947 330.7367 330.7479 330.8125 330.8619 330.8268 330.7068 330.555 330.478 330.4392 330.4425 330.4155 330.3532 330.3329 330.2373 330.344 330.2224 330.7686 332.2227 332.8844 332.8897 332.8357 332.7847 332.7877 332.7899 332.8084 332.8132 332.7582 332.6616 332.6389 332.7477 333.0108 333.0399 333.1391 333.2826 333.3422 333.3643 333.4188 333.3987 333.4133 333.4305 333.4262 333.4258 333.4251 333.4247 333.4243 333.424 333.4239 333.4226 333.41 333.4549 333.5091 333.5264 333.5215 333.5189 333.556 333.6514 333.6944 333.6724 333.6756 333.7133 333.842 333.8598 
330.3713 330.4563 330.5582 330.6137 330.6589 330.6835 330.7578 330.76 330.7611 330.761 330.761 330.761 330.7604 330.8349 330.8546 330.8499 330.8522 330.8472 330.8476 330.8521 330.8509 330.8563 330.8613 330.8611 330.8611 330.8611 330.861 330.8491 330.8008 330.7148 330.6621 330.7215 330.746 330.7442 330.7067 330.6077 330.5396 330.4457 330.3914 330.4425 330.4155 330.3532 330.3329 330.2373 330.2367 330.1914 330.3878 331.0746 332.2278 332.4063 332.4632 332.4886 332.4922 332.5079 332.5841 332.5781 332.5355 332.4898 332.5215 332.6088 332.881 333.0214 333.1137 333.1794 333.252 333.3352 333.2408 333.2049 333.251 333.3076 333.3252 333.3239 333.3227 333.3224 333.322 333.3216 333.3212 333.3209 333.3206 333.3104 333.3384 333.3966 333.4244 333.4238 333.4139 333.4448 333.4688 333.4765 333.5237 333.5708 333.642 333.6771 
330.357 330.3662 330.5345 330.5608 330.5991 330.6617 330.6564 330.7409 330.7628 330.761 330.761 330.7611 330.7602 330.7506 330.676 330.6902 330.7549 330.7594 330.7612 330.761 330.7589 330.8065 330.8627 330.8612 330.8611 330.862 330.8672 330.7516 330.6406 330.6715 330.6789 330.6736 330.6723 330.7442 330.7067 330.6077 330.5396 330.4457 330.3914 330.3375 330.3395 330.3253 330.2418 330.165 330.1278 330.0973 330.2033 330.5996 331.4722 331.8164 332.0473 332.2097 332.283 332.3147 332.3374 332.2892 332.2837 332.2961 332.3306 332.4342 332.8185 332.9784 333.0986 333.1327 333.144 333.2237 333.146 333.1198 333.1135 333.1475 333.2248 333.2227 333.2204 333.2201 333.2197 333.2194 333.219 333.2186 333.2179 333.2182 333.2097 333.2273 333.2751 333.2745 333.2692 333.2948 333.3121 333.3293 333.3735 333.3638 333.4012 333.4204 
330.3551 330.4413 330.5351 330.5612 330.5978 330.6533 330.667 330.7578 330.7519 330.7523 330.7516 330.7556 330.7406 330.6601 330.661 330.6587 330.687 330.7546 330.7616 330.761 330.7596 330.8028 330.8518 330.8456 330.8455 330.8376 330.7757 330.6897 330.6406 330.6715 330.6789 330.6736 330.6723 330.6772 330.5975 330.4617 330.4709 330.399 330.3674 330.3258 330.2707 330.2397 330.1587 330.0758 330.0426 329.9635 329.9924 330.3225 330.9418 331.2871 331.5914 331.8278 331.9933 332.0795 332.1742 332.139 332.1114 332.1494 332.2477 332.3773 332.7637 332.865 332.9446 333.0038 333.0456 333.1225 333.0546 332.9946 332.9949 333.0577 333.1264 333.1252 333.1277 333.1273 333.1271 333.1269 333.1266 333.1265 333.1261 333.1258 333.1262 333.1236 333.1183 333.1182 333.1145 333.1508 333.1809 333.1741 333.1686 333.1675 333.1626 333.1596 
330.2679 330.4374 330.5254 330.5639 330.5611 330.5601 330.5698 330.6573 330.6482 330.6425 330.6429 330.6421 330.6426 330.6476 330.6476 330.6468 330.6436 330.6733 330.7446 330.7446 330.7445 330.7386 330.7405 330.8456 330.8455 330.8376 330.7757 330.6897 330.6855 330.7539 330.753 330.7493 330.7562 330.7069 330.6165 330.5685 330.5432 330.4516 330.3991 330.3571 330.3181 330.2258 330.0736 330.0612 330.0136 329.8658 329.8682 330.1702 330.6432 330.9279 331.2003 331.4542 331.6572 331.7626 331.8719 331.929 331.9708 332.0329 332.1659 332.3047 332.5478 332.6507 332.7333 332.8208 332.9299 333.0338 332.8764 332.7939 332.8217 332.9321 332.995 332.9878 332.9379 332.9392 332.9378 332.9366 332.9353 332.9342 332.9318 332.9305 332.9295 332.9282 332.927 332.9258 332.9238 332.9187 332.9145 332.9138 332.9126 332.9105 332.9092 332.908 
330.2755 330.3611 330.4164 330.5124 330.5562 330.5502 330.5459 330.6195 330.5781 330.5333 330.5392 330.5379 330.5396 330.5594 330.5417 330.5376 330.5858 330.6733 330.7446 330.7446 330.7445 330.7386 330.7405 330.7591 330.7556 330.6437 330.638 330.651 330.6368 330.6302 330.632 330.6618 330.6633 330.601 330.5278 330.524 330.4599 330.3767 330.341 330.3028 330.2303 330.1797 330.0787 330.0606 330.0349 329.7763 329.6896 330.1457 330.5698 330.7411 330.9639 331.1723 331.2998 331.4453 331.6643 331.7007 331.732 331.8324 331.9745 332.0998 332.3425 332.4094 332.4698 332.5293 332.6376 332.7185 332.5059 332.5147 332.54 332.5915 332.6959 332.6869 332.6176 332.6178 332.6169 332.6159 332.6149 332.6138 332.6117 332.6107 332.6095 332.6085 332.6076 332.6053 332.6043 332.6033 332.6023 332.6011 332.6001 332.598 332.5969 332.5959 
330.2747 330.3634 330.4197 330.4498 330.4395 330.4389 330.4387 330.4311 330.4326 330.4464 330.461 330.4603 330.5396 330.5594 330.5417 330.5376 330.5858 330.6448 330.6355 330.6513 330.6618 330.6586 330.6844 330.7483 330.7087 330.5568 330.6115 330.6082 330.5596 330.5605 330.5641 330.6417 330.6302 330.5408 330.4579 330.456 330.4299 330.3612 330.3191 330.268 330.2619 330.2516 330.099 330.0698 330.0437 329.7098 329.5287 330.0773 330.5241 330.6543 330.877 331.0844 331.1716 331.2477 331.4408 331.5501 331.6055 331.6301 331.701 331.8543 331.9606 332.0345 332.1296 332.1494 332.1449 332.1311 332.097 332.1204 332.1021 332.1317 332.2828 332.2741 332.2989 332.3146 332.3103 332.3097 332.307 332.3013 332.3055 332.304 332.303 332.3019 332.3009 332.2988 332.2977 332.2966 332.2956 332.2946 332.2935 332.2917 332.2852 332.2809 
330.2743 330.3621 330.3609 330.3429 330.3409 330.3588 330.3614 330.4311 330.4326 330.4464 330.461 330.4603 330.4674 330.5512 330.4807 330.49 330.5519 330.5591 330.561 330.6195 330.6458 330.642 330.6339 330.5886 330.5235 330.539 330.5308 330.5294 330.5349 330.5343 330.5324 330.5544 330.498 330.4326 330.4341 330.4188 330.3621 330.3611 330.364 330.3275 330.2616 330.251 330.2046 330.1392 330.0666 329.6533 329.4252 330.0748 330.4865 330.609 330.7593 330.973 331.1652 331.214 331.2655 331.3558 331.4008 331.4272 331.4391 331.4828 331.477 331.5323 331.5972 331.5678 331.5338 331.5632 331.5606 331.5763 331.5563 331.6305 331.7841 331.824 331.9977 332.0167 332.0032 331.9977 332.0057 332.049 331.993 331.9981 331.9964 331.9952 331.9943 331.9922 331.991 331.9901 331.9889 331.9878 331.9871 331.9758 332.0223 332.0508 
330.2725 330.3456 330.3609 330.3429 330.3409 330.3588 330.3614 330.361 330.3593 330.3991 330.4485 330.443 330.4413 330.4322 330.4387 330.4286 330.4648 330.5431 330.541 330.5303 330.5278 330.5349 330.5026 330.4579 330.4616 330.4308 330.4406 330.4615 330.4611 330.4611 330.461 330.4895 330.4666 330.3921 330.3577 330.3612 330.3611 330.3618 330.3477 330.2971 330.2611 330.2577 330.2682 330.2141 330.1151 329.5589 329.2466 330.0569 330.4128 330.5648 330.6816 330.827 331.0048 331.1189 331.2079 331.1766 331.2175 331.2164 331.0956 331.1026 331.0766 331.0571 330.9938 330.903 330.9061 330.9817 330.9244 330.9526 330.9363 330.9736 331.103 331.2369 331.5428 331.6569 331.6982 331.7034 331.7613 331.7966 331.7092 331.6906 331.698 331.6964 331.6953 331.6933 331.6927 331.687 331.6815 331.6812 331.6782 331.7287 331.7712 331.7815 
330.2725 330.3456 330.3614 330.3134 330.2922 330.3438 330.3415 330.3398 330.3399 330.3348 330.3293 330.33 330.3309 330.3279 330.326 330.3352 330.3803 330.4312 330.4285 330.4511 330.4415 330.4238 330.4288 330.4346 330.4354 330.3692 330.3924 330.4345 330.4285 330.4278 330.4291 330.3733 330.3585 330.3611 330.3615 330.3573 330.3222 330.3306 330.2876 330.2598 330.2564 330.2119 330.2107 330.2376 330.1691 329.5019 329.1263 330.0933 330.4199 330.5229 330.6282 330.7585 330.8787 331.0053 331.1178 331.029 331.0287 331.0467 330.9472 330.8505 330.6621 330.6777 330.6654 330.5599 330.5074 330.5347 330.3824 330.3192 330.3164 330.3804 330.4953 330.7189 331.1649 331.3347 331.4257 331.4728 331.5029 331.4411 331.3982 331.3473 331.3155 331.318 331.3165 331.3131 331.3075 331.3448 331.3797 331.3747 331.3691 331.4507 331.4771 331.4679 
330.2427 330.2601 330.3095 330.356 330.3135 330.2589 330.261 330.261 330.261 330.261 330.2619 330.2496 330.2289 330.2617 330.2593 330.2937 330.3374 330.3252 330.3271 330.397 330.3587 330.3174 330.3204 330.3188 330.3216 330.3619 330.3611 330.3611 330.3611 330.3615 330.357 330.3204 330.3229 330.324 330.3299 330.3169 330.2585 330.2235 330.2409 330.2555 330.2041 330.1541 330.1093 330.1459 330.0724 329.3623 329.0285 330.1435 330.416 330.5234 330.6266 330.7613 330.9155 331.0695 331.0614 331.0524 330.9052 330.7609 330.7443 330.6513 330.3559 330.3737 330.362 330.2337 330.1143 330.1071 330.0328 329.9865 329.9877 330.0168 330.0942 330.352 330.9443 331.0843 331.0943 331.1165 331.111 331.0814 331.0818 331.0216 330.9648 330.9733 330.9787 330.9765 330.9629 331.0239 331.0816 331.0616 331.0649 331.1612 331.1584 331.1522 
330.1608 330.2401 330.2486 330.2611 330.2611 330.2613 330.2592 330.2328 330.2354 330.2358 330.2401 330.2168 330.164 330.2375 330.2338 330.2291 330.2238 330.2211 330.2299 330.2355 330.2072 330.2361 330.2613 330.2606 330.2643 330.3316 330.3274 330.3271 330.3266 330.33 330.3204 330.2386 330.2631 330.24 330.2088 330.2115 330.2191 330.1701 330.1865 330.2016 330.1497 330.1072 330.0605 329.9933 329.7146 328.9842 328.86 330.1392 330.4122 330.5676 330.6705 330.7398 330.8513 331.0204 331.0253 330.9846 330.9199 330.7102 330.4491 330.3774 330.164 330.1396 330.0942 329.9955 329.9565 329.9613 329.9611 329.9611 329.9611 329.9585 329.9789 330.22 330.7933 330.8505 330.8356 330.8387 330.8402 330.7774 330.7713 330.7118 330.6639 330.6604 330.6055 330.5924 330.6376 330.6715 330.7058 330.7778 330.8353 330.8477 330.8995 330.9351 
330.1569 330.1589 330.2048 330.2392 330.2328 330.2359 330.2245 330.1587 330.1346 330.1195 330.1209 330.1226 330.1281 330.1228 330.1227 330.1223 330.1222 330.1198 330.119 330.1621 330.1593 330.184 330.2267 330.2229 330.2213 330.2128 330.2127 330.2123 330.2115 330.2139 330.1673 330.2001 330.2308 330.1971 330.1604 330.161 330.1611 330.1611 330.1619 330.1458 330.0961 330.0608 330.0517 329.8719 329.3804 328.6456 328.7342 330.0818 330.4197 330.5686 330.6349 330.6921 330.7639 330.8161 331.0031 330.86 330.7737 330.7245 330.5182 330.1767 329.9951 329.9913 329.9739 329.9601 329.9611 329.9611 329.9611 329.9611 329.9606 329.9553 330.1102 330.4417 330.6537 330.6412 330.6154 330.5684 330.5709 330.5446 330.4811 330.444 330.3763 330.2472 330.1637 330.2253 330.3183 330.398 330.4313 330.4688 330.5487 330.6054 330.6462 330.6453 
330.1349 330.1612 330.1611 330.1611 330.1611 330.1611 330.1611 330.1404 330.0817 330.0594 330.0611 330.0617 330.0542 330.0178 330.0207 330.0204 330.0164 330.0187 330.0558 330.1221 330.1466 330.1622 330.1611 330.1611 330.1611 330.1611 330.1611 330.1611 330.1619 330.1518 330.1117 330.1099 330.106 330.109 330.1128 330.1121 330.111 330.1104 330.1138 330.0891 330.0596 330.0591 329.8709 329.5856 329.0661 328.3968 328.5937 330.031 330.3707 330.5005 330.6134 330.6812 330.6993 330.7027 330.8391 330.817 330.6904 330.5878 330.5161 330.2715 329.9568 329.9611 329.9611 329.9611 329.9611 329.9611 329.961 329.9547 330.0565 330.3063 330.4853 330.6884 330.4975 330.3775 330.3194 330.2475 330.2507 330.2523 330.2314 330.2364 330.1427 329.9879 329.9822 330.0033 330.0179 330.0818 330.1721 330.2191 330.2432 330.3416 330.33 330.3721 
330.067 330.1353 330.1313 330.1312 330.1308 330.1302 330.1315 330.0757 330.032 330.0258 330.0325 330.0343 330.0273 329.9299 329.9211 329.916 329.9182 329.9733 330.055 330.0597 330.0955 330.1268 330.1219 330.1215 330.121 330.1202 330.1197 330.1192 330.1217 330.1108 330.0605 330.0611 330.0611 330.0611 330.0611 330.0611 330.0611 330.0611 330.0611 330.0611 330.0614 330.0649 329.6085 329.2129 328.7126 328.1393 328.4776 330.0302 330.3304 330.4875 330.6301 330.6627 330.6618 330.6539 330.683 330.6913 330.588 330.4666 330.4061 330.356 329.9548 329.9611 329.9611 329.9611 329.9611 329.9611 329.9591 330.0318 330.1895 330.3719 330.5218 330.5381 330.4365 330.1755 329.9976 330.0023 330.0027 330.0084 330.0112 330.0135 329.9989 329.9448 329.8817 329.8875 329.8784 329.8773 329.9335 330.0063 330.0044 330.0139 330.0717 330.1206 
330.0268 330.0172 330.0171 330.0166 330.0161 330.0156 330.0149 330.0268 329.9938 329.919 329.8734 329.8804 329.883 329.8036 329.7568 329.7979 329.887 329.9724 330.015 330.0153 330.0106 330.0067 330.0064 330.0072 330.0116 330.0113 330.0109 330.0106 330.0099 330.0106 330.015 330.019 330.0214 330.0205 330.0204 330.019 330.0116 330.011 330.0147 330.0176 330.0247 330.0247 329.4048 328.8925 328.4106 327.9289 328.3445 330.0201 330.3428 330.4525 330.5609 330.6071 330.6014 330.5956 330.4678 330.4526 330.3927 330.3264 330.2995 330.2239 329.9675 329.9602 329.9611 329.9611 329.9616 329.9564 329.9334 330.0417 330.1379 330.2287 330.3188 330.3232 330.335 330.1212 329.9546 329.9609 329.9618 329.8938 329.879 329.8864 329.8875 329.8876 329.8591 329.7698 329.8347 329.8634 329.8718 329.8831 329.8822 329.88 329.8849 329.8871 
329.9703 329.9611 329.9611 329.9611 329.9611 329.9611 329.9611 329.9355 329.9084 329.8083 329.6881 329.6626 329.6685 329.6247 329.6217 329.7477 329.9164 329.9654 329.9609 329.9611 329.9611 329.9611 329.9613 329.961 329.9139 329.9158 329.9154 329.9152 329.9149 329.9144 329.9218 329.8784 329.8521 329.856 329.852 329.8611 329.9225 329.9236 329.8842 329.8508 329.8562 329.7905 329.1352 328.5583 328.0721 327.6715 328.1624 330.0116 330.2893 330.3527 330.4469 330.5291 330.5557 330.495 330.3321 330.2477 330.1798 330.1175 330.1185 330.0931 330.0548 329.9945 329.9611 329.9436 329.8874 329.8904 329.8782 329.9415 330.0295 330.1256 330.1859 330.114 330.0616 329.9873 329.9601 329.961 329.9619 329.877 329.7963 329.7714 329.7792 329.7851 329.783 329.7628 329.7776 329.7836 329.7821 329.7792 329.7734 329.7681 329.8296 329.8633 
329.7803 329.8097 329.8366 329.8541 329.8467 329.8444 329.8401 329.8 329.7144 329.6206 329.5517 329.5012 329.4599 329.4573 329.5092 329.6627 329.8004 329.8307 329.8689 329.8692 329.8683 329.8709 329.8552 329.804 329.7569 329.7579 329.7572 329.7563 329.7554 329.7563 329.707 329.6592 329.644 329.6463 329.6435 329.6491 329.6864 329.6912 329.6741 329.6362 329.5667 329.4093 328.7479 328.251 327.8156 327.4614 328.0548 330.0034 330.2574 330.2858 330.3351 330.4375 330.5054 330.4682 330.3121 330.1097 329.9791 329.983 329.9906 329.9923 329.9966 329.9861 329.9375 329.8853 329.856 329.7871 329.7832 329.8354 329.9322 329.9978 330.0065 329.918 329.8739 329.9123 330.0026 330.0293 329.966 329.9564 329.8198 329.7588 329.7347 329.6702 329.6722 329.6791 329.6756 329.6718 329.6663 329.6901 329.7569 329.7628 329.7727 329.7765 
329.2896 329.4111 329.4532 329.4992 329.5166 329.521 329.5628 329.5297 329.4874 329.4105 329.355 329.3593 329.3092 329.2857 329.3651 329.4533 329.515 329.5673 329.6559 329.6552 329.6512 329.6618 329.6299 329.5454 329.5492 329.5482 329.5475 329.5467 329.5457 329.5484 329.4535 329.4326 329.4435 329.4416 329.4411 329.4397 329.4374 329.3905 329.3792 329.3316 329.1729 328.9805 328.3022 327.9226 327.5879 327.2813 327.9376 330.0061 330.1145 330.16 330.2418 330.3026 330.3361 330.3868 330.2187 330.0478 329.9585 329.9373 329.8816 329.8878 329.8887 329.8964 329.8482 329.7876 329.7743 329.6823 329.674 329.7274 329.8344 329.8953 329.8871 329.7924 329.8192 329.9112 330.0104 330.0437 329.9672 329.9609 329.9005 329.7549 329.6568 329.6604 329.6616 329.5889 329.624 329.6636 329.6606 329.6664 329.6745 329.6736 329.6729 329.6726 
