NCOLS 44
NROWS 39
XLLCORNER 735225.31
YLLCORNER 3833696.5
CELLSIZE 10
NODATA_VALUE -9999
96.52174 96.00797 94.99409 93.5209 91.51901 89.39157 86.33479 85.76515 85.54208 84.6602 84.17185 87.32255 99.96676 103.4412 106.522 109.1517 110.863 112.1335 112.2548 112.4477 112.7164 112.9725 113.2368 115.3563 117.3728 118.981 120.4653 121.9121 124.0198 125.3341 126.5519 127.2538 127.0499 126.32 124.8303 123.0254 120.1136 116.1769 114.8837 110.6634 104.3198 101.5113 99.04247 97.11832 
98.01965 97.7375 96.83122 95.38422 93.23907 90.7104 86.94018 85.89497 85.32667 85.04653 87.31335 93.40558 102.4543 106.1616 109.8447 111.7079 112.1673 112.9051 113.2348 113.4614 113.6532 114.2092 115.2507 118.2504 119.7863 121.4881 122.9089 123.8607 124.6812 126.3389 126.6917 126.9761 127.0926 126.8887 126.7564 125.5177 123.5218 119.7562 114.8837 112.9851 106.2235 103.1293 100.3901 98.20865 
99.02067 98.83311 98.25811 97.13967 95.23384 92.68334 87.92881 86.2571 85.49905 86.49289 90.71183 96.49606 103.3347 107.0995 109.9676 111.4439 112.2937 113.3447 113.7741 113.8004 114.3917 115.261 116.0953 119.3342 120.7441 121.9853 123.1265 124.048 124.8346 125.8356 126.1657 126.4994 126.7569 126.9086 127.3856 126.8482 125.3715 122.2634 117.6364 112.9851 107.8994 104.6561 101.7723 99.20566 
99.02067 99.44238 99.08633 98.49728 96.99236 94.4687 89.10246 87.52162 86.94794 88.01731 91.95525 97.03413 103.0421 106.0946 108.5823 110.298 111.5053 112.3693 113.5064 114.2546 114.6387 115.2918 116.6939 119.2809 120.5439 121.6972 122.6226 123.3558 123.9489 124.9849 125.3048 125.6701 126.0737 126.451 126.7642 126.9923 125.7372 123.4369 119.6855 115.1156 107.8994 106.0731 102.9158 99.98875 
99.83073 99.44238 99.67725 99.14505 98.19144 96.1795 93.61578 89.08437 88.32699 89.42082 92.71849 96.71498 102.0141 104.6078 106.9452 108.9516 110.4468 111.392 113.009 114.0134 114.7275 115.37 116.3262 118.7197 119.6951 120.7252 121.772 122.5612 123.0379 123.8681 124.0526 124.2542 124.8594 125.564 125.9811 126.5001 125.6645 123.9636 120.8351 116.6616 109.3646 106.0731 103.962 100.837 
100.6494 100.0972 99.67725 99.43591 98.79527 97.60255 95.85997 91.39911 90.86177 91.64305 93.9778 96.81677 100.9871 103.184 105.4297 107.4771 109.2098 110.5559 112.3217 113.1254 113.8287 114.6699 115.6484 116.6622 118.6557 119.6102 120.5076 121.2979 122.015 122.92 123.1177 123.3893 123.7895 124.3578 124.974 125.9427 125.4782 124.1861 121.5138 117.7745 114.0848 107.3996 103.962 100.837 
101.1446 100.5996 100.0658 99.43591 99.09856 98.33647 97.15392 94.04472 93.43356 93.62301 94.88625 96.55988 97.96957 101.8465 103.9679 106.0659 107.8737 109.2791 111.1404 111.82 112.7072 113.7318 114.748 115.6027 117.392 118.3345 119.1884 120.0047 120.7191 121.8748 122.2902 122.6503 122.9453 123.2373 123.6408 124.8237 124.9014 124.2662 122.1198 118.5691 114.8184 108.3192 104.8799 101.6676 
101.6528 100.9082 100.3871 99.76141 99.09856 98.67436 97.82887 95.53717 94.78442 94.67155 94.99801 95.88351 97.22366 100.5016 102.5644 104.4932 106.2163 107.6713 109.9379 110.6983 111.5414 112.4501 113.3764 114.2968 116.0665 116.9791 117.8904 118.682 119.5193 120.381 120.9616 121.4197 122.0297 122.5349 122.8708 123.6218 123.991 123.8693 122.3485 119.0702 115.1946 108.908 105.5657 102.3452 
101.9552 101.6776 100.7843 100.0877 99.36792 98.67436 98.0884 96.4049 95.54428 95.10197 94.95757 95.49081 96.64912 99.31119 101.1628 102.9471 104.5906 106.0499 107.3347 109.4129 110.2581 111.1014 111.9542 112.8479 114.6752 115.5912 116.5297 117.4188 118.4045 119.3681 119.8788 120.5693 121.1777 121.6023 122.0054 122.7314 123.0634 122.6609 121.2519 118.5056 115.1529 109.4424 106.1041 102.8612 
102.2675 101.9847 101.0316 100.2781 99.56429 98.85016 98.0884 96.4049 95.93795 95.34341 95.12167 95.34447 96.08467 98.32556 99.94898 101.625 103.1055 104.5519 105.9687 107.8747 108.9138 109.8612 110.6769 111.5073 113.3674 114.4171 115.3282 116.6895 117.821 118.3223 119.5618 120.2029 120.5394 120.8212 121.1902 121.5068 121.5573 121.1615 119.8859 117.5014 114.776 109.5824 106.4121 103.2777 
102.6377 102.2518 101.1875 100.4587 99.72155 98.94881 98.18362 97.50548 95.93795 95.51368 95.2758 95.26066 95.62889 97.62453 98.87669 100.3943 101.8077 103.3588 104.8051 106.6712 107.7912 108.7419 109.5524 110.2838 111.1058 113.4267 114.4956 115.648 116.7408 117.603 119.0945 119.6884 120.0924 120.2735 120.268 120.009 119.3739 119.216 118.316 116.1588 113.8282 109.4302 106.4792 103.498 
103.0508 102.4823 101.249 100.6243 99.92703 99.1012 98.31161 97.6794 96.15517 95.51368 95.31342 95.26443 95.43966 96.95692 97.95054 99.25379 100.6747 102.1752 103.6768 106.0913 107.0097 107.8444 108.6741 109.5019 110.4452 112.739 113.7778 114.739 115.8974 117.1149 118.7045 119.1273 119.4965 119.6064 119.3305 118.8414 117.8881 117.4417 116.7106 115.3899 113.6318 111.6636 106.4033 103.5411 
103.5933 102.8908 101.4485 100.7898 100.0614 99.22837 98.42706 97.76237 96.29706 95.64236 95.31342 95.33063 95.4417 95.70811 97.27177 98.36307 99.75735 101.2901 103.0191 105.9519 106.7181 107.4584 108.2684 109.1667 110.1354 111.975 112.8189 114.1587 115.7139 116.9764 118.4936 118.8737 119.0155 118.9464 118.7259 118.2488 116.8855 116.1822 115.4512 114.4922 113.1461 111.3481 106.2925 103.4555 
104.3189 103.5609 101.8977 101.1253 100.3153 99.42236 98.56979 97.86134 96.36317 95.75774 95.39163 95.33063 95.72275 96.05808 97.17851 97.98367 99.32919 101.0303 102.9858 106.4774 107.0172 107.6372 108.3093 108.9702 109.6784 111.2074 112.2929 114.2019 116.0383 117.1774 117.9207 118.7957 118.8495 118.743 118.426 117.926 116.3942 115.5021 114.8297 113.9259 112.5786 110.8124 105.824 102.9757 
105.2411 104.4565 103.5499 101.6066 100.7129 99.7866 98.83392 98.02806 96.54462 95.93999 95.58005 95.51898 95.72275 96.65275 97.78342 98.59433 99.89167 101.6073 103.6706 105.7346 107.9041 108.5984 109.177 109.5799 109.9441 111.2036 112.9167 114.7731 116.4138 117.7016 118.4554 118.9503 118.9418 118.7347 118.3724 117.8784 116.3576 115.0722 114.1615 113.2644 112.0844 110.3707 105.2301 102.0412 
106.3481 105.4982 104.4245 102.1145 101.1392 100.218 99.22456 98.32272 96.75767 96.18612 95.85117 95.84748 96.15521 96.65275 98.7459 99.82924 101.206 103.0236 105.0176 106.7571 109.1824 109.8979 110.5189 110.9442 111.2731 112.3453 113.3972 115.295 117.0702 118.2713 119.034 119.3992 119.2841 119.055 118.6921 118.1818 117.4721 115.4948 114.0032 112.7719 111.6923 109.981 104.303 100.9713 
107.4824 106.604 105.3821 102.6903 101.6051 100.6104 99.59924 98.64727 97.78442 96.12105 96.02016 96.27006 96.57948 97.09993 98.7459 101.1201 102.5477 104.5079 106.4569 107.988 110.424 111.1732 111.8532 112.4648 113.0207 113.4784 114.7401 116.2384 117.755 118.9064 119.6097 119.9764 119.8169 119.5616 119.2234 118.7109 117.91 115.5592 114.0021 112.4155 110.9208 109.2495 103.5222 100.1939 
108.5581 107.7117 106.5231 103.155 101.9568 100.8868 99.7522 98.68128 97.74547 96.08242 96.14954 96.60572 97.05234 97.66717 99.9249 101.1201 104.1616 106.0643 107.9749 109.5801 111.7686 112.6155 113.4027 114.1555 114.879 115.4414 116.251 117.5925 118.8379 119.6551 120.1735 120.617 120.5078 120.2448 119.9413 119.5407 118.7044 115.4939 113.7613 111.8478 110.0398 108.5002 106.5865 100.5308 
109.599 108.6507 107.5099 104.2297 102.5586 101.2018 99.84773 98.56914 97.54227 96.04428 96.31891 96.88313 97.53443 98.46517 99.71777 102.4694 104.1616 107.7593 109.5404 111.0286 113.1848 114.1391 115.135 116.0668 116.9159 117.5821 118.4558 119.601 120.1644 120.2897 120.6072 121.0398 121.2635 120.9356 120.5654 120.1324 119.4548 116.1813 113.3548 110.9779 109.2935 108.169 107.0525 102.8538 
110.7713 109.7539 108.427 105.1696 103.2604 101.6486 100.0709 98.61948 97.5296 96.25262 96.59832 97.19611 98.03374 99.25206 100.6579 103.8163 105.8274 107.7593 110.8127 112.1158 114.401 115.5988 116.9395 118.1409 119.1458 119.9188 120.8681 121.1534 121.5311 121.749 121.7675 121.8097 121.9976 121.8771 121.5007 120.9757 120.2983 116.6982 113.9604 111.782 110.4338 109.5106 108.3625 105.5402 
111.8098 110.6637 109.3281 107.7559 104.0366 102.2703 100.6605 99.15942 97.93465 96.5827 96.90297 97.57557 98.58744 99.95685 101.4615 105.1337 107.1861 109.1441 110.8127 112.1158 114.4233 117.1992 118.7395 120.1718 121.3598 122.152 122.8275 123.0838 123.2194 123.2325 123.2238 123.2438 123.0879 122.9471 122.6585 122.1474 121.3042 120.0227 116.1562 114.2941 112.9641 111.828 110.626 108.0549 
112.7687 111.5532 110.2333 108.6615 105.0068 103.0637 101.3477 99.90346 98.61877 96.90904 97.12194 97.74309 98.92391 100.4792 102.1274 106.0455 108.0309 109.9901 111.6879 113.1036 114.4233 118.7434 120.3631 121.8469 123.0322 123.7502 124.3479 124.5503 124.772 124.791 124.7493 124.7956 124.6705 124.4979 124.2083 123.7349 122.9675 121.8962 119.0532 117.3046 115.7565 114.4481 113.1978 110.6474 
113.7542 112.4268 110.9887 109.3315 105.7295 103.9521 102.2284 100.5023 98.92344 97.72694 97.2205 97.83451 99.11636 100.8876 102.6752 106.442 108.4724 110.4228 112.2125 113.8655 115.4517 118.7434 121.6324 123.0709 124.1529 124.9166 125.423 126.0647 126.4072 126.5778 126.595 126.5912 126.4468 126.2502 125.926 125.394 124.6741 123.8508 121.6091 120.092 118.5961 117.1655 115.7875 113.0355 
114.4435 113.0864 111.6152 109.9533 106.336 104.5458 102.785 101.0059 99.23693 97.90261 97.55902 97.94731 99.27886 101.0949 102.861 106.6606 108.7479 110.7037 112.5551 114.343 116.1145 119.8531 121.6324 123.965 125.0821 126.0072 126.6718 127.6658 128.2245 128.6583 128.7719 128.6719 128.4745 128.2569 127.8854 127.3196 126.5812 125.7443 123.861 122.6989 121.3301 119.8696 118.4009 116.9259 
115.2183 113.6665 112.1293 110.5574 107.1031 105.296 103.4044 101.4596 99.79051 98.82362 98.57026 98.86253 99.75233 101.218 103.0123 104.9401 108.9225 110.7673 112.6172 114.534 116.5497 120.702 122.5734 123.965 125.8403 126.9002 127.7312 129.3562 130.1722 130.7206 130.9501 131.003 130.9712 130.4881 130.0044 129.3907 128.7385 127.9774 126.0062 125.0315 123.873 122.5163 121.0543 119.5329 
116.0928 114.3802 112.7863 111.1694 107.5526 105.7389 103.9745 102.3338 100.9559 100.242 100.3723 100.5951 101.0344 101.9895 103.5565 105.3643 108.942 110.7003 112.6473 114.6596 116.8187 121.3195 123.1303 124.5771 125.8403 127.559 128.5922 130.8066 131.717 132.4798 133.0251 133.3538 133.4466 132.794 132.2822 131.6946 131.0576 130.3173 128.4232 127.5087 126.3863 125.099 123.7301 122.2434 
117.0931 115.1018 113.3024 111.549 109.7859 106.6181 104.7731 103.2672 102.3898 102.2539 102.947 102.9876 103.5858 104.2728 105.0141 106.0605 108.9171 110.6046 112.6322 114.8405 117.1666 119.6087 123.491 125.0027 126.3941 127.559 129.3381 131.8459 132.9019 133.9758 134.7668 135.2289 135.4133 134.8834 134.4849 134.0089 133.4357 132.77 132.0037 130.2576 129.0967 127.8279 126.4666 125.0284 
118.2243 115.9382 113.6776 111.6555 109.896 107.0648 105.7915 105.0732 104.7575 105.1564 106.1123 106.3835 106.762 107.1388 107.1806 107.0731 108.9785 110.5299 112.5507 114.809 117.2042 119.7355 123.7504 125.282 126.7531 128.0846 129.3381 132.626 133.8372 135.0386 135.9295 136.4423 136.6455 136.3291 136.1221 135.8691 135.5144 135.0395 134.476 133.1325 132.0241 130.6882 129.2278 127.6419 
119.1008 116.5985 113.9762 111.6906 109.9759 107.4757 106.7341 106.7872 107.0956 107.6295 108.5032 109.5322 109.7049 109.4042 108.9187 108.363 109.0362 110.3689 112.3429 114.6119 117.0367 119.5503 123.6423 125.3568 126.9788 128.5212 129.9906 131.3764 134.7113 135.8491 136.7488 137.4381 137.7492 137.556 137.3657 137.1655 136.9461 136.6544 136.3167 135.6752 134.7377 133.4858 132.0148 130.2314 
119.8696 116.935 114.1162 111.7562 110.0194 107.8412 108.1836 108.4717 108.5188 108.9184 109.7477 111.2534 111.2868 110.8035 110.1973 109.6029 109.1413 110.0586 111.8787 114.2961 116.8002 119.1464 123.3537 125.2932 127.1508 128.761 130.2954 131.8775 134.7113 136.4733 137.4928 138.2715 138.6672 138.7702 138.6794 138.5157 138.3992 138.1708 137.7975 137.1118 136.5628 135.9417 134.708 132.5814 
120.7462 117.3393 114.1455 111.6429 109.836 108.2465 108.4969 108.9535 109.4867 110.0855 110.7733 112.2583 112.5673 112.2237 111.4345 110.6453 110.0189 109.8792 111.4257 113.7669 116.2457 118.6246 123.009 124.9301 126.8525 128.7712 130.559 132.2108 135.3067 136.4733 138.0684 138.8882 139.4075 139.742 140.0298 139.989 139.7575 139.5288 139.2999 138.7177 138.2384 137.5308 136.4026 134.1545 
121.1616 117.5916 114.0337 111.3022 109.5274 108.3966 108.9397 109.6314 110.2735 111.0386 111.9659 113.4996 113.5973 113.3929 112.8868 112.12 111.2111 109.9223 110.9923 113.1125 115.5763 118.0605 122.72 124.7442 126.799 128.8042 130.7041 132.5415 135.7213 136.959 138.0684 138.8882 140.1201 140.6293 141.3738 141.4155 141.2534 141.1278 141.0045 140.4632 139.9982 139.0211 137.3364 134.6756 
120.8581 117.4063 113.8725 110.9141 109.2049 108.9338 109.8944 110.4931 111.423 112.49 113.4142 114.775 115.1363 115.1552 114.7348 114.0457 113.2111 111.493 111.4036 112.9452 115.9343 118.8586 120.8522 124.6745 126.7123 128.7977 130.8331 132.757 136.0424 137.3865 138.5474 139.4584 140.1201 141.6091 142.5119 142.7076 142.9399 143.0358 142.9345 142.7508 141.683 140.2416 137.9995 134.9523 
119.8212 116.5333 113.2121 110.499 109.2698 109.5305 110.9762 112.0423 113.1518 114.2585 115.3636 117.1647 117.7266 118.144 117.8829 117.2603 116.4782 113.7878 113.7001 115.0205 117.0809 119.0493 120.7504 124.5968 126.7251 128.8785 130.9282 132.8852 136.261 137.6876 138.9722 140.0146 140.8778 141.6091 143.5357 143.9756 144.3406 144.6031 144.7249 144.6402 143.2373 141.1806 138.3484 134.8975 
118.5879 115.3977 112.4761 110.4424 109.9035 110.6317 112.9655 114.1913 115.3378 116.5543 117.7249 118.6714 120.3479 120.9841 121.0409 120.5395 119.655 117.3157 117.2273 117.2102 118.3472 120.0444 121.2073 124.5692 126.7692 128.9377 130.9638 132.8643 134.6821 137.9818 139.4283 140.6549 141.7027 142.5223 143.5357 145.0417 145.5542 146.0089 146.3268 146.4734 144.7287 141.8647 138.2097 134.1413 
118.0755 114.9297 112.4528 111.5097 111.8327 112.8419 115.7087 117.1149 118.4003 119.3933 120.2072 121.0511 122.7351 123.4983 123.6703 123.3099 122.6851 120.2261 120.2422 119.2908 119.0906 119.9766 121.051 124.4812 126.7701 129.023 130.991 132.7858 134.5627 137.9138 139.4391 140.9063 142.1917 143.1449 144.472 145.0417 146.7862 147.3375 147.8283 148.1678 146.4684 142.2595 137.4375 132.8209 
120.3936 116.0515 115.1364 114.8426 114.9183 115.5927 118.5751 120.3744 121.4601 122.1139 122.7465 123.4575 125.0169 125.558 125.6573 125.3329 124.5652 123.4379 121.8406 120.9518 120.0818 120.1425 121.1036 124.4697 126.7566 129.0897 131.1037 132.9031 134.7273 138.2298 139.9764 141.6379 142.9603 143.9333 144.7403 146.1176 146.7862 148.6486 149.1723 149.5222 147.5627 141.8716 136.0565 131.0429 
119.9734 118.7384 119.1825 118.7914 118.412 118.6463 121.0727 123.1299 124.185 124.786 125.4098 126.0502 127.3524 127.6536 127.8145 127.2762 126.2772 125.2745 122.7092 121.3936 120.3974 120.4019 121.2292 124.481 126.9592 129.6074 131.7251 133.2822 134.9091 138.9396 140.9911 142.6332 143.8487 144.8724 145.8145 147.3993 148.1006 148.6486 150.3749 150.5346 147.2679 140.5553 134.2987 129.0894 
120.1204 121.0138 121.5144 121.3823 121.1263 120.988 121.3253 124.7919 126.2284 127.3138 128.197 128.9951 130.2509 130.6436 130.7213 130.1026 129.0214 127.7704 124.3817 122.656 121.1485 120.6086 121.16 122.4456 127.7154 130.7972 133.0519 134.6869 136.2729 140.2703 142.2605 143.6932 144.8401 145.9385 147.0028 148.8962 149.5614 150.0312 150.3749 151.0813 149.6548 138.3915 132.3024 127.1333 
