NCOLS 41
NROWS 57
XLLCORNER 277407.98
YLLCORNER 3857441.5
CELLSIZE 10
NODATA_VALUE -9999
1207.744 1206.717 1211.761 1216.115 1220.644 1221.547 1222.615 1223.544 1225.496 1226.626 1227.813 1228.835 1229.783 1230.95 1233.642 1235.947 1238.912 1241.548 1243.698 1244.835 1244.034 1242.773 1241.578 1240.526 1239.978 1241.233 1240.682 1241.142 1242.114 1243.005 1245.566 1246.599 1247.316 1248.002 1248.409 1248.413 1247.251 1246.661 1246.053 1245.193 1244.386 
1211.37 1209.545 1211.761 1216.115 1219.158 1220.762 1221.735 1222.577 1225.296 1226.736 1228.115 1229.181 1229.823 1231.681 1233.937 1236.838 1239.586 1241.991 1243.954 1246.092 1246.18 1245.724 1244.691 1244.089 1243.649 1243.556 1242.958 1242.413 1242.154 1242.158 1245.172 1246.348 1247.642 1248.703 1249.659 1250.084 1249.775 1249.283 1248.339 1247.118 1246.397 
1215.264 1209.545 1211.675 1215.59 1218.188 1220.123 1220.818 1221.8 1224.751 1226.547 1228.464 1230.089 1230.878 1231.513 1233.341 1236.418 1239.496 1241.928 1243.952 1246.014 1246.478 1246.617 1246.036 1245.736 1245.104 1244.593 1244.352 1244.005 1243.456 1242.882 1244.226 1245.956 1248.219 1249.839 1250.987 1252.025 1252.22 1252.113 1251.507 1250.691 1249.529 
1215.264 1214.077 1213.752 1215.348 1218.289 1219.246 1219.979 1220.993 1224.057 1226.167 1228.599 1230.843 1232.242 1232.931 1233.949 1236.593 1239.747 1242.004 1243.809 1246.004 1246.341 1246.449 1246.632 1246.684 1246.145 1245.715 1245.368 1245.017 1244.637 1244.189 1244.197 1246.167 1249.091 1250.882 1252.353 1254.063 1254.216 1254.376 1254.677 1254.8 1254.155 
1218.323 1217.715 1220.511 1220.026 1219.036 1218.951 1219.401 1221.312 1222.951 1225.371 1228.449 1230.876 1232.562 1235.097 1235.792 1237.296 1239.88 1241.948 1244.913 1245.826 1246.374 1246.667 1246.941 1247.202 1246.912 1246.716 1246.421 1246.08 1245.895 1245.875 1247.047 1248.029 1249.672 1252.227 1254.019 1255.621 1256.126 1256.669 1257.228 1257.659 1257.596 
1220.191 1219.585 1222.407 1222.381 1221.498 1220.45 1219.928 1220.002 1221.63 1224.677 1228.038 1230.266 1232.187 1235.408 1236.745 1238.093 1239.704 1241.477 1244.694 1245.722 1246.484 1246.995 1247.331 1247.672 1247.67 1247.505 1247.278 1247.09 1247.046 1247.857 1249.105 1250.708 1252.129 1253.766 1255.519 1257.144 1257.672 1258.254 1258.694 1258.851 1257.596 
1221.978 1221.865 1225.157 1225.486 1224.637 1223.761 1222.818 1220.45 1221.443 1224.203 1227.363 1229.711 1231.874 1234.714 1236.347 1237.977 1239.569 1241.235 1244.47 1245.663 1246.557 1247.334 1247.905 1247.96 1248.503 1248.31 1248.095 1247.936 1247.89 1248.695 1249.719 1252.4 1255.553 1256.269 1257.25 1258.94 1259.293 1259.387 1259.748 1258.851 1258.91 
1225.524 1226.652 1228.293 1229.71 1230.194 1229.332 1227.583 1224.42 1223.781 1225.144 1228.029 1229.811 1232.507 1233.845 1235.667 1237.498 1239.239 1241.036 1244.292 1245.406 1246.385 1247.682 1248.456 1248.834 1248.76 1249.094 1249.313 1249.083 1248.073 1247.955 1248.913 1250.411 1252.026 1253.872 1255.239 1258.674 1260.245 1260.835 1259.748 1259.92 1259.323 
1227.838 1230.059 1231.781 1232.981 1233.763 1233.42 1231.955 1228.365 1228.261 1229.003 1229.245 1230.097 1231.8 1233.025 1234.806 1236.76 1238.68 1240.657 1243.973 1245.362 1246.566 1247.786 1248.883 1249.667 1248.074 1245.937 1245.97 1246.71 1245.898 1244.633 1246.986 1248.913 1248.107 1247.222 1250.628 1253.819 1256.374 1260.835 1260.274 1260.49 1259.829 
1229.151 1230.722 1232.247 1233.705 1234.948 1235.032 1234.279 1231.891 1231.236 1231.343 1230.725 1230.674 1231.393 1232.224 1233.779 1235.812 1237.889 1240.055 1244.02 1245.214 1246.618 1248.159 1248.689 1249.896 1245.183 1240.511 1239.134 1238.452 1236.689 1236.683 1240.785 1242.369 1240.856 1239.507 1243.093 1247.051 1256.374 1258.493 1260.406 1260.542 1260.04 
1229.841 1231.503 1232.844 1233.981 1234.965 1235.437 1235.068 1234.193 1233.13 1232.308 1231.787 1231.422 1231.307 1231.636 1232.711 1234.453 1236.345 1239.041 1243.513 1244.174 1244.952 1246.185 1247.57 1246.531 1237.84 1231.174 1230.306 1228.224 1226.019 1227.914 1228.96 1228.364 1227.466 1228.333 1243.093 1247.051 1250.219 1252.496 1254.084 1255.071 1254.273 
1231.546 1232.866 1233.645 1234.665 1235.636 1236.225 1236.38 1236.13 1235.274 1234.018 1232.983 1232.278 1231.473 1231.357 1231.769 1233.112 1235.617 1240.298 1241.686 1242.519 1242.426 1241.733 1242.773 1237.346 1227.755 1220.804 1219.791 1217.593 1219.111 1220.962 1220.11 1218.021 1217.261 1228.333 1235.456 1239.634 1242.578 1243.525 1243.753 1246.492 1244.938 
1232.986 1234.136 1234.738 1235.326 1236.021 1236.624 1237.534 1237.859 1237.545 1236.865 1235.852 1234.335 1232.571 1231.833 1231.646 1232.652 1235.493 1238.655 1239.653 1238.806 1235.886 1234.036 1233.587 1227.221 1220.291 1214.262 1210.975 1208.045 1210.858 1212.339 1210.944 1207.693 1217.261 1219.933 1228.084 1230.378 1231.498 1233.474 1236.978 1238.023 1236.24 
1234.166 1234.555 1234.982 1235.376 1235.937 1236.614 1238.479 1239.375 1239.781 1239.936 1239.502 1237.082 1236.169 1234.945 1233.838 1234.211 1235.604 1237.314 1237.279 1235.817 1232.061 1226.808 1222.125 1218.067 1213.166 1206.553 1200.841 1198.458 1201.556 1205.74 1204.459 1207.693 1206.984 1212.522 1221.482 1221.846 1223.483 1227.678 1230.823 1226.999 1226.38 
1234.297 1234.663 1234.997 1235.226 1235.598 1236.258 1238.838 1240.829 1242.303 1242.679 1242.575 1242.635 1240.404 1237.413 1236.132 1235.658 1235.826 1236.23 1235.685 1234.271 1230.892 1223.971 1211.38 1209.178 1207.538 1202.393 1195.251 1189.321 1194.79 1198.173 1204.459 1200.23 1201.484 1206.291 1213.448 1215.071 1218.622 1223.042 1222.915 1217.809 1217.71 
1234.927 1235.412 1235.25 1234.723 1234.053 1234.439 1238.406 1241.343 1243.923 1244.647 1245.033 1244.232 1242.205 1239.441 1237.116 1236.178 1236.001 1235.066 1233.355 1230.398 1226.928 1222.269 1207.866 1200.567 1197.629 1197.981 1191.462 1182.79 1191.074 1198.173 1196.511 1193.185 1195.699 1203.551 1205.183 1208.906 1215.778 1219.82 1218.052 1209.874 1209.781 
1233.944 1233.53 1232.498 1231.74 1231.286 1234.48 1237.168 1240.04 1242.869 1244.866 1245.807 1240.317 1237.782 1236.438 1235.292 1234.476 1234.278 1233.918 1231.519 1226.477 1221.151 1216.996 1203.747 1197.041 1192.156 1189.736 1185.835 1180.379 1191.074 1195.387 1191.862 1184.52 1188.465 1194.448 1198.934 1206.015 1211.545 1212.625 1209.988 1201.259 1201.056 
1227.698 1225.787 1224.033 1223.942 1227.112 1233.994 1236.196 1238.325 1240.927 1243.543 1244.074 1233.516 1231.533 1231.426 1231.369 1230.979 1230.441 1229.61 1227.28 1223.381 1218.18 1211.249 1199.029 1193.328 1187.279 1181.54 1185.835 1180.379 1186.951 1188.205 1184.71 1180.711 1180.578 1188.2 1194.712 1203.079 1208.374 1204.023 1198.269 1189.515 1191.923 
1219.276 1217.93 1217.43 1218.955 1224.043 1233.353 1234.973 1236.797 1238.626 1238.947 1239.058 1227.984 1223.88 1223.643 1223.608 1223.626 1223.425 1223.172 1222.33 1220.159 1216.337 1210.399 1196.243 1189.391 1184.721 1181.54 1178.447 1175.148 1181.911 1185.13 1181.843 1173.736 1172.045 1185.939 1192.252 1199.035 1201.953 1194.259 1182.603 1181.762 1186.188 
1212.182 1211.845 1214.084 1218.845 1223.093 1230.051 1232.72 1234.288 1235.271 1236.296 1236.232 1223.261 1217.843 1216.753 1216.546 1216.719 1217.352 1217.36 1217.254 1216.22 1213.366 1210.101 1196.824 1187.785 1184.721 1179.76 1171.133 1171.02 1177.007 1181.918 1179.143 1170.676 1169.844 1183.858 1189.229 1194.315 1195.476 1188.255 1176.64 1180.081 1185.55 
1206.588 1207.255 1210.774 1216.005 1219.771 1224.88 1229.157 1232.292 1233.954 1235.425 1227.951 1221.077 1214.171 1209.539 1210.125 1210.848 1211.148 1211.129 1211.626 1212.131 1211.693 1207.048 1200.513 1187.785 1180.19 1176.052 1173.285 1167.386 1168.576 1171.884 1172.024 1168.753 1168.264 1178.742 1184.903 1190.005 1190.524 1182.485 1170.257 1175.785 1181.895 
1204.173 1205.016 1207.439 1210.971 1214.663 1220.106 1225.009 1230.356 1232.797 1233.59 1224.984 1217.857 1210.75 1204.5 1199.868 1201.235 1203.82 1204.025 1205.286 1207.978 1210.184 1207.552 1200.513 1190.935 1181.063 1174.67 1170.356 1161.855 1160.073 1164.184 1166.266 1161.696 1166.041 1173.658 1181.185 1186.782 1187.651 1180.456 1166.887 1169.802 1174.694 
1206.327 1206.639 1207.891 1211.248 1216.403 1221.002 1225.501 1229.752 1231.183 1229.908 1219.759 1215.002 1209.21 1202.322 1195.94 1194.061 1194.5 1193.783 1194.279 1197.796 1203.384 1207.552 1202.115 1194.051 1185.302 1178.648 1173.285 1161.721 1157.678 1157.429 1158.364 1156.667 1161.322 1167.622 1175.935 1184.189 1186.197 1179.265 1162.041 1161.856 1166.177 
1212.863 1213.044 1214.214 1217.514 1222.061 1223.116 1225.939 1228.151 1227.708 1226.864 1217.452 1212.193 1206.894 1201.593 1196.653 1186.566 1184.567 1186.038 1188.13 1190.596 1203.384 1205.874 1202.038 1196.271 1188.904 1181.844 1176.44 1164.097 1157.354 1153.584 1152.432 1152.133 1157.7 1162.819 1169.869 1177.87 1182.503 1177.831 1160.755 1156.552 1157.583 
1219.929 1219.974 1220.641 1221.717 1223.368 1224.039 1224.447 1224.383 1224.947 1224.843 1217.011 1209.833 1203.677 1198.599 1193.864 1185.801 1182.601 1181.292 1188.13 1190.596 1194.301 1200.572 1200.242 1197.21 1191.073 1184.194 1173.062 1165.577 1156.684 1149.798 1147.338 1148.286 1154.305 1158.783 1164.749 1171.525 1176.478 1170.594 1163.296 1154.596 1149.673 
1223.455 1223.27 1223.293 1223.311 1224.643 1224.321 1222.797 1222.31 1221.741 1221.677 1216.52 1209.089 1203.049 1197.616 1192.346 1182.445 1179.604 1181.292 1181.782 1183.324 1188.066 1196.341 1198.117 1196.854 1191.906 1185.973 1173.49 1165.78 1157.311 1149.574 1144.668 1145.189 1151.334 1155.161 1160.345 1166.561 1171.308 1169.119 1162.263 1153.08 1145.662 
1224.456 1224.272 1223.911 1223.639 1222.824 1221.178 1219.892 1218.125 1216.205 1215.797 1213.281 1208.303 1203.208 1198.394 1193.555 1182.857 1179.604 1177.866 1176.822 1177.412 1182.324 1191.781 1194.801 1194.746 1191.132 1186.586 1173.916 1165.966 1157.927 1150.65 1145.079 1143.915 1148.096 1151.716 1156.168 1161.311 1165.596 1165.278 1158.382 1151.393 1145.441 
1224.899 1223.953 1224.021 1223.383 1219.31 1215.573 1212.14 1209.305 1206.629 1207.701 1209.821 1208.208 1203.7 1199.181 1194.621 1182.857 1178.592 1174.359 1171.143 1171.585 1182.518 1186.464 1189.685 1190.914 1189.013 1185.994 1174.199 1166.318 1158.303 1151.147 1144.988 1140.24 1142.996 1146.872 1150.85 1155.423 1159.125 1161.938 1155.748 1147.317 1141.293 
1222.457 1221.134 1220.594 1220.613 1213.166 1207.843 1203.66 1199.153 1195.254 1199.394 1204.178 1205.291 1202.249 1198.862 1194.621 1183.815 1178.366 1173.066 1169.737 1169.47 1175.985 1180.035 1184.249 1186.513 1184.945 1182.765 1172.942 1166.304 1158.639 1151.268 1144.237 1134.339 1136.556 1140.797 1144.84 1148.769 1153.591 1159.368 1152.706 1143.248 1137.102 
1218.019 1215.657 1213.678 1212.56 1208.55 1202.406 1196.716 1191.714 1187.654 1193.067 1197.671 1198.936 1198.112 1198.862 1189.977 1184.183 1178.129 1172.02 1167.64 1165.336 1167.572 1171.469 1176.898 1181.151 1181.841 1179.006 1168.949 1164.382 1158.525 1150.637 1143.412 1132.744 1132.863 1135.805 1140.06 1144.615 1149.762 1155.286 1150.589 1142.765 1135.7 
1212.378 1209.461 1206.41 1205.632 1203.195 1197.756 1191.833 1186.016 1181.794 1186.853 1190.837 1192.737 1198.112 1197.876 1190.067 1184.164 1177.854 1171.679 1166.701 1161.269 1160.433 1163.789 1168.039 1172.095 1174.84 1170.536 1164.798 1160.4 1155.72 1148.619 1142.347 1132.751 1131.816 1133.44 1137.527 1143.246 1148.12 1150.621 1147.296 1141.252 1134.899 
1207.611 1204.584 1200.17 1195.716 1196.348 1193.36 1186.21 1180.313 1174.049 1181.375 1190.837 1192.737 1193.897 1194.195 1189.063 1184.628 1178.865 1171.838 1166.591 1161.734 1156.4 1158.01 1161.43 1165.164 1167.894 1167.269 1161.481 1155.267 1149.766 1145.029 1140.481 1132.975 1131.582 1132.736 1136.972 1143.121 1148.224 1145.971 1142.494 1138.038 1133.117 
1200.638 1199.206 1195.321 1187.585 1188.502 1188.029 1183.835 1176.697 1172.502 1181.375 1183.887 1184.583 1185.941 1187.162 1186.143 1185.549 1181.031 1173.402 1167.8 1162.997 1156.073 1154.818 1156.141 1159.298 1162.069 1163.297 1158.904 1152.305 1145.925 1141.249 1138.096 1133.347 1132.529 1133.566 1136.594 1142.921 1143.437 1139.288 1136.326 1133.549 1129.331 
1197.061 1194.654 1189.793 1181.71 1183.179 1185.526 1182.787 1174.833 1172.502 1174.578 1174.664 1175.101 1176.629 1178.307 1182.107 1184.65 1183.446 1176.749 1170.272 1161.503 1156.625 1151.779 1150.415 1153.656 1156.644 1158.923 1155.405 1149.75 1143.794 1136.977 1134.703 1130.585 1129.425 1133.115 1135.86 1139.097 1136.425 1133.154 1130.7 1128.757 1125.81 
1192.44 1190.173 1186.371 1175.008 1175.594 1180.608 1180.28 1174.833 1171.346 1171.395 1168.016 1165.468 1166.77 1168.359 1173.791 1180.769 1183.935 1179.865 1173.211 1164.583 1159.192 1151.539 1146.039 1148.144 1151.064 1152.776 1149.427 1144.982 1140.229 1134.757 1129.784 1126.129 1125.434 1130.337 1135.093 1135.993 1132.088 1128.766 1125.696 1123.639 1122.318 
1186.46 1186.383 1176.811 1169.74 1168.654 1171.907 1180.28 1173.375 1170.195 1169.427 1162.764 1157.878 1159.713 1161 1169.155 1175.029 1178.842 1176.527 1173.499 1167.152 1161.358 1153.538 1145.881 1144.905 1146.24 1148.437 1145.5 1141.412 1137.915 1134.311 1126.305 1123.13 1123.015 1128.106 1134.873 1136.071 1128.338 1124.174 1122.034 1120.783 1120.054 
1184.264 1184.657 1174.264 1167.015 1163.992 1171.907 1173.928 1172.207 1167.437 1165.448 1159.753 1155.754 1154.786 1161.114 1166.727 1171.796 1172.834 1169.18 1168.347 1167.768 1162.727 1155.169 1145.853 1141.944 1143.857 1145.124 1142.125 1137.485 1135.191 1132.046 1124.313 1121.523 1121.506 1126.246 1133.283 1135.713 1126.057 1121.656 1119.588 1118.813 1118.062 
1182.635 1181.94 1171.112 1162.995 1163.992 1166.406 1168.107 1165.94 1161.253 1161.252 1157.019 1151.109 1149.981 1158.827 1164.056 1167.336 1165.746 1161.114 1161.259 1164.487 1162.138 1155.259 1144.948 1137.692 1138.644 1139.915 1137.552 1133.794 1131.115 1127.795 1122.059 1120.83 1121.091 1124.231 1130.303 1130.278 1125.377 1120.848 1117.668 1115.507 1115.158 
1177.532 1173.813 1171.112 1162.995 1157.743 1159.153 1160.472 1158.058 1156.605 1157.017 1153.645 1147.835 1146.1 1156.941 1161.395 1161.642 1157.56 1154.165 1155.081 1160.295 1159.603 1153.462 1143.662 1135.624 1135.199 1136.97 1136.396 1132.997 1128.359 1124.323 1120.171 1119.021 1120.004 1122.864 1125.425 1126.411 1123.575 1120.154 1115.246 1112.976 1112.04 
1174.951 1173.813 1165.762 1160.054 1155.463 1153.732 1153.819 1150.575 1150.564 1150.363 1148.316 1144.752 1144.483 1154.93 1159.297 1158.612 1153.319 1148.979 1152.227 1155.193 1154.939 1149.814 1142.406 1135.394 1133.828 1135.933 1136.322 1133.333 1127.81 1123.144 1118.503 1117.444 1118.856 1120.81 1123.073 1124.027 1122.334 1117.387 1111.41 1110.168 1109.875 
1174.951 1172.689 1165.022 1158.94 1151.313 1146.049 1146.914 1144.671 1145.923 1146.56 1142.539 1137.008 1139.842 1153.216 1157.053 1155.435 1148.153 1142.59 1145.891 1148.357 1148.913 1146.135 1140.231 1135.295 1132.63 1134.296 1135.555 1133.086 1126.853 1120.43 1117.728 1115.55 1115.611 1117.734 1119.023 1119.913 1118.394 1114.529 1110.831 1109.192 1108.287 
1174.502 1169.752 1165.376 1159.907 1152.694 1145.45 1142.832 1140.012 1140.119 1139.198 1135.411 1133.912 1138.84 1151.337 1153.064 1151.632 1145.555 1137.108 1138.443 1141.03 1142.956 1142.547 1138.723 1135.304 1130.22 1130.16 1130.656 1129.556 1126.431 1120.703 1115.674 1111.873 1112.727 1114.14 1113.713 1112.021 1112.832 1112.104 1110.147 1108.567 1108.035 
1171.716 1166.286 1163.406 1160.46 1155.271 1148.001 1141.985 1134.232 1135.44 1134.603 1132.791 1134.514 1146.499 1149.102 1149.498 1148.971 1144.031 1135.861 1133.156 1134.91 1136.523 1137.644 1136.631 1133.789 1125.32 1124.086 1125.057 1126.393 1126.355 1119.454 1113.561 1109.944 1110.247 1110.896 1110.331 1109.194 1109.595 1109.81 1109.174 1108.139 1108.035 
1169.655 1160.745 1158.784 1155.917 1151.462 1148.207 1142.962 1133.229 1132.507 1131.718 1131.458 1134.824 1145.851 1146.593 1145.149 1144.62 1142.245 1137.521 1130.649 1130.176 1131.032 1132.05 1131.953 1125.235 1122.337 1121.868 1123.243 1124.84 1125.194 1119.701 1113.608 1109.531 1108.629 1109.009 1107.968 1107.682 1107.859 1107.939 1107.471 1108.139 1107.303 
1167.928 1153.979 1148.315 1144.805 1143.041 1141.318 1138.19 1132.317 1130.175 1129.659 1130.509 1133.97 1142.401 1141.402 1138.745 1139.249 1138.957 1137.689 1127.571 1124.028 1124.706 1125.863 1126.19 1122.352 1120.772 1121.182 1123.421 1125.068 1125.626 1120.436 1114.006 1109.492 1108.147 1107.483 1106.687 1106.38 1106.203 1105.967 1107.471 1106.777 1106.569 
1168.247 1151.225 1143.157 1138.399 1135.636 1134.222 1132.728 1130.167 1127.792 1126.754 1126.354 1130.959 1137.753 1135.549 1132.842 1133.809 1134.983 1136.146 1127.398 1122.538 1121.475 1121.616 1121.9 1120.271 1119.598 1120.997 1124.425 1127.283 1128.524 1121.4 1114.87 1109.399 1107.658 1107.172 1105.641 1105.135 1104.826 1105.967 1105.664 1105.387 1105.628 
1165.448 1155.205 1147.248 1140.256 1134.455 1132.748 1129.042 1127.02 1125.083 1123.834 1123.174 1125.854 1135.646 1134.152 1129.617 1126.324 1128.412 1129.595 1126.942 1123.91 1121.529 1119.982 1119.149 1118.027 1118.958 1124.697 1131.877 1133.087 1127.086 1123.125 1116.948 1110.606 1108.546 1107.27 1104.996 1104.117 1104.826 1104.513 1104.146 1103.934 1104.321 
1158.559 1158.052 1153.915 1148.797 1142.714 1136.696 1127.459 1123.644 1122.434 1121.588 1120.371 1121.323 1130.348 1131.198 1127.016 1121.865 1121.945 1124.615 1124.699 1123.824 1121.679 1119.163 1117.358 1117.058 1121.002 1128.531 1134.775 1134.838 1127.832 1124.21 1118.54 1112.294 1109.75 1108.241 1104.568 1104.117 1103.549 1103.18 1102.823 1102.493 1102.648 
1152.773 1153.328 1152.349 1150.847 1148.536 1142.182 1128.419 1123.637 1120.897 1119.594 1118.964 1120.083 1123.09 1125.311 1124.694 1122.26 1120.079 1121.358 1121.894 1120.932 1118.693 1116.75 1115.254 1119.229 1125.555 1131.532 1135.925 1134.456 1127.425 1123.998 1119.043 1113.499 1110.392 1108.241 1104.568 1103.382 1102.503 1101.836 1101.45 1100.986 1100.817 
1142.783 1144.462 1146.081 1147.594 1147.598 1144.429 1130.647 1125.936 1122.327 1120.139 1118.672 1117.146 1119.079 1121.299 1122.271 1121.137 1117.626 1116.938 1116.947 1116.204 1114.701 1113.896 1117.677 1123.329 1128.207 1132.918 1135.902 1133.54 1124.534 1120.341 1116.576 1113.53 1110.392 1108.854 1103.916 1102.509 1101.399 1100.425 1099.786 1099.603 1099.276 
1132.506 1135.85 1139.164 1141.442 1142.47 1141.612 1132.928 1128.191 1124.208 1121.46 1117.864 1114.099 1115.514 1116.719 1116.48 1114.855 1113.295 1113.335 1113.191 1112.305 1111.214 1111.744 1120.009 1125.302 1129.638 1133.755 1136.404 1134.339 1123.322 1116.428 1111.005 1113.53 1110.804 1104.795 1102.085 1100.752 1100.481 1099.656 1098.233 1098.219 1097.817 
1130.52 1129.301 1130.794 1134.012 1135.909 1136.13 1133.714 1129.029 1124.693 1121.777 1116.416 1110.802 1111.559 1112.119 1111.838 1110.519 1109.911 1110.194 1110.096 1109.601 1109.34 1111.005 1121.16 1126.44 1131.227 1135.255 1137.221 1135.609 1124.478 1118.275 1111.005 1109.111 1107.634 1100.671 1098.443 1098.824 1099.456 1098.938 1097.783 1096.529 1096.382 
1130.649 1125.812 1123.222 1125.006 1127.174 1130.188 1129.302 1127.131 1125.311 1122.36 1116.585 1109.361 1109.189 1109.173 1108.979 1108.422 1107.557 1107.413 1107.359 1107.134 1107.328 1110.132 1121.816 1127.498 1132.945 1136.522 1137.274 1130.281 1125.438 1118.275 1112.048 1107.957 1104.763 1099.074 1097.484 1097.669 1098.231 1098.019 1096.986 1095.211 1095.014 
1130.898 1126.065 1122.225 1120.28 1119.878 1123.016 1123.715 1123.925 1124.215 1121.779 1116.36 1109.488 1108.391 1107.434 1106.654 1106.373 1105.655 1105.288 1105.047 1104.897 1105.396 1109.945 1122.26 1128.259 1134.078 1137.309 1136.549 1128.583 1125.438 1119.891 1113.828 1109.172 1104.283 1098.329 1096.865 1096.457 1096.698 1096.427 1094.843 1094.24 1093.789 
1131.936 1128.412 1125.181 1122.364 1120.286 1117.861 1117.743 1119.026 1119.111 1117.583 1114.158 1109.234 1107.725 1106.278 1104.861 1104.19 1103.372 1103.053 1102.815 1102.711 1104.435 1111.012 1123.2 1128.694 1133.741 1137.005 1136.714 1128.583 1124.425 1119.547 1114.075 1109.443 1103.259 1097.18 1096.448 1095.686 1095.203 1094.782 1093.417 1092.921 1092.47 
1134.722 1131.394 1128.402 1124.231 1121.094 1114.222 1111.772 1112.015 1112.369 1112.019 1108.964 1106.811 1105.192 1104.009 1102.405 1101.942 1101.055 1100.401 1099.704 1100.774 1105.909 1118.627 1123.706 1128.224 1132.197 1137.005 1136.714 1127.436 1121.779 1116.812 1111.637 1106.838 1101.562 1096.264 1095.595 1094.888 1094.179 1093.333 1092.003 1091.488 1091.078 
1141.73 1136.919 1132.004 1126.276 1122.108 1115.387 1111.522 1109.57 1109.02 1107.824 1106.72 1104.962 1102.702 1101.086 1100.344 1100.232 1099.069 1098.148 1097.56 1099.719 1107.276 1118.891 1123.642 1126.871 1132.197 1135.157 1136.974 1128.604 1121.946 1117.347 1112.308 1107.579 1098.3 1095.986 1094.799 1094.317 1093.335 1092.268 1090.558 1089.982 1089.516 
