NCOLS 88
NROWS 54
XLLCORNER 677881.89
YLLCORNER 4378214.9
CELLSIZE 10
NODATA_VALUE -9999
1169.453 1165.751 1162.384 1155.564 1141.961 1138.255 1134.069 1118.755 1111.004 1105.443 1100.988 1085.703 1081.106 1077.118 1072.237 1062.154 1059.886 1057.698 1055.431 1050.488 1047.141 1044.471 1042.14 1037.33 1033.948 1030.383 1026.751 1019.046 1014.897 1009.86 1004.184 997.9268 997.6918 999.3761 1001.955 1007.177 1009.453 1011.281 1013.01 1015.122 1015.368 1015.497 1015.139 1012.657 1009.93 1006.521 999.324 996.4888 993.4912 989.9564 980.0305 975.3593 968.3416 964.1829 961.1503 961.9794 963.3588 964.7715 970.2363 973.2693 976.1558 979.2876 986.3753 989.7047 992.7242 995.4959 999.1437 1000.401 1001.605 1002.188 1001.643 1001.067 1000.407 999.5416 998.1635 997.4066 996.5232 995.6063 993.843 992.9986 992.0258 991.2667 991.0154 991.405 991.9774 992.4808 993.2358 993.4804 
1167.614 1164.188 1159.987 1152.545 1139.971 1136.352 1131.435 1125.501 1108.26 1103.821 1099.411 1084.855 1079.382 1074.784 1068.848 1056.921 1052.787 1049.652 1047.017 1043.298 1041.637 1039.984 1037.43 1031.378 1028.127 1025.206 1022.008 1014.664 1010.727 1005.523 999.5818 992.5084 992.1059 992.9954 994.8903 1000.493 1003.147 1005.149 1006.726 1008.298 1008.526 1008.569 1008.239 1005.683 1003.317 1000.793 998.2296 993.1619 990.6298 987.1804 977.6053 972.9078 968.3416 960.6866 955.0423 955.9064 957.9346 959.9243 965.0914 968.0757 970.8837 973.6284 979.7691 983.5143 987.1353 989.8795 993.517 994.7417 995.8887 996.4978 996.2552 995.7356 995.1291 994.5916 993.2097 992.3494 991.4067 990.3825 988.0793 986.892 985.6338 984.8193 984.83 985.5226 986.3146 987.1037 988.3647 988.6257 
1165.706 1162.31 1155.184 1147.37 1137.961 1133.701 1128.222 1121.462 1108.26 1102.101 1097.121 1090.676 1077.712 1072.341 1066.737 1052.386 1047.399 1042.333 1039.701 1036.489 1034.103 1031.546 1029.083 1024.33 1021.915 1019.658 1017.073 1010.099 1006.12 1001.414 995.9847 986.2618 984.4231 984.447 985.3072 991.6516 995.5798 998.1381 999.913 1001.822 1002.055 1001.544 1000.678 999.3624 998.0491 996.3449 994.369 990.0527 987.1168 983.407 979.144 969.7706 965.4933 960.6866 950.8711 950.9734 953.1828 955.4819 960.4495 963.2773 966.1414 968.8246 973.9537 976.834 980.2174 983.3122 987.4473 988.4965 989.2891 990.0029 990.6531 990.3098 989.9395 989.6025 988.4447 987.3101 986.1005 984.713 981.5817 980.4193 979.6667 979.2883 979.429 979.982 980.6574 981.3754 983.1342 983.824 
1163.396 1159.456 1151.269 1143.91 1135.598 1131.01 1125.494 1118.338 1106.248 1102.101 1097.121 1088.84 1076.257 1070.761 1065.297 1058.226 1044.001 1038.252 1034.304 1027.489 1025.019 1022.727 1020.842 1017.615 1015.971 1014.191 1011.743 1005.452 1002.136 997.5412 992.4337 981.6489 977.1863 975.7016 976.4374 982.2865 985.1421 988.0984 991.0466 995.0052 995.8572 996.0488 995.7744 994.514 993.4921 992.1034 990.5646 986.6371 983.2896 979.4843 975.33 966.4531 960.9534 954.9437 950.8711 945.3672 947.4797 950.5039 953.3848 958.5768 961.4862 964.4698 969.1901 971.4484 974.0323 976.891 980.9288 982.3273 983.3787 984.1505 984.9629 984.7756 984.4963 984.076 982.5656 981.2131 979.7289 978.207 974.9001 974.2684 974.0002 973.8141 973.8337 974.4362 974.9357 975.4708 977.515 978.5833 
1160.463 1154.802 1148.037 1142.218 1133.491 1128.677 1123.319 1116.349 1105.106 1100.015 1094.738 1088.84 1076.247 1070.187 1064.286 1056.941 1042.944 1037.279 1031.888 1026.992 1020.233 1017.267 1014.638 1011.395 1009.749 1006.96 1004.353 999.8983 996.9602 992.652 988.1971 978.689 974.197 972.2863 972.1983 976.0387 979.0176 981.6919 983.924 987.9688 989.6217 990.4574 990.7994 990.2618 989.4103 988.1618 986.3375 981.5032 978.8124 975.5955 971.1837 961.2949 954.3746 949.5161 946.901 945.3672 939.8067 943.0327 947.2709 953.7023 956.5139 959.4367 962.1453 966.5954 968.5266 970.6741 974.5705 976.2957 977.8463 978.5332 978.9903 979.0428 978.7612 978.0999 976.3171 975.1467 973.9106 972.6739 970.277 969.2513 968.5509 968.1773 967.9484 968.3082 969.0036 969.8796 972.3289 973.7622 
1158.127 1152.214 1146.825 1141.524 1132.288 1127.817 1122.556 1116.252 1104.902 1099.408 1094.435 1089.431 1076.247 1070.916 1064.58 1057.456 1044.002 1038.276 1032.124 1026.645 1018.464 1014.365 1011.27 1008.855 1003.963 1000.469 997.549 995.1948 990.7542 987.7708 984.2424 976.4279 971.0598 969.0822 968.8237 970.9441 973.6434 976.611 979.0749 982.6991 984.0896 984.9354 985.4731 984.9961 983.7936 982.3217 980.4626 976.0315 973.4096 969.4148 964.9326 954.412 949.7768 946.1592 942.7725 939.5057 939.8067 943.0327 940.942 948.1128 951.1526 953.967 956.6331 961.2159 962.9464 964.6846 966.4455 969.9429 971.1729 971.8611 972.5134 972.7388 972.5875 972.0839 971.0077 970.3382 969.3553 968.1683 965.6417 964.1953 963.0558 962.3438 961.5616 961.7645 962.6017 963.5699 966.1757 967.7568 
1156.327 1151.111 1146.369 1141.906 1133.42 1128.837 1124.575 1118.134 1105.898 1101.23 1096.358 1091.307 1077.557 1070.916 1066.581 1059.58 1045.647 1039.692 1033.708 1028.123 1018.615 1014.164 1010.802 1007.404 1000.147 996.7902 992.5591 989.0231 985.4418 983.4153 980.8154 977.8523 967.7339 964.1733 963.3267 964.4365 966.6221 969.5051 972.4955 977.0622 978.0046 978.3835 978.4623 977.4094 976.3931 975.5243 974.3308 969.9494 966.4473 962.741 958.6743 949.7889 945.9248 942.5916 939.5219 935.5314 935.6978 937.6414 940.942 942.6294 945.8251 948.6995 951.4844 956.042 957.6722 959.1793 960.6841 963.6343 964.3107 964.753 965.171 965.86 966.1038 966.3036 966.39 965.901 965.0161 963.6863 960.6221 958.9391 957.4881 956.1465 953.7462 953.4613 954.4261 956.0027 959.3525 961.1046 
1155.813 1150.968 1146.834 1142.951 1134.6 1130.562 1126.849 1120.514 1107.147 1102.935 1098.639 1093.562 1080.347 1073.112 1066.581 1059.58 1047.327 1041.729 1036.167 1030.311 1019.876 1015.149 1011.298 1007.304 999.0352 994.5179 989.7479 986.3354 981.3776 978.974 976.7094 973.6174 964.1885 959.4578 956.8378 956.1927 958.9536 960.7099 963.0179 968.8674 970.3573 970.7925 971.0343 970.7595 970.0165 969.1522 968.1849 963.9643 960.7805 957.0895 953.2296 945.7702 942.358 939.0142 935.589 930.7678 930.175 931.416 934.7466 942.6294 940.7258 943.5799 946.2021 951.0397 952.8096 954.237 955.5194 957.2462 957.7217 958.0756 958.4774 959.2609 959.6088 959.9742 960.2469 959.7579 958.9898 958.0239 956.6591 953.251 951.4648 949.6056 946.0324 945.5753 946.4907 948.1522 951.4892 953.2467 
1156.353 1152.5 1149.069 1145.105 1135.937 1131.839 1128.108 1123.126 1108.689 1104.683 1100.845 1095.926 1083.21 1075.642 1068.943 1062.11 1047.327 1044.052 1038.95 1033.09 1022.132 1017.069 1012.62 1008.302 999.9927 995.0095 990.2543 986.6122 978.0603 975.1025 972.1537 968.3964 959.2977 954.58 950.7761 949.1069 951.9215 954.3245 956.378 958.1066 961.3593 962.132 962.8345 963.7369 963.3079 963.014 962.35 958.5247 955.4272 951.9391 948.3919 941.9396 938.5431 934.7913 930.8812 925.5469 924.6373 925.3278 928.4756 937.0473 940.7258 937.8526 940.6414 945.1011 946.9716 948.687 950.1361 951.3098 951.5625 951.8068 952.0683 952.6755 952.9101 952.828 952.5897 951.9076 951.3914 950.9111 949.8508 946.4447 944.4893 942.5072 940.5486 938.2389 939.1636 941.0615 944.9335 946.5607 
1161.984 1153.883 1150.839 1147.433 1142.854 1132.875 1128.74 1124.415 1110.478 1106.346 1102.642 1098.233 1085.647 1078.356 1071.497 1064.908 1049.485 1044.052 1041.369 1035.888 1025.277 1019.964 1014.585 1010.036 1001.818 996.9979 992.2173 987.8254 977.8509 974.0405 969.4763 964.6835 954.0469 950.0244 946.5301 944.1161 944.2062 946.4116 949.1946 952.0759 955.9855 956.9766 957.6727 958.1721 958.1186 957.4905 956.3754 952.8608 950.123 946.9045 943.4714 937.5428 934.0854 930.3071 926.6765 919.5397 916.6456 917.6139 921.507 930.9731 934.7449 937.8526 940.6414 939.0698 940.8677 942.5982 944.1353 945.6082 945.6442 945.6432 945.3441 944.4339 944.6756 944.7834 944.7582 943.921 943.3198 942.5272 941.4814 938.9388 937.4343 935.8799 934.347 932.571 932.8673 934.1496 936.1786 940.5917 
1163.365 1154.82 1152.095 1149.498 1145.138 1133.929 1129.234 1124.551 1118.782 1107.871 1104.019 1100.46 1088.083 1081.099 1074.1 1067.329 1052.824 1046.776 1041.369 1038.556 1028.44 1023.507 1017.86 1012.698 1003.888 999.1871 994.3912 989.6443 980.0862 975.6107 969.8893 963.9418 951.4491 947.4875 943.3327 939.5621 937.0786 937.5325 939.6447 942.9638 948.4897 950.595 952.0994 953.0463 953.0178 952.0687 950.9272 949.4983 944.8024 941.7195 938.6638 935.7036 929.4209 925.9852 922.3894 914.8143 912.465 912.3135 913.3745 923.6926 928.4565 931.6849 934.4365 939.0698 934.644 936.5676 938.5349 940.3838 940.0452 939.6801 938.9608 936.9551 936.7581 936.681 936.7322 936.2715 935.7159 935.0847 934.4627 932.7303 931.4012 930.0598 928.5997 926.025 925.2915 925.7513 927.6074 933.5333 
1164.442 1155.607 1152.789 1149.955 1145.9 1134.897 1129.505 1124.524 1119.213 1109.045 1104.916 1101.023 1096.191 1083.464 1076.597 1069.715 1056.041 1049.651 1043.99 1038.556 1031.319 1026.829 1021.488 1015.984 1006.19 1001.32 996.4353 991.644 982.4339 977.9806 971.9116 965.1392 952.1386 947.0144 941.6651 936.9378 931.7946 930.489 930.8134 932.5516 937.4684 940.7371 943.4678 945.1709 945.9882 945.4636 944.7004 943.7903 939.8737 936.945 934.0451 931.306 925.3176 921.7983 918.1874 914.5516 908.776 907.8649 908.6319 914.8412 920.0236 924.5591 927.9936 932.7734 934.644 929.9398 931.6678 933.8133 933.857 933.4682 932.6513 930.4445 929.6614 928.8599 928.6744 929.247 929.3341 929.5128 929.4274 927.3077 925.8364 924.4968 923.0319 918.8391 916.9604 917.0018 918.6646 925.1494 
1164.603 1156.228 1152.932 1150.018 1146.029 1134.613 1129.034 1123.995 1118.917 1109.289 1105.418 1101.667 1096.937 1084.701 1078.546 1072.181 1065.455 1052.471 1046.758 1041.089 1031.319 1026.829 1024.726 1019.4 1008.953 1003.702 998.6476 993.7254 984.5179 980.1333 974.4238 967.3791 953.6638 947.536 941.3483 935.8491 927.6693 925.778 925.3198 926.3949 930.4687 932.3231 934.0659 935.3033 936.9047 937.4497 938.0244 938.0544 934.7874 931.9055 929.2572 926.8553 921.2319 917.9243 914.173 910.0253 903.184 902.6266 903.754 905.8311 912.8723 917.2713 921.2718 926.4891 928.1971 929.9398 925.6278 928.3862 928.3953 927.7394 926.7081 924.2661 923.0749 922.0266 921.8104 922.7189 923.1115 923.5146 923.5411 921.9215 920.777 919.3178 917.8365 912.9232 910.7056 910.397 911.4177 917.249 
1164.287 1156.783 1152.665 1149.137 1144.765 1133.384 1127.848 1122.814 1118.16 1109.573 1105.606 1101.859 1097.323 1085.634 1080.111 1074.547 1067.776 1054.961 1049.653 1043.887 1038.32 1029.366 1024.726 1022.288 1017.29 1006.373 1000.886 995.8346 986.4158 981.9112 976.9051 969.8607 955.5227 949.0693 942.6666 937.0113 926.8249 924.3696 923.3843 922.0108 923.0947 925.2426 927.3676 929.2615 931.2621 931.4107 931.5139 931.2849 928.3629 926.381 924.4952 922.3676 917.222 913.4456 908.5972 903.9705 898.3144 897.394 898.13 899.9498 906.3889 910.9466 915.4447 918.7159 922.5601 924.1379 925.6278 922.4617 922.6898 922.3096 921.3502 917.9 916.7487 915.5215 915.3531 916.7109 917.3455 917.657 917.63 916.8417 915.6558 913.788 911.902 906.8741 905.3225 905.5807 907.0413 911.251 
1163.692 1156.626 1151.71 1147.594 1142.617 1131.439 1126.277 1121.719 1117.551 1109.907 1105.445 1101 1096.596 1086.085 1081.251 1076.865 1069.902 1056.754 1052.069 1046.692 1040.879 1031.444 1027.156 1022.288 1019.537 1008.682 1003.046 997.8428 993.0109 983.7091 978.8135 972.0552 957.5248 950.9952 944.8087 939.0771 927.5619 923.4024 921.0814 917.8687 915.3236 916.8807 919.2801 921.9928 924.9515 925.1721 925.1815 925.2197 922.9753 921.3475 919.6458 917.9037 911.7087 906.3656 901.5124 897.0711 891.2076 890.6702 891.8017 893.8537 899.6859 903.2388 907.8115 912.2461 917.3835 919.0607 920.5482 921.7267 922.6898 917.5101 916.5859 911.6113 909.3247 907.6398 907.1777 908.6213 909.4499 910.0554 910.3629 909.3638 908.0256 906.6457 905.0451 900.5619 899.8056 900.5551 902.3452 906.6076 
1162.784 1155.057 1149.619 1144.456 1139.12 1128.837 1124.063 1120.109 1116.462 1109.856 1104.468 1099.785 1095.88 1086.563 1081.855 1077.62 1070.777 1057.782 1053.695 1049.301 1043.672 1033.158 1028.907 1024.47 1019.537 1009.802 1004.494 999.439 994.7136 985.5022 980.4849 974.2232 966.9201 952.7117 946.7726 941.1822 929.4554 924.2546 920.0447 916.259 910.3214 908.4829 909.9659 912.715 917.7208 919.0732 919.3757 919.113 917.6011 916.0799 914.3427 912.3562 903.1715 898.6249 894.2859 890.1598 884.948 884.4172 885.2885 887.4373 893.7839 896.9565 900.2273 903.915 910.8815 913.7909 915.7098 916.9361 917.7642 917.5101 909.1438 906.8055 902.1232 900.57 900.0328 900.2197 901.2347 901.8255 902.2032 900.8901 899.5234 898.3765 897.2037 894.3991 893.7852 894.8861 897.0006 901.6053 
1161.705 1152.578 1146.581 1140.31 1134.801 1124.959 1121.071 1117.538 1114.156 1108.123 1102.416 1097.731 1093.837 1085.8 1081.373 1076.684 1070.308 1058.364 1054.345 1050.583 1044.949 1033.899 1029.742 1025.571 1020.607 1009.802 1004.494 1000.288 995.6458 986.5639 981.879 976.4905 969.5082 954.5902 948.5973 943.1365 937.5418 926.3411 921.3106 916.4648 906.0868 902.5779 902.5883 904.1635 908.8214 910.679 911.3916 911.5695 910.8309 909.1556 906.9015 903.6697 895.8154 891.5301 887.5408 883.6971 877.8386 876.7171 877.5152 880.1546 887.5035 891.1571 894.4592 897.5049 902.816 905.599 908.3162 910.3008 911.3817 910.6599 909.1438 899.5197 894.9167 894.29 894.249 894.281 894.054 893.8862 893.7851 893.402 891.5443 890.5596 889.6758 888.2286 888.0054 889.229 891.4544 896.2068 
1159.923 1155.425 1142.611 1135.846 1130.54 1121.505 1118.349 1115.11 1111.816 1103.323 1098.423 1094.284 1090.846 1083.576 1079.429 1075.318 1069.341 1058.233 1054.369 1051.112 1045.64 1034.307 1030.32 1026.493 1021.571 1010.591 1005.267 1000.288 996.272 987.189 982.9198 978.5771 972.0505 956.5652 950.3492 944.9942 939.6809 928.4551 923.0386 917.4334 910.6382 899.9553 898.3143 897.1777 896.7902 898.6566 900.0088 900.8135 901.2774 900.1199 898.4237 896.049 888.5708 884.5341 880.5282 876.8489 870.3842 868.5952 867.2145 869.6171 879.4349 884.0161 888.3989 891.9455 897.1644 899.376 901.4577 902.5649 903.1169 902.6459 901.5101 899.5197 887.9785 886.5048 884.2834 882.9407 883.9838 884.4049 885.1208 885.4385 884.3397 883.8188 883.3416 882.9328 882.4945 883.3416 885.2415 890.5986 
1157.169 1151.793 1138.153 1132.263 1127.08 1122.714 1115.806 1112.578 1109.036 1099.976 1095.727 1090.938 1087.321 1080.882 1076.455 1071.635 1066.064 1056.573 1053.048 1049.635 1044.773 1034.338 1029.906 1026.36 1021.467 1011.238 1005.702 1000.929 996.272 987.7531 983.6464 979.5511 973.5638 958.4608 951.9433 946.6226 941.7036 930.6817 924.8198 918.3082 911.3243 899.3698 895.6894 892.4322 889.8326 889.3145 890.186 890.9831 891.9046 891.7969 890.1502 887.9035 881.1996 877.0919 873.7693 870.5103 863.3447 861.214 860.8514 861.8172 870.2488 875.5753 880.407 885.0493 892.3552 894.5363 895.9597 896.8192 897.0739 896.4667 895.1382 893.0626 887.9785 886.5048 875.5833 873.6777 873.6268 875.0466 877.0602 878.0591 877.5984 877.3382 877.0914 876.8293 876.3646 876.8614 878.4538 881.1453 
1153.548 1147.941 1134.823 1129.295 1124.304 1120.173 1113.355 1109.698 1105.652 1101.147 1092.692 1088.304 1085.792 1077.669 1072.917 1067.278 1061.938 1053.671 1049.797 1046.439 1042.095 1032.773 1028.095 1024.085 1018.932 1009.18 1004.589 1000.279 995.8475 987.7531 983.2662 979.7078 974.2818 959.8896 953.335 948.1313 943.4816 932.9904 927.1908 920.5237 913.4861 900.6395 895.7229 891.1519 887.2098 883.9189 882.7003 881.7202 881.8055 880.6476 879.7233 877.7064 875.2127 869.9589 867.3596 864.496 856.9204 854.4326 855.0852 857.2496 863.2396 867.5538 872.3989 877.0364 886.181 889.9761 891.7139 892.3964 892.5684 891.5651 889.7866 887.2308 881.6975 878.5525 875.5833 866.5029 865.4568 866.3761 867.5782 868.5635 870.1879 870.8062 870.7097 870.2424 869.3527 869.4715 871.2244 874.3021 
1149.418 1143.952 1132.154 1126.749 1122.261 1118.501 1111.453 1107.082 1102.357 1098.036 1090.159 1086.881 1083.596 1079.22 1068.465 1062.734 1057.886 1049.743 1045.963 1042.171 1038.37 1029.084 1024.642 1020.066 1015.441 1006.33 1002.158 998.5251 994.7556 987.2863 983.2662 978.4284 973.5453 961.0996 954.8495 949.6893 945.1899 935.1292 929.5178 923.3675 916.6752 902.1282 897.0269 892.0521 886.9636 879.783 876.1896 872.3447 870.0688 866.1078 865.4471 864.6334 863.7244 862.592 860.9073 858.6183 855.5102 850.7325 851.2332 852.8835 858.2035 861.7138 865.6041 869.7982 877.9915 881.2989 884.0403 885.6725 885.7877 884.4717 883.08 881.2333 874.2523 870.0411 867.8326 866.5029 860.0703 860.6995 861.4332 862.2515 863.7751 864.3658 864.2902 863.8003 862.773 863.051 864.6004 867.3898 
1144.995 1139.98 1129.375 1124.424 1120.345 1116.852 1109.599 1104.335 1099.348 1095.281 1088.107 1085.865 1081.023 1075.115 1064.01 1058.777 1053.88 1049.301 1040.593 1036.975 1033.171 1024.263 1019.85 1014.769 1010.577 1002.892 999.3024 995.7803 992.3077 985.8988 982.1068 978.4284 973.5453 962.1668 956.4412 951.7036 947.1312 937.3199 931.7949 925.9409 919.877 904.6469 898.8832 893.3453 888.0634 878.0164 872.2258 866.765 862.7445 857.2257 854.677 854.3571 855.0699 855.5375 854.5611 853.0273 850.8625 847.398 847.4349 848.5627 850.6389 856.875 860.3398 863.6705 870.3823 873.1253 875.4749 876.8193 876.7698 876.3436 875.3126 871.8904 865.0338 862.7859 861.2049 860.2384 860.0703 856.1405 856.887 857.6071 858.1785 858.0645 857.7579 857.2493 856.4229 856.5869 858.2506 861.0157 
1140.394 1136.148 1126.692 1122.361 1118.699 1115.152 1106.994 1100.91 1096.423 1092.943 1086.408 1082.52 1076.749 1070.614 1059.823 1054.464 1049.447 1044.272 1035.022 1031.303 1027.13 1022.974 1014.037 1010.002 1005.947 1002.056 995.5518 992.3737 989.2051 983.178 980.0372 976.6114 972.1719 962.1668 957.3855 953.1847 948.6458 939.3546 933.9507 928.3749 922.5869 908.8676 902.3043 895.6514 889.6375 878.4693 871.9348 866.2968 861.8513 854.2977 851.0255 849.6075 849.106 848.7335 848.087 846.6535 844.5509 842.1201 842.3501 843.6301 845.9139 851.903 855.2275 858.4587 861.423 865.6624 867.4315 868.8818 868.6214 867.6192 865.4904 863.1099 858.6865 856.6795 854.9045 854.2333 855.2701 856.1405 850.9063 851.9767 851.8868 851.1931 850.3536 849.4804 848.77 849.9398 852.1028 854.9108 
1136.047 1132.502 1124.261 1120.47 1116.839 1113.722 1103.113 1097.649 1093.947 1090.845 1084.795 1078.449 1072.532 1066.873 1055.781 1050.24 1044.94 1039.705 1030.847 1026.675 1022.258 1017.641 1009.006 1004.958 1001.121 997.6706 991.7155 989.0123 986.1508 983.2161 977.1877 974.1883 970.2403 961.6155 957.3855 953.8027 949.6961 940.6919 935.7178 930.4056 924.8911 913.017 906.1741 898.7028 891.6915 880.0176 873.7583 867.7354 862.7421 854.0841 849.8541 846.7366 844.3188 841.6003 840.7753 839.188 836.6802 834.2479 835.7794 838.1149 840.8398 846.9062 850.2431 853.6574 856.4911 860.2347 861.7056 862.6439 862.7792 861.2475 859.4573 857.347 855.2542 850.6708 848.5074 847.4581 848.6871 849.8033 850.9063 851.9767 842.9725 842.5239 842.0272 841.5048 841.6168 843.1785 845.8957 849.0034 
1131.953 1129.1 1122.412 1118.527 1114.869 1112.22 1098.86 1094.847 1092.018 1089.179 1081.482 1074.506 1068.924 1064.029 1052.644 1047.304 1041.436 1036.19 1027.601 1023.169 1017.602 1012.329 1003.957 1000.049 996.3629 993.0273 987.5648 985.1998 982.6766 980.0037 974.3748 971.2924 967.9515 964.435 957.3531 953.8027 950.2338 941.2371 936.6937 931.9848 927.04 915.9686 909.4602 902.1356 894.1777 881.864 875.8802 869.6253 864.2381 854.7648 850.0314 845.2476 841.0817 835.7284 833.1683 830.5262 827.9203 826.1601 828.5757 831.8644 835.1033 841.1343 844.2855 847.7454 850.9539 855.1148 856.5165 857.1877 857.1432 855.5916 853.9026 851.6696 849.2388 844.28 841.776 840.3738 840.4308 842.2007 842.9892 843.4095 842.9725 836.0067 835.6941 835.4542 835.991 837.5076 840.1989 843.4564 
1127.925 1125.764 1120.086 1116.027 1112.561 1107.78 1095.634 1092.093 1088.883 1087.019 1077.512 1071.767 1066.58 1061.549 1050.265 1045.187 1039.951 1034.61 1024.183 1019.214 1013.636 1007.94 999.1025 995.0993 991.3021 988.1279 983.2562 981.1268 978.6832 976.262 971.0886 968.3652 965.6418 962.8173 956.6962 953.8765 950.2338 945.8212 937.4182 933.0368 928.4567 918.3934 912.6105 905.7746 896.9774 883.614 877.9266 871.6315 865.9315 856.0182 850.9711 845.2196 840.1807 831.838 828.1846 825.6627 823.7935 820.3526 821.5377 824.5563 828.3367 835.3271 837.9303 840.4642 843.3668 849.1938 851.4811 852.3275 852.0013 850.1875 848.2841 845.9236 843.4821 838.1062 835.5477 833.6253 832.6952 834.2817 835.5211 836.3228 836.5508 836.0067 830.389 829.975 830.1588 831.2736 833.9892 837.6385 
1122.963 1121.379 1119.118 1112.569 1108.273 1102.233 1093.23 1089.578 1086.633 1084.888 1074.256 1069.222 1064.325 1059.337 1048.571 1043.63 1038.868 1033.078 1021.635 1016.346 1010.668 1004.293 994.587 990.3304 986.5921 983.5096 978.9384 976.6013 974.0295 971.456 966.826 964.6449 962.2623 959.7777 955.4367 953.2368 949.8425 945.6724 937.4182 933.3617 929.3375 925.0717 915.6247 908.2282 899.2928 891.3037 879.7681 873.6753 867.7747 857.7059 852.5145 846.4468 841.0212 831.2791 827.5061 824.1568 821.1354 816.0117 815.6623 816.9601 819.8864 827.8889 830.9792 833.764 836.4404 841.8 843.6066 844.8229 844.9967 843.7366 842.1704 839.9894 837.2949 831.1696 829.0302 827.5082 826.6228 827.6724 829.1697 830.4519 830.8929 830.6668 830.389 821.6533 821.2574 824.351 827.4637 830.9493 
1116.776 1114.563 1112.885 1108.393 1103.042 1098.067 1094.306 1088.681 1086.078 1082.725 1072.254 1067.365 1062.589 1057.63 1047.73 1042.476 1037.415 1031.545 1020.08 1014.379 1007.856 1001.742 990.9502 987.1357 982.9739 978.866 973.0496 969.5564 966.4366 964.3827 961.0996 958.9349 956.6873 954.9957 951.9031 950.171 947.8403 944.5933 937.5159 933.3617 929.9673 926.0693 916.9056 909.7815 901.4562 893.5524 881.4619 875.6194 869.6284 864.186 854.3172 848.3677 842.6545 832.455 828.2658 824.5472 820.7718 814.8422 813.6356 813.3329 813.5967 817.7738 821.7928 825.5 828.7827 834.5259 836.6184 837.9692 838.2886 837.6029 836.3453 834.0565 831.1945 825.6281 823.2986 821.4501 820.7203 821.6982 822.5549 823.3127 823.7747 823.313 822.6422 821.6533 821.2574 818.0439 821.5835 825.211 
1110.062 1108.181 1106.57 1102.548 1098.967 1095.196 1092.049 1087.529 1084.552 1080.296 1075.458 1065.885 1061.236 1056.495 1046.738 1041.35 1036.112 1030.517 1019.282 1013.278 1006.493 1000.468 988.4933 984.9401 979.7705 974.9846 965.454 961.4465 958.8461 956.7136 951.8896 950.8444 949.9005 949.0652 946.4252 945.0711 943.8126 941.9344 936.3727 933.1953 929.9673 925.6235 916.8842 910.572 903.1662 895.6028 883.1759 877.5366 871.5488 865.9468 856.0316 850.264 844.4071 838.8901 829.4501 825.4893 821.7097 814.2706 811.6616 810.2781 809.3086 809.7692 811.4568 814.7548 819.1516 826.7693 828.8467 829.7822 830.3335 830.9174 829.8414 827.7825 825.0994 819.9981 817.8058 815.9992 815.2546 815.7084 816.1413 816.6157 817.1279 816.4147 815.7089 815.036 814.8644 818.0439 816.8073 820.417 
1105.574 1102.519 1100.29 1096.614 1094.319 1091.572 1089.062 1084.545 1081.397 1077.409 1073.28 1064.478 1059.999 1055.487 1050.815 1039.991 1034.895 1029.724 1019.174 1013.612 1007.499 1001.581 990.287 985.2417 979.9659 974.239 962.1554 957.7208 953.0643 949.8314 945.5485 943.3699 941.8299 940.8983 939.7331 939.4723 938.6965 937.5373 934.1699 931.7854 929.0994 925.6235 916.8842 910.8455 904.6346 897.3427 884.7583 879.4024 873.5657 867.7941 857.7328 852.2654 846.2469 840.498 830.6202 826.5809 822.7697 818.9931 811.364 808.5233 805.5571 803.2899 803.4667 805.7509 809.8296 818.4315 820.9573 822.5972 823.3011 823.5903 822.6227 820.3928 818.1131 814.7264 812.8981 811.3165 810.2483 810.0186 810.217 810.5071 810.6549 810.2306 809.7043 809.4335 809.777 813.4886 816.8073 815.8602 
1102.113 1098.451 1095.421 1090.615 1088.499 1086.672 1084.825 1080.13 1077.222 1074.184 1070.727 1063.108 1058.742 1054.175 1049.621 1038.938 1034.003 1029.097 1024.105 1014.013 1008.444 1002.926 997.3597 986.8146 981.2172 975.3905 963.7745 956.621 951.1377 947.0356 939.6963 937.0961 934.7299 932.9934 933.278 931.1211 930.8033 931.0831 930.3289 929.3079 926.8298 923.4982 915.8587 910.8455 905.4116 898.702 885.7941 880.976 875.3622 869.6142 859.3399 854.2731 848.1817 842.2017 831.9612 827.7319 823.8471 820.0843 812.2679 808.537 804.2456 800.5372 796.6723 797.0598 799.9684 809.4681 813.0002 815.1762 815.7849 815.7484 815.359 814.2127 812.8146 809.619 807.9692 806.1531 804.8101 804.4425 804.5731 804.701 804.9048 804.4276 804.0615 804.0627 804.5708 809.0627 812.2603 815.8602 
1099.101 1094.986 1090.627 1084.857 1082.618 1080.467 1078.428 1075.137 1072.886 1070.249 1067.227 1061.069 1056.504 1052.01 1047.803 1038.288 1033.447 1028.562 1023.797 1014.359 1009.239 1003.96 998.6552 988.5831 982.8125 977.061 971.7943 958.8596 952.0695 946.4329 937.5161 933.6445 928.8005 925.8315 924.9445 922.4808 922.4852 923.4772 924.0374 923.6494 921.8522 919.1418 913.573 909.6315 905.4116 899.1626 886.3799 881.2756 876.2234 871.2028 860.7265 855.5828 849.7023 843.887 833.3167 828.9374 824.9435 821.1633 813.2029 808.9005 804.0419 798.4194 791.8951 791.1266 792.4713 795.8041 804.483 807.5627 809.3884 810.2319 810.0841 809.28 808.0496 804.5585 802.8253 800.9758 799.2876 797.2149 796.8549 796.7825 796.8953 797.1516 797.6143 798.275 799.3824 803.9083 807.11 810.6878 
1099.101 1094.986 1086.579 1078.357 1075.428 1073.61 1072.094 1069.019 1067.63 1065.891 1063.382 1057.604 1053.664 1049.615 1045.67 1037.528 1032.879 1028.044 1023.508 1014.689 1009.929 1004.896 999.8369 990.1266 984.804 979.433 974.1884 961.9423 953.9209 947.5637 942.8238 933.5629 928.8608 925.618 916.9848 913.8906 913.7559 914.5613 915.4005 915.5769 915.482 914.4036 910.2214 907.8844 905.0468 899.1626 885.8392 880.7177 875.6997 870.5305 860.7708 855.7501 850.2129 844.5853 834.5049 830.2275 826.0455 822.0414 813.9509 809.6871 804.5799 797.7141 790.7815 790.228 790.3728 791.2385 796.9565 800.3309 802.3329 803.1404 803.235 802.6531 801.5033 799.8429 796.7313 795.2664 793.532 790.8162 790.3524 790.2394 790.2316 790.5896 791.3498 792.3352 793.4567 797.2289 800.4278 804.6323 
1095.208 1090.84 1086.579 1073.813 1070.182 1067.276 1064.966 1062.974 1061.942 1060.935 1059.001 1053.486 1050.71 1047.319 1043.73 1036.433 1031.991 1027.458 1023.225 1014.925 1010.478 1005.713 1000.907 991.5936 986.8375 982.0696 977.2001 965.1552 956.6583 949.9485 945.094 935.7291 930.8702 926.7401 921.4644 912.8687 910.6404 909.2712 908.5466 908.5269 908.395 908.3293 906.7603 904.9615 901.3596 896.4664 885.8392 877.4808 873.0861 868.8672 859.7885 855.6359 850.1888 844.6083 835.2655 830.9806 826.7348 822.5764 814.3698 810.3367 805.3403 797.8766 788.9478 788.5598 788.5583 789.0535 791.1202 792.6516 793.3508 793.2019 791.934 791.2651 790.9523 790.7806 790.4172 789.4218 788.2906 787.2739 785.7672 785.306 784.9511 784.2805 783.8976 784.3317 785.886 790.0586 791.8701 793.4758 
1090.615 1086.719 1082.431 1073.813 1066.033 1062.361 1057.593 1052.341 1052.674 1052.922 1052.618 1049.317 1046.81 1043.966 1041.119 1034.784 1030.678 1026.752 1022.889 1015.054 1010.978 1006.435 1001.869 992.9253 988.4883 984.1276 979.8856 967.9781 959.9737 952.7087 947.2048 938.4474 933.4293 928.723 923.3665 913.4951 910.3732 906.8091 903.6025 901.639 901.3725 901.3995 901.2004 897.1552 893.2933 890.0411 881.6417 877.4808 873.0861 865.1463 857.4373 853.5571 849.0259 844.5183 835.5303 831.3069 827.1298 822.8776 814.5303 810.2607 805.1093 797.4861 786.8724 786.5032 786.2794 786.2114 787.0252 787.339 787.3433 787.0412 785.9714 785.1777 784.3812 783.7541 783.1642 782.954 782.7979 782.4846 781.3197 780.611 780.067 779.6144 778.8069 778.9999 779.7015 783.8406 786.0264 788.5272 
1086.097 1082.461 1078.332 1074.092 1066.033 1056.516 1050.909 1045.13 1044.358 1044.552 1044.613 1043.084 1041.856 1039.932 1037.596 1031.814 1028.643 1025.378 1021.77 1014.828 1011.113 1006.823 1002.683 994.0692 989.8276 985.7164 981.7458 970.8973 963.2767 955.1828 949.1018 940.7913 936.0419 931.2052 926.0092 915.5114 911.0786 906.4468 902.2353 894.0923 890.3398 888.3893 887.3368 885.0042 883.1548 880.9957 878.801 872.2355 868.598 865.1463 854.4568 850.8134 847.3213 843.8337 835.2432 831.5359 827.1707 822.7243 814.3349 809.4518 803.7703 796.4419 785.3848 784.3884 783.8165 783.4104 783.1493 783.0275 782.8638 782.6057 781.154 779.9912 779.0048 778.3034 777.8096 777.8072 777.7791 777.5532 776.6004 776.1635 775.8523 775.6169 775.5583 775.9718 776.8121 778.0925 781.5784 784.0963 
1081.234 1077.64 1074.108 1070.299 1062.252 1056.516 1045.98 1041.706 1036.646 1036.014 1035.357 1034.285 1033.44 1032.161 1030.642 1027.576 1025.299 1022.496 1019.357 1013.528 1010.343 1006.579 1002.934 994.8289 990.6961 986.7659 982.9922 973.7283 965.7866 957.5645 951.2729 942.8677 938.5966 933.7245 928.5834 917.887 913.1615 908.2075 903.378 893.4354 888.9372 884.8533 880.9884 875.4496 873.2501 871.2019 869.3214 865.99 863.6653 860.856 857.7844 847.6121 844.6259 841.2762 833.7272 830.1474 825.6196 821.0553 812.8039 808.2752 802.1995 795.2807 784.5011 782.0894 781.1274 780.7687 780.1035 779.7567 779.2941 778.7499 777.0635 776.083 775.0394 774.145 773.1992 772.9717 772.6852 772.3564 771.7144 771.5379 771.4639 771.537 772.2899 772.9667 774.0215 775.2479 778.0505 779.7316 
1076.716 1073.201 1069.798 1065.901 1056.281 1050.6 1045.98 1041.706 1030.589 1027.324 1025.365 1024.445 1022.208 1020.918 1020.381 1019.743 1018.413 1016.628 1015.344 1010.956 1008.149 1005.319 1002.368 994.8766 991.061 987.3461 983.7963 976.0383 967.8059 959.8745 953.4683 944.7936 940.9943 936.2019 931.0451 920.866 916.2964 911.3221 906.5233 896.4955 891.3674 884.3697 878.5217 869.4725 865.8322 863.7806 862.554 859.73 858.1013 856.1789 853.7854 847.6121 840.5776 837.0237 833.4721 826.9608 822.6572 818.4945 810.0549 805.9861 800.2644 794.1785 783.8074 780.3273 779.0557 778.5059 777.3736 776.7431 775.9454 775.1 773.1442 772.0237 771.011 770.2108 769.3715 769.1027 768.6803 768.3802 768.2175 768.2598 768.3667 768.4963 769.5597 770.2725 771.2155 772.3731 775.4205 777.5311 
1073.935 1069.793 1065.809 1061.478 1049.971 1045.93 1042.102 1038.081 1030.589 1022.387 1019.633 1016.88 1012.258 1010.724 1010.432 1010.775 1010.446 1009.815 1009.246 1008.328 1004.721 1002.816 1000.496 994.1204 990.9167 987.6079 984.0356 976.7186 969.5258 962.1246 955.489 946.598 942.8965 938.5945 933.5782 923.6176 919.2445 914.9341 910.3452 900.2963 894.4497 887.4901 880.5632 867.2014 863.5755 860.6031 857.8314 854.2297 852.5811 850.7838 848.6627 843.6301 840.5776 837.0237 829.0626 822.5807 818.9161 814.8641 810.4147 802.3729 797.7636 792.5496 782.6791 779.0879 777.3863 776.5004 774.7981 773.7703 772.6452 771.4042 769.7381 768.898 768.2419 767.8076 767.5241 767.4866 767.4326 767.3837 767.4042 767.4396 767.5144 767.6514 767.9438 768.2235 768.7059 769.6472 772.5026 775.8292 
1073.066 1067.913 1063.404 1057.148 1046.556 1042.882 1038.784 1034.714 1025.872 1022.387 1015.425 1011.414 1003.906 1002.434 1002.443 1002.804 1002.994 1002.975 1002.485 1001.787 1000.284 998.8464 996.5865 994.3082 989.6958 986.5363 982.821 975.8959 970.0657 963.8701 957.5325 948.2079 944.6069 940.9666 936.1578 925.9355 921.8315 918.0185 913.7571 904.0852 897.8581 891.3463 884.2946 869.0313 864.1599 858.7374 854.3824 849.2188 847.1 845.0045 843.0209 837.8854 834.6157 831.8951 829.0626 818.3298 814.6579 810.5558 806.4959 798.6888 794.5552 789.8254 784.9769 777.7809 775.5085 774.3813 773.5571 771.1247 769.907 768.8137 767.8176 767.4722 767.1321 766.8732 766.6809 766.6441 766.6506 766.6866 766.7529 766.8202 766.907 766.9859 767.2532 767.4823 767.7501 768.0045 769.1833 772.1696 
1072.641 1066.988 1061.373 1054.501 1045.263 1041.778 1037.589 1032.604 1022.942 1019.087 1015.425 1005.012 997.1702 995.0063 993.1671 992.7361 993.6024 993.8005 993.8985 993.8887 992.9877 992.1647 991.2027 990.0624 986.4205 983.2284 979.8004 976.6931 969.3823 964.8881 959.2409 949.6782 945.9404 942.4519 938.0349 927.9511 924.0192 920.4059 916.7033 906.6081 900.843 894.924 887.8802 872.4193 865.9821 859.2078 853.8138 845.5836 842.0062 839.4068 836.5776 830.2184 828.0859 826.1505 823.6836 818.3298 808.3657 805.3923 802.4365 795.5349 791.3854 786.6052 782.2896 776.3269 774.0529 772.4874 771.309 769.1872 768.3448 767.7034 767.2246 766.6646 766.4304 766.342 766.2201 766.1889 766.212 766.2817 766.4961 766.5192 766.5897 766.6834 766.8472 766.9675 767.0329 767.2115 767.8351 768.2508 
1074.869 1067.722 1060.813 1053.559 1044.747 1041.245 1037.546 1031.787 1020.732 1015.838 1010.792 1005.012 997.1702 988.309 986.0098 984.2736 984.2324 984.8431 985.2289 985.4015 984.715 984.2428 983.8937 983.3948 980.2404 977.8771 975.5161 973.0144 967.2785 963.8293 959.1639 954.5406 946.5751 942.8221 938.8527 929.8474 925.9269 922.4157 919.2136 909.3929 903.3009 897.6193 891.2297 875.9776 869.1942 861.4434 854.7991 844.0547 839.9267 835.488 831.0977 825.2218 822.9636 820.6844 818.2946 811.9972 808.3657 800.6318 798.2603 791.8624 787.6323 783.3528 779.9111 774.7551 772.6678 770.6803 769.3749 768.0326 767.449 766.9528 766.5695 766.1741 766.0052 765.9481 765.9761 766.0165 766.1044 766.203 766.462 766.537 766.576 766.5596 766.7109 766.7609 766.8446 766.8893 767.1268 767.5385 
1076.7 1069.359 1062.362 1054.534 1045.003 1041.806 1038.625 1032.766 1018.439 1012.724 1006.166 1000.2 991.4731 988.309 979.1519 976.0821 976.0908 976.6493 977.031 977.0263 976.4613 976.1653 975.8567 975.6082 973.9301 972.2399 970.5448 968.5538 964.0474 960.7807 956.9967 953.2964 946.1993 942.8757 939.3415 935.3467 927.5554 923.9557 920.395 916.3978 905.4144 899.5998 893.5345 879.0244 872.5255 865.3535 857.5823 845.276 840.1873 834.4427 829.371 820.8811 818.2498 815.4703 812.1915 805.7589 802.9771 800.6318 794.2121 787.6902 783.7664 780.6288 777.9897 773.1207 770.913 769.2282 768.2191 767.1696 766.7126 766.3952 766.1064 765.7324 765.7299 765.8143 765.9955 766.4644 766.7551 766.9969 767.2211 767.5012 767.7311 767.7312 767.1786 766.7928 766.8121 766.9038 766.9041 767.1011 
1085.514 1070.675 1064.007 1055.899 1045.533 1042.408 1039.231 1033.319 1017.987 1010.634 1003.292 997.3393 987.495 983.9252 979.1519 973.4019 970.7411 969.8538 969.5318 969.345 968.8292 968.4908 968.1504 967.8353 966.9866 966.5142 965.5035 963.7578 959.8047 956.9024 953.8127 950.7728 944.9293 942.1279 939.0935 935.5198 928.3052 924.6151 920.8936 916.9943 906.6235 900.8286 894.7196 888.2521 875.3084 868.544 860.4058 846.9996 841.5799 835.3007 829.2172 817.2388 813.3542 809.4406 805.9162 800.4971 798.1721 796.1712 794.2121 787.6902 780.7996 778.4865 776.1138 771.4671 769.4019 768.2095 767.4573 766.3981 766.133 765.8268 765.5911 765.6873 765.9366 766.1903 766.5469 767.417 767.7945 768.2325 769.1287 771.0536 771.8922 772.434 772.1034 768.4808 767.3051 766.9159 767.0313 767.0795 
1086.175 1071.81 1065.107 1057.036 1050.026 1042.807 1039.754 1033.839 1018.1 1010.127 1001.99 995.847 985.8935 981.4311 976.6888 973.4019 964.9185 963.9343 963.2171 962.6328 961.7593 961.4274 961.159 960.8931 960.3831 960.0173 959.4488 958.4419 954.5395 952.6689 950.2552 947.7372 942.7648 940.1111 937.5004 934.5491 928.4161 924.7197 920.8279 917.2769 907.2966 901.7059 895.6321 889.5544 877.8655 870.5308 862.7349 855.4922 843.165 836.9345 830.3615 815.8752 810.3532 805.7921 801.7311 794.7778 793.1888 791.8827 789.6928 783.4829 780.7996 776.7584 774.5767 770.3016 768.6254 767.6074 766.8622 765.8777 765.5119 765.3828 765.4675 765.9211 766.2639 766.7253 767.2991 768.4182 769.5198 771.1906 773.5942 777.332 777.9686 778.2218 778.1179 774.8508 771.606 768.8327 767.3241 767.0839 
1086.518 1072.819 1066.084 1058.018 1050.835 1043.099 1039.756 1033.974 1026.352 1010.41 1002.393 995.733 985.3636 980.6687 975.7656 972.1446 964.9185 963.9343 956.2869 953.9284 953.7961 954.0897 954.2607 954.337 954.4073 954.1329 953.199 952.2788 949.2128 947.7324 945.9097 943.9515 939.7375 937.1803 934.9282 932.7258 927.3158 923.4213 919.0984 915.9112 907.3043 902.1982 896.4437 890.6552 879.2948 872.2848 865.087 858.0646 845.1006 838.7895 832.2885 824.5838 808.7427 803.5148 798.1674 791.363 789.3206 787.6175 785.4275 780.4432 778.6653 776.7584 773.3241 769.5281 768.2052 767.2706 766.5001 765.4702 765.2183 765.3347 765.6296 766.2106 766.7405 767.4175 767.9445 770.6407 773.8801 777.336 780.6599 784.7341 785.2928 785.399 785.2241 782.837 780.1813 776.1885 771.6172 767.2614 
1085.755 1073.08 1065.933 1058.293 1051.506 1043.215 1039.72 1034.022 1026.57 1011.003 1003.471 996.331 990.1437 980.8653 975.7506 970.4247 965.7122 959.9406 956.2869 949.1229 946.2333 944.2684 942.8885 942.3517 942.8818 943.109 943.0588 942.9728 942.4938 941.8776 940.7258 939.2703 935.1061 932.976 930.9863 929.1367 923.1167 919.2687 915.6834 912.774 906.102 901.5798 896.5876 891.4023 880.1609 873.7762 867.1064 860.3896 847.1088 840.5178 833.9888 826.153 809.4271 803.2291 797.2587 792.6842 787.4826 784.6891 782.1468 778.765 777.1185 775.2617 773.3241 768.8746 767.8309 766.8776 766.1226 765.0806 765.2303 765.4589 765.728 766.6196 767.2966 768.0327 768.8458 774.4808 778.9788 783.5223 787.9539 792.1839 792.9346 793.1296 792.4086 789.7479 787.5786 784.3668 780.0717 770.0601 
1083.99 1072.906 1065.637 1058.498 1052.084 1043.418 1039.635 1033.969 1026.741 1011.49 1004.503 998.0565 991.6342 981.3455 976.451 970.8758 965.1998 956.42 951.9036 949.1229 943.693 937.4638 935.7072 934.4179 934.0865 934.4706 934.8357 935.0182 935.0507 934.4551 933.3304 931.9921 928.7565 927.0058 924.9432 922.506 916.8016 914.093 912.0217 909.9054 904.506 900.5558 895.9407 891.1902 880.867 875.107 868.8462 862.4857 849.1678 842.434 835.4666 827.564 810.9359 803.9274 797.1991 792.4341 786.4297 783.4284 780.943 779.0651 775.9789 774.1863 772.4716 770.6427 767.8309 766.5909 765.8761 764.9297 765.2377 765.6152 765.9633 767.0879 767.8323 768.3224 770.3091 779.0637 783.6126 788.9702 793.6737 797.6505 798.1715 798.3451 797.8297 795.6691 793.6215 791.0847 787.9171 778.3956 
1082.39 1071.787 1065.02 1058.515 1052.531 1043.635 1039.628 1033.976 1026.935 1011.861 1005.066 998.5175 992.3635 981.8849 977.0042 971.0939 965.0638 954.8271 950.4549 947.1389 943.693 933.7581 930.0552 927.8929 927.513 928.6857 929.2072 929.2361 928.1449 926.4777 924.5876 922.8463 919.8419 918.8299 917.0096 914.8318 911.1131 909.849 908.2621 906.3657 901.6074 898.2649 894.2327 890.0962 881.3892 876.2332 870.3619 864.0332 850.9325 844.1985 836.8178 828.8989 812.7733 805.3644 798.3061 793.0496 786.2484 783.1559 780.6804 778.6879 775.2852 773.4815 771.7606 770.0989 767.5007 766.5909 765.6431 765.1016 765.3361 765.7534 766.1733 767.3364 768.1071 769.1962 773.5784 782.2607 787.6509 792.9562 796.7758 801.352 802.7466 802.8831 802.5414 800.3849 798.8364 797.0819 794.8666 787.9703 
1080.104 1069.928 1063.854 1058.251 1052.95 1043.894 1039.629 1033.76 1026.943 1012.837 1005.683 999.1704 993.0536 982.5478 977.5001 971.7041 965.8091 955.082 949.8368 945.0247 940.7285 933.7581 926.4777 924.0283 922.9197 921.2513 920.6532 919.7246 918.9199 916.5593 915.0152 913.6408 911.205 910.3931 909.2839 908.3334 906.5739 905.6321 904.0942 902.1359 897.4581 894.7148 891.3403 888.1564 881.244 876.7929 871.4429 865.297 852.115 845.4798 837.946 830.0968 814.5621 806.8625 799.6341 794.0507 786.4662 782.9724 780.4597 778.513 774.822 773.0025 771.2146 769.5958 767.2593 766.368 765.6431 764.9647 765.3712 765.6907 766.1923 766.8978 768.4235 770.8304 776.2784 784.9996 789.9363 794.7731 798.7323 804.5901 806.6143 807.1569 807.0974 804.8838 803.1935 801.5207 799.8571 795.9218 
1076.725 1067.882 1062.509 1057.812 1053.18 1044.009 1039.44 1032.882 1025.756 1012.535 1006.003 999.8372 993.9429 983.2252 977.9882 972.4045 966.6962 956.1581 951.0473 945.7637 940.4565 930.6206 926.4777 924.0283 919.1229 914.4565 912.9958 911.1736 908.8137 906.282 906.0096 905.1649 904.0419 902.2383 901.3509 900.5375 899.0849 898.2639 897.1238 895.6204 892.4254 890.5446 887.9893 885.4724 879.7703 875.911 871.3632 865.8355 852.2997 845.7485 838.6298 831.1575 816.1711 808.0918 801.2428 795.6856 787.1104 783.3735 780.6215 778.5184 774.4618 772.5462 770.6663 769.1083 766.9261 766.0291 765.361 764.9647 765.2977 765.8079 766.396 767.158 768.8527 772.4777 777.9363 782.9767 791.7443 796.3779 800.9448 807.5045 809.7303 811.1652 811.55 809.5126 807.7357 805.962 804.1844 800.58 
1073.197 1065.74 1061.669 1057.426 1053.315 1044.395 1039.176 1033.355 1026.762 1012.809 1006.489 1000.534 994.7579 984.1135 978.9583 973.3997 967.5654 957.1772 952.4102 946.7884 941.1316 930.5126 925.9942 922.3356 919.1229 910.4175 906.9908 904.0772 901.2379 896.367 893.9768 893.0084 892.5942 891.3498 890.8168 890.267 889.7354 888.626 888.1058 887.358 886.5833 884.9798 883.0705 881.486 877.0767 873.5822 869.814 865.1516 852.4072 846.0791 839.3484 832.0868 817.5831 809.651 802.9606 797.288 788.0432 783.9689 780.9025 778.5134 774.1831 772.1111 770.1082 768.6248 766.6898 765.8806 765.1645 764.8329 765.2977 765.9357 766.5966 767.3613 769.9216 774.3304 778.9105 783.5672 793.1967 798.4001 803.525 807.4507 813.124 815.5369 816.4259 814.5344 812.9731 811.0289 808.9836 805.0913 
1069.41 1066.871 1060.422 1056.589 1052.933 1045.093 1040.721 1035.138 1028.329 1013.052 1006.96 1001.234 995.5253 984.9033 979.8253 974.3696 968.3867 958.1673 953.4094 947.7743 941.9332 931.5294 926.9587 922.8166 918.803 910.4175 904.4838 899.4177 894.7523 888.6837 885.9079 883.7507 882.0527 880.8073 880.5885 880.2426 879.9109 879.3345 879.1309 878.8809 878.6229 878.0423 876.8705 875.8494 874.4933 869.2425 866.2924 862.6741 852.3201 846.2839 839.8915 832.9404 819.1021 811.303 804.379 798.7623 789.2162 784.5793 781.1348 778.5971 773.9263 771.8391 769.7766 768.3207 766.4572 765.6554 764.9289 764.7057 765.398 765.9357 766.5966 767.4607 771.3391 776.0172 780.1177 784.5804 794.775 800.2888 805.3606 809.4905 816.4316 819.2532 820.6646 820.7285 818.3925 816.3401 814.3066 812.3024 
1065.682 1063.659 1058.149 1054.891 1051.489 1048.112 1040.793 1035.962 1029.502 1013.363 1007.323 1001.775 996.2044 985.7863 980.7837 975.4913 969.5923 959.1683 954.4702 949.2073 943.4915 933.2095 928.4973 924.1072 919.8063 910.1956 904.4838 899.419 893.7957 883.2593 879.5158 877.2144 875.4317 871.6034 870.0745 869.1422 868.9319 869.3187 869.5083 869.7549 869.9562 870.2164 869.9698 869.0942 867.8972 864.4864 862.1901 859.5099 856.0599 846.0728 840.2339 833.6641 820.4442 812.999 805.7463 800.0615 790.3276 785.2565 781.3976 778.5997 773.8342 771.5996 769.6544 768.2631 766.2238 765.4219 764.6909 764.5952 765.4261 766.0447 766.7286 767.4607 772.5382 777.5085 781.3141 785.7742 796.5694 802.0939 807.0507 811.4476 819.1159 822.341 825.0438 826.4346 824.6908 822.3644 820.0381 817.7645 
