NCOLS 133
NROWS 80
XLLCORNER 275926.32
YLLCORNER 3833698.9
CELLSIZE 10
NODATA_VALUE -9999
1611.948 1613.715 1614.332 1614.521 1612.561 1604.561 1598.878 1601.253 1600.963 1605.136 1607.124 1604.3 1600.158 1595.979 1591.814 1588.04 1581.214 1580.442 1582.889 1587.644 1592.965 1601.619 1606.396 1610.204 1614.097 1618.727 1621.634 1624.414 1623.336 1621.616 1619.364 1615.402 1611.432 1600.313 1596.289 1593.398 1590.044 1586.989 1580.115 1576.709 1573.523 1571.328 1571.998 1573.984 1577.773 1578.585 1578.838 1578.642 1577.46 1575.117 1571.681 1569.388 1569.36 1570.67 1570.852 1568.425 1565.761 1562.976 1561.302 1562.734 1566.599 1572.772 1574.849 1576.418 1577.772 1578.74 1579.836 1580.038 1581.42 1583.336 1583.618 1583.919 1583.625 1582.76 1581.529 1580.556 1580.146 1580.083 1581.542 1583.031 1584.978 1587.485 1590.376 1596.346 1598.572 1600.439 1602.192 1602.913 1601.84 1601.013 1600.282 1599.163 1597.912 1598.084 1597.891 1597.483 1597.315 1596.688 1594.398 1590.604 1586.845 1585.584 1585.086 1584.864 1584.662 1584.373 1583.263 1582.058 1580.656 1579.007 1577.341 1576.44 1575.555 1575.283 1574.955 1575.252 1575.948 1576.163 1576.203 1576.156 1576.09 1576.075 1575.737 1573.061 1571.131 1568.784 1566.579 1565.07 1563.684 1558.691 1551.377 1544.436 1538.501
1612.028 1613.725 1614.564 1614.505 1610.8 1609.315 1607.984 1601.253 1606.94 1610.678 1610.766 1607.735 1603.458 1598.958 1594.255 1589.351 1582.373 1581.755 1583.844 1587.713 1592.879 1600.941 1605.47 1609.805 1614.55 1620.045 1623.699 1627.449 1626.292 1624.015 1621.601 1617.18 1607.136 1602.168 1597.967 1594.349 1591.068 1588.088 1580.536 1576.068 1572.911 1572.548 1574.832 1577.599 1581.2 1582.011 1582.192 1581.643 1580.386 1574.648 1571.681 1571.757 1572.694 1574.283 1574.771 1572.339 1569.132 1565.348 1563.414 1565.507 1569.385 1575.098 1576.985 1578.719 1580.354 1581.707 1584.16 1584.851 1585.293 1585.442 1584.814 1583.576 1581.357 1579.332 1577.249 1576.229 1575.555 1575.558 1576.667 1577.967 1579.628 1581.67 1583.746 1588.818 1592.328 1596.067 1598.854 1600.113 1600.718 1600.41 1600 1599.202 1597.912 1597.159 1596.521 1595.924 1595.603 1594.589 1592.423 1590.215 1586.298 1585.294 1585.321 1585.88 1586.191 1586.307 1584.874 1583.593 1582.117 1580.642 1579.508 1577.861 1577.38 1577.028 1576.88 1576.904 1576.799 1576.557 1576.331 1576.192 1576.07 1575.918 1576.034 1573.873 1571.492 1568.319 1565.484 1563.564 1558.851 1553.074 1547.223 1542.678 1536.945
1612.595 1614.31 1615.083 1614.849 1611.273 1609.764 1607.984 1608.175 1612.435 1615.319 1614.903 1611.589 1607.092 1601.901 1596.518 1585.812 1583.15 1583.384 1586.639 1591.186 1595.679 1602.718 1605.867 1609.845 1615.276 1621.443 1625.963 1630.751 1629.875 1626.912 1623.285 1618.624 1608.54 1603.464 1598.796 1594.696 1591.112 1588.238 1581.037 1575.755 1573.682 1575.497 1578.226 1581.368 1585.229 1585.771 1585.5 1584.721 1580.386 1574.648 1573.167 1573.724 1575.301 1576.619 1576.973 1575.062 1572.144 1569.306 1569.429 1571.943 1573.037 1577.25 1579.435 1581.658 1583.585 1584.894 1586.95 1587.597 1587.304 1586.607 1585.628 1583.201 1578.938 1576.44 1573.994 1572.476 1571.89 1571.873 1572.226 1573.026 1574.616 1576.699 1578.712 1583.009 1585.813 1589.335 1592.939 1595.563 1597.472 1599.64 1599.447 1599.202 1598.411 1597.584 1595.286 1594.703 1594.315 1593.639 1591.883 1589.251 1585.874 1585.869 1586.295 1586.527 1586.875 1586.878 1585.739 1584.448 1583.062 1582.007 1581.167 1579.751 1579.165 1578.672 1578.28 1577.857 1577.423 1576.719 1576.409 1576.143 1575.657 1575.164 1574.875 1572.078 1569.379 1566.209 1562.919 1560.601 1553.269 1548.826 1544.91 1541.148 1537.063
1613.947 1615.969 1616.387 1615.983 1612.4 1609.764 1610.563 1613.333 1617.573 1621.38 1619.68 1614.854 1609.609 1603.992 1598.182 1586.871 1584 1584.646 1588.253 1593.218 1597.855 1604.636 1607.012 1610.66 1617.148 1623.525 1632.285 1634.421 1633.613 1629.56 1624.445 1619.607 1609.566 1604.097 1599.068 1594.832 1590.925 1588.125 1580.938 1577.317 1577.557 1579.554 1582.304 1587.344 1588.812 1589.396 1589.123 1584.721 1583.501 1578.67 1576.846 1577 1578.043 1578.806 1578.949 1576.316 1574.413 1572.749 1572 1573.471 1577.365 1579.512 1581.808 1584.116 1585.999 1587.165 1587.547 1587.24 1586.604 1585.745 1584.318 1581.944 1577.358 1575.357 1572.924 1570.231 1568.474 1567.205 1567.747 1568.865 1570.425 1572.295 1574.269 1578.526 1581.027 1583.738 1586.688 1590.249 1593.322 1598.466 1599.447 1599.153 1598.667 1598.163 1596.125 1595.158 1594.315 1593.234 1591.954 1590.491 1586.958 1587.21 1587.736 1587.733 1587.672 1587.504 1586.241 1585.215 1584.165 1583.305 1582.491 1581.195 1580.494 1579.803 1579.144 1578.603 1578.011 1576.785 1576.156 1575.347 1574.479 1573.723 1570.392 1567.332 1564.742 1562.865 1560.141 1557.22 1549.224 1545.509 1542.43 1539.939 1537.063
1617.34 1618.72 1618.398 1617.654 1612.4 1611.916 1614.603 1619.194 1623.042 1624.52 1622.166 1617.281 1611.272 1605.542 1599.488 1590.137 1586.101 1585.938 1589.608 1594.927 1598.919 1606.521 1609.369 1614.012 1620.949 1627.377 1635.949 1637.012 1635.298 1630.859 1625.474 1620.615 1611.352 1605.455 1599.375 1594.531 1590.106 1586.313 1582.294 1581.196 1581.125 1583.14 1586.349 1592.265 1593.284 1593.18 1589.123 1588.391 1587.447 1584.405 1583.002 1582.321 1582.419 1582.529 1582.012 1578.309 1576.008 1574.526 1574.66 1576.228 1579.19 1581.112 1583.072 1584.885 1586.606 1587.121 1585.786 1584.829 1583.927 1582.933 1581.577 1578.079 1576.328 1574.293 1571.432 1568.167 1565.432 1562.116 1563.321 1565.032 1566.703 1568.366 1570.176 1574.032 1576.561 1579.263 1582.181 1585.327 1592.353 1598.466 1599.113 1598.886 1598.838 1598.563 1596.603 1595.323 1594.192 1593.078 1591.822 1590.894 1589.405 1588.919 1588.572 1588.37 1588.343 1587.54 1586.861 1586.12 1585.37 1584.713 1583.993 1582.417 1581.446 1580.682 1579.976 1579.231 1578.424 1576.422 1575.512 1574.496 1573.191 1571.004 1564.953 1562.339 1560.191 1558.11 1556.33 1553.92 1547.019 1542.597 1538.947 1539.939 1537.731
1620.751 1620.371 1619.552 1617.654 1617.316 1618.794 1620.815 1622.937 1624.974 1625.565 1623.74 1619.267 1613.422 1608.568 1603.706 1596.295 1590.867 1588.899 1593.086 1598.534 1602.374 1610.26 1614.655 1620.396 1626.739 1633.012 1639.07 1638.518 1635.747 1631.588 1626.614 1621.712 1612.317 1606.309 1600.233 1595.411 1590.454 1584.904 1583.675 1582.78 1583.967 1588.095 1593.347 1597.982 1597.95 1593.18 1592.623 1591.916 1591.095 1588.013 1586.291 1585.961 1586.484 1586.132 1583.328 1581.385 1579.688 1578.816 1579.185 1580.229 1581.3 1581.666 1582.361 1583.426 1584.695 1584.735 1582.721 1581.63 1580.642 1579.694 1578.562 1576.339 1574.934 1572.253 1568.402 1565.326 1563.197 1559.384 1559.992 1561.539 1563.077 1564.733 1566.002 1569.613 1571.911 1574.677 1577.787 1585.327 1592.353 1595.601 1597.714 1598.678 1599.012 1598.588 1596.576 1594.899 1593.413 1592.518 1591.692 1590.953 1589.87 1589.426 1589.061 1588.798 1588.606 1587.998 1587.465 1586.957 1586.465 1585.906 1585.331 1583.128 1582.311 1581.68 1580.991 1580.094 1577.435 1575.479 1573.968 1572.915 1570.857 1567.698 1560.99 1559.491 1558.244 1555.817 1551.701 1549.771 1544.229 1539.386 1538.947 1536.646 1535.161
1622.935 1620.371 1619.552 1620.073 1620.304 1620.863 1623.159 1626.029 1627.673 1627.059 1624.63 1620.987 1616.542 1612.279 1608.702 1600.892 1596.049 1593.545 1596.984 1602.535 1612.172 1617.161 1622.122 1627.428 1633.243 1637.759 1641.692 1640.099 1636.774 1632.746 1628.16 1623.425 1612.261 1606.866 1602.381 1598.091 1593.399 1584.893 1583.589 1585.136 1589.506 1595.348 1599.43 1601.57 1597.95 1597.162 1595.953 1595.155 1594.864 1594.071 1593.393 1592.824 1591.939 1590.525 1586.535 1584.411 1583.417 1583.586 1583.779 1584.104 1583.071 1582.242 1581.925 1581.681 1581.535 1581.44 1579.063 1577.97 1577.214 1576.703 1576.04 1574.047 1571.65 1567.443 1563.185 1561.18 1559.789 1556.834 1556.147 1557.636 1559.47 1560.906 1562.861 1564.278 1566.829 1570.155 1577.787 1581.066 1587.481 1590.918 1593.885 1595.943 1597.085 1597.093 1594.567 1593.085 1592.219 1591.717 1591.203 1590.28 1589.92 1589.582 1589.274 1588.995 1588.818 1588.055 1587.612 1587.17 1586.713 1586.171 1585.509 1583.18 1582.87 1582.934 1582.662 1581.309 1576.926 1574.702 1573.563 1572.924 1570.892 1565.829 1559.216 1557.467 1555.207 1552.262 1549.613 1548.439 1544.656 1539.386 1536.146 1535.536 1534.288
1622.935 1622.25 1621.604 1621.602 1621.898 1623.521 1626.996 1630.682 1631.58 1628.706 1625.362 1621.775 1618.263 1614.763 1611.69 1603.591 1598.793 1596.531 1599.474 1604.927 1618.615 1624.282 1628.125 1632.439 1637.772 1642.638 1645.004 1642.527 1638.178 1633.814 1629.631 1619.712 1612.904 1607.567 1604.22 1600.543 1595.736 1584.601 1585.622 1590.584 1596.312 1600.771 1603.698 1601.57 1601.414 1600.796 1599.466 1598.574 1598.972 1599.649 1600.252 1600.024 1598.397 1595.357 1590.507 1587.9 1585.844 1585.597 1586.802 1586.853 1584.573 1582.735 1580.809 1579.485 1578.592 1577.07 1575.48 1574.184 1573.633 1573.492 1572.876 1569.669 1566.655 1563.119 1560.008 1558.018 1556.601 1551.255 1551.726 1554.417 1556.185 1557.446 1558.733 1559.654 1561.971 1570.155 1573.46 1576.755 1582.939 1585.528 1587.993 1590.131 1591.491 1592.456 1591.31 1590.936 1590.527 1590.577 1590.496 1590.09 1589.859 1589.658 1589.421 1589.139 1588.669 1588.124 1587.632 1587.001 1586.19 1585.582 1584.828 1583.881 1584.233 1584.823 1584.973 1583.858 1578 1575.828 1574.491 1574.497 1572.981 1565.614 1559.731 1557.865 1555.182 1552.761 1551.411 1549.767 1544.656 1541.033 1538.974 1538.245 1537.416
1624.895 1624.585 1624.039 1623.995 1625.333 1628.369 1632.117 1634.458 1634.15 1629.739 1625.744 1621.784 1619.006 1616.598 1610.502 1606.355 1601.688 1599.28 1601.273 1606.054 1621.6 1626.847 1630.086 1634.424 1639.98 1646.15 1648.363 1645.071 1639.844 1634.779 1630.495 1621.061 1614.498 1608.986 1605.262 1601.427 1596.669 1585.373 1588.858 1595.856 1601.086 1604.952 1603.698 1605.501 1605.226 1604.405 1603.422 1602.725 1602.688 1603.081 1603.501 1603.404 1602.314 1600.182 1596.047 1593.676 1591.125 1589.681 1589.037 1587.894 1584.734 1582.26 1579.167 1576.44 1575.523 1574.214 1572.595 1571.181 1570.336 1569.582 1568.354 1564.558 1562.021 1559.537 1557.244 1555.422 1551.334 1548.906 1549.181 1551.534 1552.956 1553.908 1555.485 1556.702 1561.971 1565.494 1569.146 1572.623 1578.57 1580.988 1583.02 1584.635 1585.771 1587.286 1587.761 1588.308 1588.747 1589.163 1589.59 1589.818 1589.845 1589.706 1589.45 1589.027 1588.622 1588.111 1587.657 1586.927 1585.98 1585.592 1584.788 1585.166 1585.64 1585.991 1585.897 1584.424 1579.022 1577.063 1575.847 1573.949 1570.018 1562.743 1559.639 1557.896 1555.739 1553.979 1552.665 1549.767 1547.889 1544.445 1541.36 1540.372 1539.212
1626.93 1627.281 1627.467 1629.089 1631.02 1633.675 1636.173 1637.125 1636.034 1631.532 1627.186 1623.019 1620.593 1618.693 1612.648 1609.255 1605.491 1603.272 1604.096 1605.952 1621.001 1626.432 1629.823 1634.411 1639.89 1645.785 1649.593 1646.47 1641.315 1635.811 1631.387 1621.646 1615.727 1610.307 1605.885 1601.589 1597.357 1591.351 1594.83 1600.46 1601.086 1604.952 1609.191 1609.502 1609.067 1608.308 1607.343 1606.573 1605.978 1606.091 1606.632 1607.443 1608.027 1606.78 1601.622 1599.958 1597.481 1593.715 1589.552 1584.666 1582.37 1579.823 1576.928 1574.058 1572.576 1570.693 1569.328 1568.033 1566.902 1565.614 1564.196 1560.166 1557.966 1555.877 1554.062 1552.838 1549.864 1547.445 1546.871 1548.702 1550.443 1551.286 1551.622 1556.702 1558.598 1561.208 1564.723 1568.449 1574.863 1576.853 1578.269 1579.487 1580.481 1583.558 1584.882 1585.833 1586.648 1587.47 1588.317 1589.451 1589.609 1589.385 1588.949 1588.662 1588.517 1588.071 1587.704 1587.074 1586.401 1585.921 1585.58 1585.987 1586.218 1586.032 1585.414 1583.698 1578.648 1576.683 1575.179 1572.684 1567.647 1560.056 1558.748 1557.386 1556.145 1553.979 1552.665 1550.726 1549.244 1546.296 1542.778 1540.459 1538.575
1629.183 1630.133 1630.935 1632.874 1634.663 1636.985 1639.036 1639.521 1636.715 1634.441 1630.775 1626.797 1623.851 1622.095 1615.038 1611.21 1608.288 1606.745 1606.984 1606.625 1618.577 1624.804 1628.481 1632.99 1637.948 1647.246 1649.222 1647.578 1643.032 1637.777 1632.795 1622.106 1616.742 1611.639 1606.719 1601.928 1597.667 1595.258 1598.728 1600.46 1605.312 1609.301 1614.822 1615.379 1614.599 1613.119 1611.04 1609.764 1608.78 1609.107 1609.663 1610.621 1611.781 1611.568 1604.861 1601.542 1597.732 1592.888 1588.261 1582.236 1579.867 1577.436 1574.94 1572.466 1570.058 1566.124 1565.164 1564.416 1563.647 1562.439 1560.259 1555.635 1553.633 1552.132 1550.933 1549.987 1545.788 1542.423 1541.522 1543.802 1546.081 1547.573 1551.622 1552.752 1555.158 1557.998 1560.756 1567.573 1570.693 1572.883 1573.68 1573.594 1574.252 1578.607 1580.132 1581.412 1582.749 1584.261 1585.851 1587.627 1587.895 1587.872 1587.736 1587.9 1588.097 1587.615 1587.648 1587.778 1586.781 1586.337 1586.173 1586.445 1586.316 1585.398 1583.723 1582.19 1577.809 1575.719 1574.12 1571.257 1567.057 1560.786 1559.36 1558.175 1556.145 1554.441 1552.567 1548.673 1547.684 1545.728 1542.51 1538.795 1536.588
1631.103 1632.333 1633.35 1636.33 1638.378 1640.679 1642.769 1643.095 1638.919 1636.594 1633.919 1630.659 1627.317 1625.073 1617.685 1613.006 1610.334 1609.882 1610.069 1609.197 1615.408 1621.138 1624.933 1629.725 1634.805 1643.305 1646.637 1647.707 1644.895 1639.369 1635.043 1623.357 1617.87 1612.859 1607.612 1602.375 1595.533 1597.607 1598.728 1604.308 1609.143 1613.212 1620.555 1623.109 1622.868 1620 1616.95 1614.284 1612.268 1612.504 1612.885 1613.408 1613.417 1609.457 1604.717 1599.676 1595.184 1590.438 1586.509 1580.313 1577.739 1575.417 1572.83 1569.863 1566.847 1562.044 1561.244 1560.793 1559.683 1557.292 1552.043 1550.735 1549.628 1548.365 1546.352 1543.622 1539.447 1538.099 1537.208 1538.1 1540.303 1547.573 1547.622 1548.788 1551.78 1554.894 1557.649 1563.145 1565.669 1567.56 1568.484 1568.588 1569.221 1572.578 1574.281 1575.557 1576.52 1577.888 1579.938 1582.818 1583.707 1584.429 1585.078 1585.609 1586.561 1586.611 1586.925 1587.317 1587 1586.606 1587.07 1586.603 1585.536 1583.951 1581.849 1579.509 1576.66 1575.065 1573.239 1570.826 1567.476 1562.445 1561.024 1558.175 1556.95 1555.076 1552.788 1548.783 1547.483 1545.875 1543.171 1539.556 1535.116
1633.202 1634.69 1638.48 1640.554 1642.784 1644.808 1646.078 1646.235 1641.081 1638.078 1635.812 1633.068 1629.198 1625.572 1619.016 1616.211 1614.468 1614.197 1613.852 1613.448 1615.306 1618.017 1621.878 1626.457 1631.474 1639.336 1643.922 1646.114 1644.722 1641.365 1637.436 1626.85 1620.76 1614.743 1608.572 1602.798 1597.224 1597.607 1603.336 1609.342 1613.743 1617.802 1624.195 1625.623 1625.435 1623.855 1621.884 1619.431 1617.115 1616.766 1615.937 1615.104 1614.136 1609.388 1602.794 1596.169 1591.278 1586.955 1583.963 1578.005 1575.284 1572.677 1569.744 1566.145 1563.225 1558.506 1556.587 1555.644 1554.661 1552.326 1549.121 1548.146 1546.521 1545.147 1545.076 1544.846 1542.817 1540.855 1538.493 1538.1 1540.303 1543.108 1544.274 1546.439 1549.574 1552.49 1554.784 1559.584 1561.612 1563.062 1563.689 1563.7 1563.774 1564.794 1567.453 1569.593 1570.372 1571.286 1574.404 1575.864 1577.198 1578.464 1579.693 1580.875 1582.713 1583.467 1583.997 1584.361 1584.9 1585.294 1586.502 1586.12 1584.291 1581.956 1579.66 1574.418 1573.427 1572.981 1571.786 1569.893 1567.478 1563.395 1561.024 1559.676 1558.113 1556.026 1553.938 1551.076 1549.304 1547.022 1544.208 1541.77 1537.04
1634.853 1637.755 1643.054 1645.124 1646.909 1648.112 1648.44 1647.651 1642.209 1639.482 1637.079 1633.956 1629.384 1624.749 1620.236 1619.937 1619.714 1619.538 1618.8 1617.915 1618.295 1619.06 1622.074 1625.898 1630.09 1637.878 1643.265 1646.689 1646.247 1643.097 1639.688 1630.987 1624.492 1617.319 1609.249 1603.721 1597.224 1602.659 1609.761 1614.565 1618.618 1622.199 1626.66 1627.484 1627.284 1626.411 1624.579 1621.346 1620.76 1619.985 1617.905 1615.316 1613.594 1605.677 1598.686 1592.188 1587.023 1583.714 1580.843 1574.391 1570.438 1567.392 1565.099 1562.521 1560.73 1560.609 1560.328 1559.462 1557.435 1554.865 1551.457 1550.741 1550.888 1551.62 1552.018 1551.711 1549.542 1546.923 1538.493 1536.595 1535.95 1538.95 1539.976 1541.776 1545.438 1549.558 1551.862 1555.447 1557.224 1558.447 1558.995 1558.895 1558.432 1559.065 1561.909 1564.647 1565.292 1565.556 1568.783 1570.498 1571.611 1572.734 1573.863 1574.98 1577.192 1578.326 1579.232 1579.927 1580.829 1581.946 1583.515 1584.364 1583.661 1581.052 1577.994 1573.415 1571.346 1570.179 1569.393 1567.737 1566.573 1563.395 1561.885 1560.553 1559.083 1557.043 1554.629 1552.875 1550.812 1548.692 1546.419 1544.205 1538.376
1635.573 1640.199 1647.647 1648.417 1648.808 1649.247 1648.773 1646.921 1641.479 1638.722 1636.227 1633.561 1630.045 1624.128 1623.619 1623.928 1624.082 1623.842 1622.769 1620.837 1621.457 1622.002 1624.247 1628.852 1632.622 1640.862 1645.972 1648.597 1647.678 1644.663 1637.257 1632.423 1626.643 1619.065 1609.958 1603.721 1602.96 1609.048 1614.731 1619.197 1622.972 1625.704 1628.901 1630.008 1630.398 1629.189 1627.319 1624.303 1622.556 1620.212 1617.36 1614.218 1611.304 1600.803 1594.157 1588.274 1583.792 1580.861 1577.589 1571 1570.859 1571.131 1571.118 1570.782 1568.775 1568.478 1568.208 1567.179 1565.374 1563.009 1557.424 1556.832 1557.112 1557.384 1557.392 1556.732 1553.98 1546.923 1543.364 1539.51 1536.569 1534.599 1535.533 1535.843 1537.876 1543.23 1547.622 1551.467 1552.461 1552.91 1552.933 1552.749 1554.11 1556.471 1559.005 1560.688 1560.668 1560.308 1564.832 1566.934 1568.041 1568.898 1569.568 1570.09 1572.08 1573.172 1574.13 1575.069 1576.083 1578.508 1579.655 1580.305 1579.98 1578.751 1576.65 1572.335 1570.501 1568.595 1566.781 1565.014 1566.573 1564.354 1562.799 1561.393 1560.182 1559.089 1557.159 1555.43 1553.108 1550.898 1548.912 1547.014 1541.667
1635.147 1640.573 1649.77 1649.841 1648.892 1648.652 1647.992 1645.989 1640.1 1637.014 1634.495 1633.19 1632.013 1629.919 1629.567 1629.256 1628.133 1626.536 1624.801 1622.404 1624.245 1626.013 1628.295 1632.186 1635.76 1643.552 1647.595 1649.458 1648.491 1645.422 1637.537 1632.732 1626.788 1619.259 1609.958 1605.537 1608.122 1613.615 1618.947 1623.146 1626.464 1630.848 1631.988 1632.585 1632.662 1631.96 1630.113 1625.769 1622.749 1619.267 1615.527 1611.77 1608.243 1598.066 1592.011 1586.528 1582.374 1578.654 1572.186 1573.359 1575.583 1576.751 1577.384 1577.329 1575.827 1575.384 1574.91 1574.115 1572.606 1569.311 1562.708 1562.535 1562.783 1562.845 1562.583 1559.71 1553.98 1552.33 1549.568 1545.026 1540.509 1533.993 1532.464 1532.884 1534.165 1536.342 1540.05 1546.108 1547.488 1547.978 1547.681 1547.248 1550.36 1552.959 1554.694 1555.609 1555.695 1556.555 1562.257 1564.269 1565.37 1565.965 1566.133 1565.753 1565.941 1568.36 1570.137 1571.094 1572.054 1574.475 1575.614 1577.014 1577.591 1576.786 1575.583 1571.783 1569.914 1567.397 1564.241 1565.014 1564.211 1563.397 1563.478 1563.113 1561.913 1561.469 1560.214 1558.46 1555.707 1552.952 1550.783 1549.217 1545.167
1633.551 1638.213 1647.524 1649.162 1649.076 1648.453 1647.401 1643.544 1640.707 1637.75 1635.869 1635.13 1634.911 1635.179 1635.187 1634.377 1632.336 1629.614 1627.495 1626.21 1627.713 1629.525 1631.468 1634.236 1641.138 1644.695 1647.982 1649.545 1648.653 1645.843 1637.093 1632.296 1626.788 1619.259 1610.941 1606.802 1611.724 1618.135 1623.288 1626.913 1630.078 1634.18 1635.003 1635.519 1635.631 1634.684 1632.178 1625.955 1622.388 1617.789 1612.889 1609.067 1605.489 1597.295 1591.844 1586.793 1582.26 1577.642 1575.179 1578.611 1580.532 1580.872 1580.891 1580.732 1579.839 1579.219 1578.492 1577.435 1576.101 1574.006 1568.993 1568.327 1567.749 1567.199 1566.688 1559.71 1557.521 1555.286 1553.122 1550.185 1545.773 1538.597 1534.623 1531.502 1531.083 1532.232 1537.185 1539.862 1541.782 1542.446 1542.021 1541.744 1547.255 1549.659 1550.837 1550.971 1550.654 1551.597 1559.157 1561.648 1562.896 1563.387 1563.069 1560.527 1561.701 1564.508 1566.434 1567.563 1568.721 1571.353 1572.727 1574.16 1575.184 1575.875 1575.724 1571.901 1568.532 1567.397 1564.241 1562.031 1561.806 1562.318 1562.634 1562.769 1562.803 1562.473 1561.819 1560.214 1557.741 1555.121 1552.544 1550.879 1547.766
1631.138 1635.141 1644.015 1647.356 1648.862 1648.309 1647.066 1644.644 1643.047 1641.897 1640.933 1639.519 1639.283 1638.74 1638.263 1636.825 1634.394 1632.12 1631.72 1631.225 1632.9 1634.513 1635.475 1637.029 1643.084 1645.685 1648.187 1649.79 1649.135 1646.151 1635.665 1632.296 1626.617 1619.746 1611.867 1607.206 1616.787 1623.32 1627.695 1631.482 1634.765 1637.947 1638.315 1638.585 1637.94 1635.937 1632.5 1625.705 1621.422 1615.576 1610.108 1605.98 1599.34 1594.106 1588.763 1584.841 1580.776 1577.203 1581.784 1585.4 1585.951 1585.032 1584.416 1584.089 1583.514 1583.022 1582.33 1581.214 1579.433 1574.895 1574.149 1573.684 1572.89 1571.979 1566.688 1563.17 1560.587 1558.047 1555.662 1552.908 1549.494 1542.813 1539.84 1535.788 1531.294 1529.178 1531.618 1534.054 1536.065 1536.975 1536.574 1536.503 1543.281 1545.632 1546.7 1546.913 1547.528 1549.101 1555.491 1557.687 1559 1559.389 1559.021 1557.933 1559.238 1561.697 1563.531 1564.167 1564.34 1568.574 1571.382 1573.254 1574.602 1575.722 1576.184 1572.471 1568.532 1564.985 1562.36 1560.71 1558.941 1559.355 1559.863 1560.165 1560.236 1560.569 1559.822 1559.115 1557.264 1554.384 1552.521 1550.508 1549.602
1628.067 1636.232 1640.832 1645.063 1647.807 1648.505 1647.287 1645.296 1645.17 1645.576 1645.509 1644.776 1644.58 1642.759 1641.421 1638.937 1635.953 1635.041 1635.382 1634.758 1635.78 1638.413 1639.969 1641.035 1645.42 1647.387 1649.262 1650.266 1649.364 1646.366 1635.665 1631.314 1626.696 1620.237 1613.542 1614.186 1622.155 1628.087 1632.387 1636.191 1639.684 1643.688 1642.91 1641.281 1638.655 1634.876 1630.884 1622.941 1617.755 1611.691 1606.356 1601.648 1594.152 1588.96 1584.629 1582.214 1580.712 1580.634 1587.874 1590.654 1591.455 1591.26 1590.885 1590.352 1588.598 1587.606 1586.318 1584.538 1582.579 1579.106 1578.102 1577.438 1576.671 1571.979 1570.787 1566.157 1563.3 1560.626 1558.196 1555.386 1552.365 1546.938 1544.336 1541.188 1537.075 1531.74 1527.166 1527.451 1528.456 1530.077 1531.466 1533.488 1540.02 1541.915 1542.552 1543.057 1545.315 1551.133 1552.937 1554.046 1554.468 1554.419 1554.325 1553.989 1555.228 1557.299 1558.902 1559.682 1560.429 1566.528 1569.926 1572.934 1575.435 1576.937 1575.639 1572.471 1568.757 1564.535 1561.354 1560.514 1556.245 1554.404 1554.537 1554.715 1555.176 1555.657 1555.755 1555.773 1555.407 1554.075 1552.708 1550.028 1549.61
1624.049 1633.539 1638.922 1644.011 1647.501 1648.975 1648.532 1647.109 1647.212 1647.596 1648.148 1648.46 1648.359 1645.879 1643.62 1641.705 1640.92 1640.478 1641.667 1640.942 1640.45 1641.489 1642.958 1644.693 1648.579 1650.913 1653.019 1653.332 1650.3 1646.366 1636.351 1632.476 1628.786 1624.1 1619.049 1619.35 1626.548 1631.977 1636.557 1640.38 1644.573 1648.546 1645.855 1642.132 1638.096 1632.933 1622.33 1616.762 1611.789 1607.33 1602.077 1599.036 1591.127 1585.903 1585.191 1586.153 1587.509 1588.01 1593.031 1595.456 1597.118 1598.156 1598.623 1598.417 1597.074 1594.349 1590.873 1587.767 1585.175 1582.165 1581.275 1577.438 1576.671 1575.889 1574.769 1569.68 1566.696 1563.924 1561.2 1558.56 1553.711 1551.612 1549.019 1545.446 1541.164 1536.565 1528.399 1525.769 1524.275 1524.432 1526.398 1529.016 1536.487 1538.477 1538.728 1539.143 1542.026 1548.291 1550.2 1550.737 1550.61 1550.317 1550.08 1549.786 1551.144 1552.604 1552.584 1552.672 1557.074 1565.988 1569.419 1573.072 1575.94 1576.76 1575.639 1573.987 1571.06 1566.958 1563.557 1561.133 1555.744 1552.071 1549.301 1548.757 1549.138 1549.736 1550.976 1551.311 1552.121 1553.035 1552.596 1549.078 1548.094
1618.957 1631.755 1637.77 1643.53 1647.949 1649.775 1649.926 1649.698 1650.035 1650.338 1650.72 1651.138 1649.984 1648.242 1645.803 1644.2 1644.471 1645.271 1647.151 1645.891 1644.185 1644.212 1646.087 1648.832 1653.371 1654.941 1655.726 1654.997 1650.3 1643.644 1639.831 1636.086 1632.407 1628.172 1624.175 1622.981 1629.153 1634.911 1639.122 1643.114 1647.347 1649.081 1646.139 1642.362 1637.414 1630.883 1618.332 1613.079 1610.082 1608.555 1605.283 1602.563 1592.867 1588.15 1590.93 1595.401 1597.302 1597.581 1597.769 1600.114 1602.11 1603.137 1603.712 1603.467 1602.228 1599.549 1595.711 1591.796 1588.301 1584.327 1581.275 1580.55 1579.628 1578.54 1577.169 1572.708 1570.229 1567.826 1564.709 1561.736 1558.019 1555.879 1553.381 1549.972 1545.295 1539.918 1532.154 1529.129 1526.264 1524.035 1523.303 1527.78 1531.064 1533.355 1534.791 1536.924 1539.969 1544.2 1545.464 1545.92 1546.145 1545.95 1545.558 1545.763 1546.827 1548.087 1548.715 1549.604 1559.737 1564.449 1568.585 1573.255 1576.616 1576.76 1576.838 1575.877 1573.683 1570.479 1566.995 1563.95 1557.131 1553.521 1550.574 1548.539 1547.992 1544.935 1544.797 1546.429 1548.007 1549.328 1549.865 1547.211 1545.537
1614.371 1629.355 1635.669 1642.314 1648.057 1650.23 1650.208 1652.331 1654.195 1654.871 1654.045 1653.815 1652.347 1650.66 1648.24 1646.634 1647.232 1648.998 1650.184 1648.812 1647.135 1647.823 1651.829 1655.474 1658.454 1658.61 1658.039 1654.997 1652.291 1646.755 1643.363 1639.344 1635.292 1630.556 1626.332 1625.667 1631.307 1636.433 1640.131 1643.656 1647.288 1648.976 1645.967 1642.478 1638.12 1632.568 1622.669 1618.985 1616.226 1614.208 1612.282 1608.382 1595.75 1595.532 1598.707 1601.648 1602.761 1602.985 1603.519 1604.944 1606.402 1607.07 1607.443 1607.266 1606.291 1603.727 1599.839 1596.251 1592.68 1584.327 1583.727 1582.984 1581.957 1580.797 1577.278 1575.538 1574.279 1572.319 1569.091 1566.082 1562.194 1559.901 1557.207 1553.972 1549.83 1543.946 1535.625 1533.639 1531.009 1527.757 1524.535 1523.566 1525.928 1527.961 1530.574 1534.274 1537.888 1540.686 1540.753 1540.848 1541.038 1541.004 1540.582 1539.856 1543.162 1547.635 1548.042 1549.819 1557.339 1561.753 1566.916 1572.858 1576.616 1577.392 1577.302 1576.767 1576.004 1573.971 1570.236 1566.59 1560.976 1557.873 1554.522 1551.51 1550.071 1541.163 1537.937 1539.527 1541.702 1543.708 1544.873 1544.781 1542.769
1611.7 1625.583 1631.748 1638.265 1644.556 1648.385 1651.386 1653.274 1655.478 1656.974 1656.948 1656.313 1654.544 1653.283 1652.028 1651.8 1652.725 1653.548 1653.258 1652.735 1653.181 1655.371 1658.931 1660.063 1661.067 1661.929 1658.039 1656.806 1654.681 1648.943 1645.867 1641.43 1636.411 1632.266 1628.803 1629.133 1632.604 1636.749 1640.842 1643.646 1649.01 1648.655 1646.238 1644.008 1641.601 1637.887 1632.009 1627.562 1622.858 1618.199 1613.861 1609.273 1600.995 1602.817 1604.747 1605.365 1605.754 1607.868 1608.929 1609.807 1610.421 1610.691 1610.802 1610.432 1609.851 1607.703 1603.741 1599.812 1592.68 1587.437 1586.307 1584.971 1583.575 1582.318 1579.55 1578.179 1576.753 1575.09 1572.954 1570.661 1566.194 1563.525 1560.393 1556.976 1553.032 1548.039 1540.206 1538.723 1536.556 1533.245 1529.162 1521.024 1521.661 1524.475 1527.384 1530.735 1533.472 1536.039 1536.383 1536.855 1537.044 1537.573 1537.983 1539.136 1544.043 1549.35 1549.645 1549.718 1554.584 1559.034 1563.738 1572.858 1577.15 1578.061 1577.746 1576.839 1576.123 1575.093 1572.538 1565.781 1563.825 1561.933 1559.052 1555.432 1552.463 1543.371 1538.176 1536.062 1536.619 1538.238 1539.719 1542.209 1540.507
1609.935 1622.18 1627.644 1632.694 1637.895 1642.369 1648.558 1650.349 1653.266 1656.502 1658.346 1658.288 1657.06 1656.206 1655.873 1656.196 1657.574 1658.327 1657.932 1656.887 1657.717 1660.812 1663.191 1662.356 1661.067 1661.929 1660.384 1658.358 1656.741 1650.016 1647.034 1642.918 1637.758 1633.984 1631.499 1632.323 1634.852 1638.704 1643.087 1645.211 1650.209 1649.297 1647.547 1647.497 1645.996 1642.612 1635.797 1630.695 1625.685 1620.452 1613.728 1606.962 1607.987 1609.453 1610.194 1609.723 1609.632 1612.469 1613.437 1613.86 1614.03 1614.066 1613.743 1612.743 1611.323 1609.279 1606.584 1599.812 1594.005 1591.443 1589.26 1587.169 1585.185 1583.526 1581.223 1579.883 1578.333 1576.713 1575.095 1573.947 1569.807 1566.908 1563.162 1559.291 1555.306 1547.703 1545.368 1543.276 1540.967 1538.002 1534.038 1522.082 1518.977 1520.483 1524.106 1527.231 1529.166 1529.674 1529.737 1531.827 1535.124 1535.91 1540.538 1545.344 1550.087 1552.752 1553.539 1555.278 1559.65 1559.034 1563.738 1570.154 1576.336 1579.786 1577.207 1576.369 1575.766 1574.749 1572.888 1567.261 1565.262 1564.076 1562.286 1559.099 1555.31 1549.033 1543.113 1538.143 1536.498 1535.739 1535.813 1538.963 1538.032
1609.344 1619.718 1624.082 1627.953 1631.872 1635.845 1643.129 1646.272 1649.973 1653.988 1657.262 1658.915 1658.764 1658.778 1659.895 1661.484 1660.492 1661.098 1661.173 1661.592 1661.954 1662.146 1663.955 1662.356 1662.17 1661.772 1660.964 1658.998 1656.837 1650.328 1647.385 1643.715 1639.105 1635.118 1634.296 1636.6 1639.858 1643.694 1646.659 1648.65 1653.136 1652.063 1650.626 1650.217 1648.359 1645.237 1635.364 1630.581 1625.879 1621.203 1615.733 1611.372 1613.431 1614.625 1615.275 1615.794 1616.367 1617.687 1618.01 1618.054 1617.654 1616.989 1616.182 1613.453 1611.098 1608.912 1606.584 1602.867 1596.854 1594.481 1592.067 1589.558 1587.197 1585.062 1582.336 1580.988 1579.466 1577.84 1576.313 1576.088 1572.529 1569.654 1565.612 1561.53 1558.07 1551.79 1549.326 1546.821 1544.189 1541.315 1537.961 1525.02 1518.725 1516.502 1519.165 1522.361 1524.461 1524.438 1526.055 1530.493 1535.065 1536.028 1541.611 1547.478 1552.07 1555.386 1558.615 1561.618 1559.65 1560.881 1562.661 1567.477 1574.235 1577.767 1576.651 1575.674 1574.75 1573.678 1571.836 1567.435 1565.58 1564.271 1562.943 1560.689 1556.523 1550.334 1545.922 1541.098 1538.462 1535.829 1531.189 1533.191 1533.301
1613.478 1617.619 1621.248 1624.477 1627.63 1630.955 1638.119 1642.398 1646.331 1650.363 1653.963 1656.38 1658.858 1659.592 1660.557 1661.553 1662.164 1663.057 1663.836 1664.215 1664.64 1665.426 1663.955 1665.067 1664.21 1662.673 1660.374 1657.789 1655.412 1650.253 1647.524 1644.444 1641.597 1639.398 1638.871 1640.909 1643.834 1646.788 1649.573 1652.037 1655.393 1655.353 1653.981 1651.711 1649.21 1645.943 1635.807 1630.586 1625.736 1621.365 1617.884 1617.699 1619.062 1619.853 1620.519 1621.128 1621.735 1622.558 1621.826 1620.944 1620.577 1619.833 1617.006 1614.929 1612.319 1608.912 1606.713 1604.422 1598.611 1596.146 1593.766 1591.351 1589.191 1586.56 1583.34 1581.93 1580.26 1578.076 1576.065 1574.398 1572.21 1569.58 1566.127 1562.499 1559.951 1554.94 1552.081 1549.472 1546.901 1543.997 1539.839 1526.132 1518.039 1513.893 1514.574 1516.946 1520.608 1524.482 1529.826 1535.109 1537.961 1539.42 1544.915 1548.521 1552.498 1556.678 1560.406 1561.618 1565.312 1567.013 1570.284 1573.311 1574.65 1576.401 1575.895 1574.713 1573.423 1571.963 1569.921 1564.984 1563.505 1562.525 1561.512 1559.593 1556.113 1549.612 1546.39 1542.863 1540.211 1536.896 1526.064 1527.576 1528.33
1612.338 1615.865 1618.928 1621.813 1624.649 1627.521 1633.843 1637.777 1641.799 1645.98 1649.934 1655.73 1657.612 1659.039 1660.213 1661.277 1662.53 1664.376 1664.935 1665.659 1666.462 1665.426 1666.516 1667.75 1666.78 1664.222 1660.164 1657.019 1653.82 1652.113 1649.533 1646.868 1644.587 1642.825 1642.912 1644.342 1646.809 1649.633 1652.294 1654.561 1657.556 1657.16 1655.41 1652.897 1650.27 1642.305 1636.673 1632.111 1627.576 1622.169 1620.733 1623.033 1624.103 1625.163 1625.973 1626.387 1626.726 1626.677 1624.632 1622.292 1621.785 1621.921 1618.104 1614.929 1612.319 1610.134 1608.946 1606.271 1598.9 1595.492 1592.684 1590.415 1588.304 1585.983 1582.467 1581.155 1579.292 1576.574 1573.673 1570.115 1567.926 1565.05 1562.479 1560.808 1559.793 1556.642 1553.938 1551.354 1549.045 1546.306 1540.891 1526.069 1517.248 1512.21 1511.876 1513.374 1521.537 1528.536 1535.356 1538.86 1541.36 1544.059 1549.361 1551.976 1554.832 1557.712 1560.406 1567.47 1569.609 1572.436 1574.907 1574.904 1575.294 1576.005 1575.728 1574.651 1572.966 1571.158 1568.89 1561.752 1560.57 1559.781 1558.905 1557.224 1551.618 1548.761 1545.916 1543.082 1540.063 1535.832 1525.711 1525.54 1525.844
1611.076 1614.321 1617.108 1619.699 1622.222 1624.965 1629.51 1632.658 1637.443 1641.956 1646.313 1653.733 1656.158 1657.866 1659.449 1661.267 1662.646 1664.897 1665.583 1666.226 1666.462 1667.148 1668.266 1669.355 1667.84 1664.878 1660.766 1657.786 1655.951 1654.562 1652.757 1650.699 1648.937 1647.734 1647.1 1647.961 1649.615 1651.832 1654.321 1656.29 1658.173 1657.253 1655.371 1653.046 1650.835 1643.025 1637.531 1632.417 1629.174 1627.781 1625.857 1628.489 1629.701 1631.066 1632.156 1632.536 1630.843 1627.868 1624.807 1622.696 1620.876 1619.142 1618.104 1615.564 1612.872 1610.517 1608.802 1606.205 1596.767 1593.167 1590.953 1588.415 1585.694 1581.601 1580.226 1578.815 1576.521 1573.368 1570.139 1565.649 1562.351 1559.108 1557.353 1556.989 1556.679 1555.167 1553.5 1551.647 1549.527 1546.033 1534.317 1525.992 1517.671 1512.594 1511.61 1512.723 1523.768 1532.168 1538.718 1541.829 1544.771 1547.97 1553.064 1555.391 1557.797 1557.712 1561.08 1567.768 1570.621 1573.658 1575.446 1575.141 1575.528 1575.687 1575.727 1575.235 1574.247 1572.024 1568.513 1561.704 1559.61 1557.137 1554.574 1553.47 1549.886 1546.837 1543.518 1540.646 1537.928 1534.937 1527.874 1526.171 1524.522
1609.305 1612.386 1614.896 1617.31 1619.827 1622.44 1627.057 1630.538 1634.917 1638.992 1644.48 1651.995 1654.871 1657.043 1658.922 1660.375 1662.01 1664.152 1664.834 1666.226 1666.978 1667.542 1668.628 1669.253 1668.686 1666.331 1663.042 1660.495 1657.98 1657.48 1656.313 1654.578 1653.197 1652.273 1651.752 1652.06 1652.763 1654.086 1655.893 1658.111 1657.917 1656.648 1654.801 1652.693 1650.17 1642.432 1636.862 1632.73 1631.366 1631.028 1630.943 1634.013 1635.508 1637.306 1638.375 1637.068 1630.655 1627.663 1624.639 1621.683 1618.79 1619.142 1614.599 1611.958 1609.4 1606.984 1604.37 1601.51 1595.047 1592.115 1589.478 1587.039 1584.886 1580.869 1579.014 1577.104 1574.652 1571.367 1568.156 1561.618 1558.456 1555.722 1553.744 1552.753 1552.477 1551.746 1550.852 1549.594 1547.819 1544.697 1534.15 1526.128 1518.048 1512.938 1511.675 1512.534 1525.849 1534.542 1540.075 1543.518 1547.298 1553.995 1556.613 1558.924 1557.797 1560.012 1563.08 1569.014 1571.481 1572.898 1573.413 1573.945 1574.527 1575.107 1575.292 1575.708 1575.337 1573.157 1565.592 1562.588 1559.97 1555.968 1551.041 1549.756 1547.064 1544.086 1540.654 1538.754 1537.973 1535.781 1529.015 1526.379 1524.745
1606.791 1609.83 1612.542 1614.897 1617.495 1622.939 1626.016 1629.432 1633.385 1638.244 1642.797 1650.74 1653.486 1655.661 1657.518 1659.073 1660.362 1662.621 1664.834 1665.628 1666.528 1667.21 1667.418 1667.297 1666.877 1665.348 1663.215 1661.175 1658.864 1658.471 1658.204 1657.636 1656.567 1656.059 1655.671 1655.726 1655.811 1656.268 1657.082 1658.012 1657.329 1656.007 1654.332 1652.526 1650.567 1644.026 1639.991 1635.198 1631.592 1633.133 1635.905 1636.283 1637.137 1637.662 1637.503 1636.246 1630.478 1627.098 1623.803 1620.175 1618.79 1615.955 1610.88 1608.463 1606.072 1603.678 1601.072 1595.824 1593.354 1590.955 1588.66 1586.537 1584.443 1580.49 1578.365 1576.016 1573.074 1569.373 1565.695 1558.91 1555.454 1552.363 1550.308 1549.382 1548.315 1547.083 1545.686 1544.384 1543.214 1541.361 1532.971 1525.879 1518.135 1513.055 1511.885 1512.85 1526.371 1534.071 1539.564 1544.608 1549.321 1556.797 1556.613 1558.924 1561.197 1563.57 1565.681 1569.208 1570.415 1571.298 1571.849 1572.462 1573.138 1574.327 1574.852 1575.337 1575.118 1572.975 1566.173 1562.997 1559.52 1555.471 1551.51 1549.18 1545.273 1542.755 1540.396 1538.559 1537.584 1534.761 1527.904 1525.572 1525.262
1604.662 1607.468 1610.183 1613.011 1615.637 1621.829 1625.394 1629.307 1633.465 1637.913 1642.127 1648.952 1651.553 1653.822 1655.83 1656.902 1661.226 1662.621 1663.82 1664.625 1665.267 1665.782 1665.727 1665.127 1664.594 1663.545 1662.008 1660.421 1658.503 1658.109 1657.925 1657.686 1657.136 1657.15 1657.302 1657.409 1657.37 1657.301 1657.407 1657.19 1656.353 1655.147 1653.836 1652.236 1650.835 1645.888 1642.987 1639.922 1637.715 1637.072 1637.479 1637.186 1636.697 1635.977 1634.882 1633.402 1628.404 1625.079 1621.76 1620.175 1616.58 1613.132 1607.583 1605.573 1603.565 1601.084 1598.661 1593.918 1591.99 1590.077 1588.099 1586.169 1584.17 1580.205 1577.853 1575.018 1571.598 1567.702 1563.745 1556.796 1553.227 1550.071 1547.968 1546.587 1544.512 1542.612 1540.554 1538.573 1537.493 1536.242 1530.199 1524.806 1518.546 1513.448 1512.307 1513.54 1527.933 1534.729 1539.447 1544.738 1549.793 1556.797 1559.83 1562.3 1564.497 1566.6 1568.301 1570.272 1570.638 1571.047 1571.385 1571.758 1572.901 1573.476 1573.979 1574.24 1573.604 1571.268 1565.567 1562.763 1559.616 1556.019 1552.711 1550.034 1545.438 1542.766 1540.042 1537.542 1535.45 1529.197 1526.138 1525.222 1527.081
1603.399 1606.127 1608.955 1611.939 1614.881 1621.351 1625.027 1629.035 1632.967 1636.811 1640.371 1646.338 1648.871 1651.112 1653.062 1656.902 1659.13 1660.124 1660.835 1661.538 1662.135 1662.16 1662.578 1662.426 1661.951 1661.118 1660.108 1659.067 1657.453 1656.985 1656.766 1656.805 1656.794 1657.103 1657.504 1657.822 1657.696 1657.361 1657.02 1655.749 1654.865 1653.831 1652.767 1651.522 1650.36 1646.676 1644.787 1643.046 1641.464 1640.356 1638.969 1638.078 1636.694 1634.737 1632.645 1630.432 1625.116 1622.217 1621.76 1618.081 1614.513 1608.289 1606.099 1603.977 1601.791 1599.247 1596.614 1592.376 1590.558 1588.881 1587.136 1585.149 1583.356 1579.251 1576.859 1573.799 1570.271 1566.062 1558.823 1555.246 1551.671 1548.61 1546.067 1544.673 1541.813 1539.311 1536.509 1534.193 1532.486 1531.219 1527.033 1523.106 1518.506 1514.638 1512.52 1520.741 1527.664 1533.822 1538.952 1544.167 1549.793 1558.537 1561.622 1564.146 1566.586 1568.686 1570.265 1571.231 1571.066 1571.149 1571.281 1571.34 1572.32 1572.637 1572.951 1572.812 1571.644 1569.489 1564.501 1561.975 1559.233 1556.272 1553.285 1550.451 1545.231 1542.124 1538.93 1536.506 1533.894 1528.523 1526.818 1527.568 1530.226
1603.809 1606.377 1609.003 1611.941 1614.975 1621.427 1625.049 1628.835 1632.375 1635.522 1638.407 1643.609 1645.967 1648.006 1653.062 1654.365 1656.416 1657.18 1657.737 1658.266 1658.705 1658.745 1659.294 1659.366 1659.199 1658.712 1658.158 1657.009 1656.526 1656.109 1655.863 1655.841 1655.887 1656.079 1656.469 1656.996 1656.766 1656.174 1655.289 1653.464 1652.621 1651.784 1651.063 1650.31 1648.104 1646.781 1645.562 1644.492 1643.425 1642.429 1640.536 1639.21 1636.882 1633.64 1630.5 1627.563 1621.97 1622.217 1619.116 1615.887 1612.736 1607.334 1605.014 1602.685 1600.187 1597.308 1594.627 1589.969 1588.126 1586.426 1585.001 1583.281 1581.525 1577.589 1574.978 1571.955 1568.56 1564.879 1557.162 1553.563 1550.155 1547.206 1544.4 1542.627 1539.648 1537.496 1534.952 1532.363 1530.002 1528.255 1524.541 1521.692 1518.325 1514.787 1511.747 1521.192 1527.297 1532.832 1537.716 1544.167 1549.268 1558.031 1561.478 1564.204 1566.413 1568.595 1569.882 1571.013 1570.693 1570.425 1570.344 1570.394 1571.047 1571.304 1571.394 1571.029 1569.83 1568.466 1564.18 1561.67 1559.07 1556.555 1553.677 1548.604 1545.76 1542.667 1539.783 1536.947 1534.778 1531.139 1530.289 1530.904 1533.217
1605.571 1607.96 1610.163 1612.783 1615.74 1621.852 1625.242 1628.549 1631.566 1633.982 1638.495 1640.703 1642.775 1648.006 1649.762 1651.401 1653.239 1653.645 1653.865 1654.091 1654.422 1654.6 1655.65 1656.066 1656.226 1656.111 1655.842 1655.193 1654.775 1654.376 1654.083 1653.988 1654.375 1655.047 1655.468 1655.875 1655.631 1654.853 1653.679 1651.209 1650.196 1649.25 1648.442 1647.924 1647.06 1646.355 1645.636 1644.995 1644.338 1643.623 1641.823 1639.92 1636.689 1632.555 1628.628 1627.563 1621.97 1618.939 1616.047 1613.339 1610.868 1606.195 1603.81 1601.185 1598.311 1595.072 1592.245 1587.385 1585.421 1583.713 1582.615 1581.431 1577.994 1575.971 1573.308 1570.088 1566.364 1563.028 1555.745 1552.203 1548.837 1545.849 1542.796 1540.818 1538.086 1536.269 1533.825 1530.974 1528.423 1524.712 1522.294 1519.787 1517.552 1514.62 1510.945 1520.066 1525.615 1530.788 1537.716 1542.861 1547.81 1556.238 1559.46 1561.935 1564.033 1566.162 1569.008 1569.311 1568.982 1568.269 1567.688 1567.828 1568.849 1569.296 1569.602 1569.421 1568.72 1568.125 1564.624 1562.079 1559.459 1557.102 1554.93 1550.064 1547.417 1544.652 1541.867 1539.021 1536.895 1533.967 1533.536 1534.17 1535.948
1608.285 1610.303 1611.836 1613.264 1616.246 1623.012 1625.739 1628.301 1630.3 1632.311 1635.743 1637.564 1642.775 1644.638 1646.25 1647.848 1649.665 1649.511 1649.184 1649.021 1649.25 1650.549 1651.581 1652.525 1653.099 1653.363 1653.266 1652.714 1652.27 1651.847 1651.505 1651.405 1652.352 1654.269 1654.966 1654.985 1654.513 1653.592 1650.643 1649.193 1647.873 1646.552 1645.295 1644.896 1645.729 1645.687 1645.332 1644.91 1644.56 1644.292 1643.249 1640.803 1636.634 1631.747 1628.628 1621.584 1618.428 1615.399 1612.805 1610.529 1608.507 1604.524 1602.259 1599.388 1596.013 1592.37 1589.434 1584.311 1582.066 1580.261 1579.122 1578.505 1575.646 1573.693 1571.244 1568.146 1564.904 1562.268 1555.434 1551.861 1548.586 1545.756 1542.831 1540.61 1537.434 1535.804 1533.603 1530.85 1528.182 1524.075 1521.475 1518.842 1516.404 1513.748 1510.39 1517.067 1521.977 1530.788 1535.532 1540.591 1545.13 1553.144 1555.998 1558.129 1560.113 1562.32 1566.204 1566.804 1566.266 1565.074 1564.365 1564.824 1566.71 1567.848 1568.626 1568.522 1568.126 1567.359 1565.304 1562.628 1560.062 1557.889 1556.002 1551.741 1549.438 1546.956 1544.262 1541.448 1539.176 1536.198 1535.961 1536.676 1538.337
1610.997 1612.073 1613.135 1615.829 1621.543 1623.578 1626.235 1628.137 1628.78 1630.314 1633.618 1637.564 1639.271 1640.513 1641.598 1643.272 1644.827 1644.164 1643.26 1642.7 1642.836 1645.646 1648.072 1649.877 1650.909 1651.296 1651.243 1650.638 1650.133 1649.479 1648.985 1649.451 1650.685 1651.985 1652.246 1652.014 1651.591 1650.918 1648.391 1646.981 1645.14 1642.488 1639.271 1638.216 1643.216 1644.963 1645.636 1645.367 1645.284 1645.256 1644.494 1641.071 1635.953 1631.747 1627.225 1618.609 1614.72 1611.731 1609.557 1607.697 1606.019 1602.528 1600.449 1597.375 1593.457 1589.281 1583.546 1580.771 1577.973 1576.003 1574.584 1574.272 1572.794 1571.094 1568.921 1566.66 1564.258 1562.53 1556.414 1552.708 1549.476 1546.79 1544.137 1539.792 1538.041 1536.451 1534.457 1531.857 1529.393 1525.282 1522.465 1518.94 1515.063 1512.465 1510.421 1512.485 1521.977 1526.836 1531.459 1536.287 1544.883 1548.252 1550.72 1552.72 1554.971 1557.425 1562.272 1563.03 1562.326 1560.728 1559.591 1560.322 1564.715 1566.775 1568.45 1569.315 1569.57 1568.741 1566.822 1564.133 1561.573 1559.262 1557.365 1553.158 1550.951 1548.607 1546.089 1543.175 1540.359 1537.556 1537.699 1538.572 1540.237
1613.593 1613.126 1614.989 1618.47 1621.856 1623.691 1624.466 1625.25 1626.261 1627.751 1633.618 1634.827 1636.101 1636.953 1637.51 1637.885 1638.027 1637.519 1636.638 1635.741 1635.367 1640.563 1645.002 1647.852 1649.485 1649.673 1649.51 1648.722 1648.205 1647.256 1646.417 1647.34 1649.226 1649.134 1648.938 1648.608 1648.238 1647.522 1645.828 1643.99 1641.538 1638.242 1634.621 1632.956 1636.737 1640.821 1644.321 1646.067 1646.197 1645.13 1642.105 1637.738 1635.953 1630.705 1626.038 1615.419 1610.665 1607.741 1605.956 1603.907 1602.118 1599.042 1597.38 1594.729 1591.263 1587.631 1581.886 1578.854 1576.032 1573.715 1571.1 1568.667 1567.802 1566.928 1565.545 1564.896 1563.899 1562.773 1558.293 1554.827 1551.672 1549.302 1547.192 1541.791 1539.606 1538.091 1536.396 1533.965 1531.532 1527.316 1524.918 1520.203 1513.27 1508.138 1510.421 1512.485 1516.672 1521.401 1525.931 1530.47 1539.027 1542.069 1543.923 1545.709 1548.614 1551.698 1557.695 1558.398 1557.133 1554.738 1552.992 1554.454 1563.107 1566.619 1569.717 1572.073 1573.208 1571.281 1569.278 1566.523 1563.749 1561.168 1559.029 1554.332 1552.038 1549.621 1547.152 1544.108 1538.211 1537.895 1538.595 1539.743 1541.561
1612.04 1612.73 1614.194 1616.252 1620.101 1621.164 1622.033 1623.103 1626.261 1627.751 1630.393 1631.455 1632.241 1632.604 1632.867 1632.977 1632.63 1632.103 1631.405 1630.96 1631.822 1637.404 1641.862 1645.649 1647.837 1648.299 1647.945 1646.538 1645.522 1644.514 1643.842 1643.727 1645.508 1645.321 1644.863 1644.65 1644.368 1643.991 1642.216 1640.17 1637.088 1634.29 1632.526 1630.631 1634.226 1638.808 1642.3 1644.351 1644.307 1640.582 1636.902 1637.738 1633.016 1628.424 1624.216 1614.879 1610.323 1606.627 1602.964 1600.087 1598.71 1595.952 1594.361 1592.253 1589.729 1587.31 1580.196 1576.943 1574.551 1571.918 1568.119 1563.195 1562.004 1562.187 1562.115 1562.44 1562.353 1560.484 1558.109 1555.215 1552.707 1550.984 1549.164 1543.973 1541.759 1539.853 1537.398 1535.064 1532.777 1527.745 1525.141 1520.531 1513.305 1508.138 1502.169 1504.667 1509.962 1515.201 1520.186 1524.486 1532.686 1535.014 1536.213 1538.087 1542.652 1546.337 1551.927 1551.932 1550.19 1548.217 1548.298 1557.346 1562.618 1566.692 1570.245 1573.558 1575.317 1574.219 1572.333 1569.548 1566.375 1562.984 1560.305 1555.358 1553.153 1550.607 1548.101 1544.986 1538.715 1538.925 1540.582 1542.298 1544.803
1610.829 1611.273 1611.673 1613.649 1617.25 1618.523 1619.697 1623.103 1624.031 1625.421 1627.951 1628.942 1629.361 1629.096 1629.104 1628.333 1627.888 1627.292 1626.357 1626.212 1628.525 1635.672 1639.379 1642.809 1645.196 1646.246 1645.199 1644.232 1643.004 1641.211 1639.067 1637.981 1640.762 1640.716 1640.61 1640.572 1640.557 1640.123 1638.914 1637.273 1634.582 1630.735 1627.13 1628.206 1632.89 1636.51 1638.602 1639.482 1639.81 1636.375 1636.902 1633.157 1628.908 1624.104 1621.137 1612.992 1609.095 1605.003 1600.833 1597.398 1594.619 1593.272 1591.874 1590.527 1589.266 1587.343 1579.773 1575.595 1572.356 1569.266 1565.852 1562.675 1559.085 1558.999 1559.178 1559.105 1559.87 1558.392 1555.547 1552.865 1551.09 1549.612 1548.519 1543.126 1541.088 1539.826 1537.891 1535.626 1533.4 1528.162 1524.979 1520.163 1513.305 1507.212 1500.374 1499.783 1503.071 1507.946 1512.946 1517.753 1524.372 1526.584 1529.687 1534.18 1538.238 1541.945 1545.086 1544.027 1541.567 1540.456 1545.06 1557.32 1562.531 1566.304 1569.777 1573.849 1576.379 1576.455 1574.269 1571.484 1567.724 1563.539 1558.256 1556.559 1554.277 1551.88 1549.686 1546.959 1541.66 1541.736 1544.129 1546.51 1548.854
1607.819 1608.242 1609.272 1611.163 1614.909 1616.254 1619.697 1620.684 1621.747 1625.046 1626.135 1626.784 1627.141 1626.78 1624.962 1624.05 1623.288 1622.627 1621.938 1622.018 1625.348 1633.534 1636.687 1639.438 1641.395 1642.462 1642.151 1641.52 1640.303 1638.362 1635.863 1634.422 1635.759 1635.907 1635.922 1635.899 1636.052 1636.112 1635.084 1633.526 1630.785 1626.997 1623.6 1625.297 1629.394 1632.486 1634.651 1636.452 1637.794 1636.375 1632.617 1628.57 1624.063 1620.334 1618.206 1611.043 1607.495 1603.862 1600.244 1597.28 1592.075 1590.28 1589.169 1588.472 1587.88 1586.591 1578.716 1574.816 1571.195 1567.465 1564.467 1562.229 1558.99 1556.82 1554.768 1554.4 1555.001 1554.869 1553.168 1551.083 1549.115 1546.932 1544.512 1539.427 1538.564 1537.894 1536.964 1535.037 1531.113 1528.592 1525.985 1520.163 1513.739 1508.233 1500.683 1500.145 1500.36 1502.077 1505.478 1509.066 1516.224 1520.681 1525.868 1530.957 1534.776 1539.422 1538.851 1536.964 1535.958 1538.184 1543.568 1554.656 1559.704 1564.147 1567.711 1571.862 1575.028 1577.176 1575.656 1573.302 1569.761 1565.264 1559.716 1557.947 1555.911 1553.628 1550.834 1548.362 1545.051 1545.546 1547.826 1550.15 1552.629
1604.929 1605.498 1607.042 1608.808 1612.436 1616.254 1617.283 1618.49 1620.195 1623.688 1624.694 1625.068 1624.997 1624.295 1622.941 1620.449 1619.653 1618.986 1619.11 1620.335 1623.547 1630.811 1633.963 1636.326 1638.009 1638.935 1638.876 1638.389 1637.348 1635.733 1633.721 1631.742 1629.275 1628.991 1629.813 1631.338 1631.965 1631.707 1630.84 1629.066 1626.532 1623.943 1621.905 1623.759 1626.038 1628.702 1631.835 1636.452 1637.794 1633.21 1629.604 1625.604 1621.843 1618.74 1613.831 1610.897 1606.814 1602.455 1599.114 1596.032 1588.943 1586.668 1585.852 1585.19 1584.301 1582.828 1575.786 1572.842 1569.782 1566.803 1564.062 1559.701 1557.756 1555.046 1552.195 1550.58 1550.424 1551.069 1551.33 1549.76 1546.678 1543.557 1539.944 1535.556 1535.232 1534.67 1534.276 1532.932 1530.366 1528.818 1525.985 1521.948 1516.405 1511.214 1501.279 1500.117 1500.429 1500.476 1501.127 1502.743 1509.53 1515.664 1522.348 1526.963 1529.143 1532.07 1530.921 1530.123 1532.955 1538.326 1542.678 1550.512 1555.005 1559.881 1564.145 1568.42 1572.637 1576.672 1576.397 1575.352 1572.699 1568.567 1562.231 1559.963 1557.718 1554.927 1551.704 1549.276 1547.517 1548.217 1550.628 1553.399 1552.629
1601.453 1602.277 1604.507 1609.011 1612.436 1613.735 1614.786 1616.273 1618.266 1622.535 1623.583 1623.936 1623.295 1621.767 1619.996 1616.729 1615.726 1615.1 1616.044 1618.604 1624.933 1628.288 1631.449 1633.798 1635.383 1636.29 1636.391 1635.813 1634.63 1632.841 1630.537 1627.698 1623.583 1623.363 1624.537 1626.947 1628.209 1628.216 1627.684 1626.652 1624.296 1620.206 1615.755 1618.678 1622.142 1624.52 1631.835 1633.881 1634.938 1630.55 1626.717 1622.869 1619.693 1616.634 1612.343 1609.83 1605.962 1601.605 1597.86 1594.288 1587.406 1584.477 1582.077 1579.899 1578.253 1576.947 1572.071 1568.993 1566.64 1565.468 1563.748 1559.53 1557.627 1555.266 1552.574 1550.83 1549.617 1547.965 1547.363 1545.668 1543.28 1541.025 1536.028 1532.372 1528.466 1527.451 1529.08 1528.734 1529.818 1528.818 1526.946 1523.956 1518.994 1514.15 1503.348 1500.739 1500.453 1500.548 1500.625 1501.392 1504.702 1509.581 1515.339 1520.569 1522.454 1522.785 1523.493 1526.344 1531.103 1536.145 1540.011 1546.444 1550.562 1555.162 1560.851 1565.118 1575.315 1577.356 1577.411 1576.208 1574.712 1571.904 1564.371 1561.923 1559.409 1556.448 1553.211 1551.09 1550.413 1551.047 1553.168 1553.399 1556.038
1596.662 1597.494 1601.034 1609.011 1610.686 1611.342 1610.944 1611.694 1615.475 1620.99 1622.142 1622.222 1621.099 1619.046 1616.697 1612.156 1610.343 1610.886 1614.162 1618.052 1624.201 1626.444 1628.803 1630.79 1631.932 1632.711 1633.126 1632.59 1631.653 1630.341 1628.411 1623.031 1620.858 1619.675 1620.153 1622.869 1624.802 1624.433 1624.023 1623.69 1621.646 1616.542 1611.554 1613.594 1618.255 1624.52 1628.309 1630.802 1631.011 1628.52 1624.936 1621.11 1617.597 1614.008 1609.731 1607.125 1603.658 1600.529 1597.168 1593.225 1586.969 1583.436 1579.443 1575.671 1573.464 1571.14 1568.301 1565.079 1563.316 1562.958 1562.187 1559.152 1556.988 1555.087 1553.556 1552.209 1550.968 1545.811 1542.058 1538.787 1538.432 1537.604 1532.419 1529.286 1526.764 1525.298 1525.517 1526.05 1529.818 1529.178 1527.763 1525.285 1520.566 1515.375 1506.771 1502.728 1500.556 1500.487 1500.57 1500.407 1501.128 1503.75 1508.225 1512.563 1514.381 1514.911 1517.894 1523.237 1527.432 1531.204 1535.836 1545.027 1550.257 1554.751 1560.297 1565.445 1574.823 1576.315 1575.415 1574.105 1573.945 1572.268 1565.613 1562.906 1559.816 1557.27 1555.696 1554.076 1554.475 1554.915 1553.168 1555.909 1558.631
1594.18 1595.201 1601.034 1607.176 1608.783 1608.715 1607.792 1608.285 1611.07 1617.964 1619.258 1618.923 1617.735 1615.51 1610.887 1608.353 1607.206 1608.958 1612.752 1617.424 1623.622 1624.798 1626.013 1627.434 1628.479 1628.931 1629.172 1629.296 1628.597 1627.611 1626.484 1622.061 1617.592 1612.922 1612.422 1617.381 1620.718 1620.48 1619.886 1619.157 1616.994 1612.978 1609.319 1610.86 1618.255 1622.339 1625.603 1627.84 1627.154 1625.565 1623.207 1619.377 1615.106 1611.551 1606.042 1602.998 1600.169 1597.774 1594.515 1590.785 1584.409 1581.096 1578.053 1574.794 1571.995 1567.488 1565.171 1563.092 1561.605 1560.719 1559.637 1557.205 1555.58 1554.486 1553.938 1553.225 1551.855 1548.099 1543.671 1539.004 1536.747 1534.36 1530.573 1528.42 1526.082 1524.353 1525.517 1526.05 1527.838 1527.848 1527.198 1525.16 1521.182 1514.014 1510.523 1505.961 1502.108 1500.344 1499.916 1499.663 1499.593 1500.634 1503.424 1505.729 1505.808 1510.235 1514.376 1519.468 1524.272 1528.99 1540.361 1545.96 1551.432 1556.337 1561.11 1565.159 1572.998 1573.266 1571.54 1570.35 1570.5 1570.914 1566.554 1563.268 1560.353 1558.739 1558.094 1557.471 1558.175 1554.915 1556.064 1557.748 1560.546
1594.18 1595.201 1597.555 1603.135 1604.508 1604.651 1604.54 1605.458 1607.861 1613.329 1613.855 1613.371 1613.259 1611.97 1607.267 1603.905 1603.145 1606.428 1610.211 1614.159 1620.974 1622.061 1623.003 1624.309 1625.409 1625.847 1626.039 1626.071 1625.6 1624.683 1623.962 1619.677 1615.128 1610.894 1609.421 1612.119 1614.822 1615.028 1614.765 1614.621 1613.141 1608.725 1606.018 1610.86 1614.685 1619.601 1623.723 1626.328 1625.495 1624.184 1621.624 1617.795 1613.835 1610.244 1602.844 1599.33 1597.115 1594.395 1590.821 1584.2 1580.171 1577.299 1575.874 1573.684 1570.857 1564.71 1562.817 1561.744 1560.645 1559.368 1557.939 1555.069 1554.079 1553.14 1553.09 1552.554 1551.295 1548.935 1544.993 1541.022 1538.3 1535.681 1529.869 1527.226 1525.224 1524.353 1524.004 1523.841 1524.77 1525.01 1524.761 1523.179 1520.292 1515.156 1512.416 1507.883 1503.165 1500.463 1498.63 1495.121 1495.781 1498.07 1499.727 1500.3 1499.581 1507.667 1513.013 1518.074 1523.756 1529.624 1541.434 1547.028 1553.649 1559.274 1561.911 1563.979 1568.833 1567.746 1565.6 1566.28 1569.098 1571.044 1569.063 1566.172 1562.481 1559.246 1559.041 1559.396 1558.175 1558.167 1558.022 1559.111 1561.513
1591.88 1592.944 1595.22 1599.1 1599.454 1599.262 1599.258 1600.839 1607.332 1608.904 1609.509 1609.504 1609.074 1608.379 1603.009 1599.365 1598.455 1601.97 1606.774 1610.671 1616.744 1618.464 1619.867 1621.38 1622.64 1623.905 1623.958 1623.677 1622.872 1621.453 1620.005 1615.509 1612.609 1609.697 1607.803 1608.62 1610.694 1610.175 1610.948 1612.064 1609.987 1604.757 1606.018 1608.849 1612.448 1617.742 1621.694 1623.735 1623.14 1621.843 1619.813 1616.845 1613.412 1610.286 1602.575 1599.126 1596.482 1593.169 1588.535 1581.122 1576.71 1573.86 1572.607 1571.232 1569.353 1564.179 1562.213 1560.868 1559.644 1557.957 1556.453 1552.731 1551.166 1550.855 1551.407 1551.9 1551.389 1549.715 1546.231 1542.441 1540.327 1537.494 1529.47 1526.077 1525.224 1523.596 1522.42 1522.864 1522.759 1522.297 1521.215 1519.279 1517.592 1514.21 1512.016 1508.353 1504.069 1501.179 1498.399 1489.456 1488.939 1491.811 1493.784 1495.105 1501.699 1507.309 1512.692 1517.456 1523.09 1529.276 1541.597 1547.955 1555.334 1561.115 1563.114 1563.772 1562.134 1560.086 1558.422 1560.93 1565.752 1571.747 1571.55 1568.426 1563.845 1561.345 1560.04 1559.396 1559.85 1559.782 1559.368 1559.498 1560.04
1588.859 1590.42 1592.346 1594.938 1595.067 1594.913 1595.314 1597.074 1603.954 1605.345 1605.587 1605.393 1604.967 1604.215 1599.573 1596.356 1595.635 1598.584 1602.537 1606.775 1612.995 1614.878 1616.408 1618.135 1619.738 1621.371 1621.396 1620.902 1619.83 1617.943 1614.999 1610.6 1609.574 1606.817 1603.901 1603.352 1606.391 1606.766 1607.4 1607.267 1604.418 1604.757 1599.528 1605.332 1611.36 1615.531 1618.505 1619.647 1619.487 1618.758 1617.326 1615.23 1612.676 1606.573 1603.297 1600.225 1597.093 1593.376 1589.247 1580.984 1576.022 1573.034 1571.715 1570.199 1567.853 1564.091 1561.873 1559.616 1557.733 1556.411 1553.364 1551.701 1550.176 1549.422 1549.313 1549.956 1550.366 1549.182 1547.137 1544.568 1541.239 1538.571 1530.119 1526.077 1524.528 1523.333 1521.853 1520.694 1519.792 1518.414 1516.558 1514.969 1514.248 1512.351 1510.515 1507.531 1504.295 1501.624 1499.601 1490.228 1486.809 1487.222 1488.38 1491.374 1501.927 1506.879 1511.66 1515.884 1520.49 1526.068 1539.935 1546.532 1554.26 1560.29 1561.526 1561.849 1559.43 1556.435 1555.614 1558.111 1561.626 1568.654 1569.669 1568.675 1564.677 1560.582 1560.04 1559.978 1560.067 1559.964 1559.774 1559.955 1565.068
1585.974 1587.915 1589.553 1589.44 1589.391 1590.132 1592.194 1595.344 1600.92 1602.128 1601.992 1601.177 1600.394 1599.841 1596.287 1592.656 1591.715 1594.841 1598.033 1605.925 1609.192 1611.119 1612.756 1614.482 1616.217 1617.83 1617.899 1617.391 1616.179 1614.71 1612.334 1607.005 1605.526 1603.359 1600.379 1598.268 1602.164 1602.738 1602.639 1607.267 1604.418 1599.377 1598.613 1604.319 1610.332 1613.497 1614.702 1615.113 1614.813 1614.722 1614.146 1613.341 1611.825 1606.584 1603.74 1601.005 1598.084 1594.561 1591.17 1582.85 1577.685 1574.208 1572.331 1570.223 1567.143 1562.422 1560.745 1558.743 1556.58 1553.748 1551.903 1551.503 1550.49 1548.984 1547.642 1547.52 1548.488 1548.087 1546.43 1543.785 1540.697 1538.613 1530.119 1526.074 1524.135 1522.921 1522.009 1519.079 1517.357 1515.733 1514.063 1512.369 1511.672 1510.163 1508.383 1505.853 1503.378 1501.374 1497.845 1493.796 1489.399 1486.992 1487.304 1490.626 1501.582 1505.314 1509.031 1513.034 1517.273 1522.475 1536.776 1544.021 1550.701 1555.37 1558.421 1558.384 1554.097 1549.868 1550.332 1555.229 1558.83 1562.147 1563.448 1563.624 1564.677 1560.582 1560.141 1560.56 1560.819 1560.499 1559.543 1559.134 1563.818
1583.506 1585.091 1585.303 1584.824 1584.527 1585.108 1588.037 1592.344 1598.505 1599.823 1599.47 1597.864 1596.271 1595.171 1591.685 1588.353 1587.303 1590.412 1594.228 1602.088 1605.238 1607.406 1609.193 1611.064 1612.982 1614.335 1613.672 1613.065 1612.365 1611.318 1609.406 1603.407 1601.517 1600.596 1599.146 1597.101 1598.575 1598.649 1602.639 1602.13 1600.505 1597.74 1597.83 1602.804 1607.75 1610.297 1610.729 1610.68 1610.624 1610.704 1610.923 1610.857 1610.224 1605.827 1603.378 1601.478 1599.648 1597.143 1593.588 1585.825 1581.196 1576.903 1573.925 1571.251 1563.642 1560.747 1559.168 1557.564 1555.084 1552.027 1549.733 1550.231 1549.838 1548.043 1545.758 1545.45 1545.028 1545.116 1543.858 1542.566 1540.858 1535.752 1531.49 1527.402 1524.768 1523.283 1522.184 1518.551 1516.291 1514.562 1513.283 1511.885 1510.722 1508.68 1506.543 1504.334 1502.609 1501.006 1497.283 1495.043 1491.132 1487.289 1487.505 1489.402 1499.342 1502.83 1506.309 1510.924 1515.609 1520.793 1534.053 1540.549 1545.366 1548.335 1549.978 1550.11 1547.571 1545.764 1547.11 1550.599 1553.248 1556.837 1558.511 1563.624 1562.306 1561.373 1559.935 1558.861 1558.451 1558.086 1557.928 1557.959 1560.584
1580.099 1581.081 1580.127 1579.69 1580.586 1582.997 1586.207 1590.033 1595.927 1596.815 1596.208 1594.351 1591.327 1588.548 1586.94 1584.996 1584.678 1587.343 1591.566 1599.689 1602.358 1604.132 1605.87 1608.453 1611.178 1611.821 1610.655 1609.944 1609.224 1608.005 1602.709 1599.808 1598.015 1597.48 1596.678 1595.103 1594.703 1598.649 1598.329 1598.156 1597.107 1594.931 1597.161 1600.908 1604.178 1606.262 1606.65 1606.857 1607.154 1607.351 1607.559 1607.641 1606.984 1603.025 1601.765 1600.842 1600.092 1598.955 1596.172 1588.566 1584.529 1580.303 1576.492 1572.933 1565.157 1562.213 1560.128 1557.687 1554.347 1551.735 1548.122 1547.33 1546.984 1545.778 1542.956 1539.578 1540.504 1542.245 1541.767 1541.199 1540.858 1536.89 1533.719 1529.847 1526.474 1524.303 1523.058 1519.113 1515.769 1513.348 1512.263 1511.241 1509.468 1508.065 1506.042 1503.932 1502.343 1501.094 1496.974 1494.604 1491.224 1488.131 1487.586 1488.104 1495.103 1499.095 1503.621 1509.864 1515.029 1525.245 1531.093 1536.255 1539.605 1541.423 1542.521 1542.831 1541.223 1540.669 1542.731 1545.711 1547.381 1550.346 1558.511 1559.163 1558.812 1558.504 1556.769 1555.864 1555.106 1554.363 1553.961 1555.125 1558.674
1577.272 1577.068 1574.636 1574.456 1577.27 1582.09 1585.239 1588.422 1592.872 1592.947 1592.126 1590.251 1587.053 1583.637 1582.123 1580.889 1581.84 1585.242 1588.525 1596.204 1599.312 1600.17 1601.354 1605.357 1609.556 1610.073 1609.414 1608.544 1607.248 1605.131 1600.532 1598.323 1596.529 1595.089 1593.88 1592.364 1594.703 1595.016 1594.777 1593.981 1592.19 1589.271 1594.736 1598.947 1600.741 1601.913 1602.064 1603.026 1603.825 1604.348 1604.578 1604.159 1602.793 1599.949 1600.031 1599.996 1600.03 1599.594 1594.326 1590.554 1587.14 1583.431 1579.217 1575.623 1567.856 1564.34 1561.367 1557.849 1553.392 1549.872 1546.944 1544.253 1542.068 1541.424 1539.873 1536.86 1538.034 1539.351 1541.767 1541.199 1540.408 1538.467 1536.76 1533.604 1529.553 1526.343 1524.401 1520.342 1517.058 1514.375 1512.732 1511.575 1509.148 1507.654 1505.702 1503.487 1501.66 1500.702 1497.214 1494.502 1491.753 1489.213 1487.971 1487.618 1491.559 1496.919 1502.506 1508.768 1514.257 1522.465 1525.908 1529.112 1531.913 1533.711 1534.815 1535.747 1534.801 1535.044 1537.402 1539.51 1541.411 1550.346 1552.787 1554.691 1555.687 1555.165 1553.316 1551.932 1550.016 1548.444 1549.116 1552.499 1556.522
1575.321 1574.994 1571.42 1572.407 1575.061 1579.569 1583.698 1589.369 1590.297 1590.03 1589.111 1587.58 1585.115 1579.327 1576.705 1576.016 1578.597 1581.744 1584.265 1591.361 1594.89 1596.929 1599.39 1603.231 1609.808 1609.034 1607.704 1606.897 1605.064 1602.637 1598.427 1596.461 1594.794 1593.276 1591.469 1592.364 1591.19 1590.766 1590.277 1589.635 1587.994 1586.737 1590.772 1594.891 1597.008 1597.252 1597.482 1599.282 1600.849 1601.651 1601.696 1601.008 1599.192 1597.415 1597.936 1598.397 1598.902 1598.784 1594.908 1591.766 1588.806 1585.747 1582.01 1577.993 1569.982 1565.726 1562.127 1558.593 1554.285 1550.242 1545.581 1542.946 1539.887 1537.682 1536.787 1535.68 1536.197 1539.351 1539.642 1539.756 1539.61 1539.05 1538.673 1536.81 1533.044 1528.946 1526.267 1521.559 1518.449 1515.879 1513.861 1512.374 1509.153 1507.395 1505.646 1503.985 1502.571 1501.534 1497.462 1494.24 1491.394 1489.103 1487.9 1487.543 1490.541 1495.817 1501.649 1507.622 1512.948 1518.585 1520.906 1522.621 1524.021 1525.463 1526.426 1527.252 1527.113 1528.596 1531.948 1534.293 1543.543 1546.053 1548.807 1550.931 1551.68 1551.634 1549.49 1547.413 1545.772 1545.749 1547.789 1550.676 1552.783
1573.09 1572.665 1567.727 1570.473 1573.666 1577.707 1581.866 1587.597 1588.293 1587.829 1586.658 1584.616 1581.362 1576.262 1573.483 1572.509 1574.886 1579.551 1584.584 1591.633 1594.899 1597.756 1601.189 1605.201 1610.957 1609.561 1607.088 1604.964 1603.303 1601.237 1596.695 1594.306 1591.999 1590.085 1591.469 1589.78 1587.478 1587.162 1587.275 1587.105 1586.041 1584.331 1586.529 1589.296 1591.034 1591.798 1592.41 1596.149 1597.986 1598.718 1598.691 1598.191 1595.192 1594.964 1595.334 1595.655 1596.28 1596.357 1594.162 1591.85 1589.206 1587.112 1583.949 1579.246 1570.723 1566.615 1562.802 1559.308 1555.457 1549.221 1546.688 1545.107 1543.018 1538.877 1536.926 1535.043 1536.197 1537.104 1537.77 1538.278 1538.594 1538.877 1538.656 1536.968 1534.181 1531.258 1525.719 1523.19 1519.844 1516.458 1514.225 1512.451 1508.876 1507.146 1505.42 1504.097 1503.283 1502.029 1497.43 1493.352 1489.641 1487.669 1487.216 1487.449 1490.228 1494.86 1500.051 1505.071 1509.732 1514.818 1515.74 1516.453 1517.41 1518.94 1520.375 1521.105 1521.745 1523.625 1526.515 1534.293 1538.667 1541.499 1544.75 1547.341 1548.226 1548.014 1544.778 1541.844 1540.778 1542.486 1545.118 1547.585 1548.609
1568.495 1563.021 1563.239 1568.145 1573.236 1576.915 1580.662 1585.687 1585.451 1583.125 1580.15 1577.969 1576.077 1572.988 1570.834 1570.638 1573.672 1579.305 1590.128 1594.886 1598.561 1601.218 1604.988 1609.432 1611.184 1609.416 1606.581 1603.365 1601.204 1599.635 1595.242 1592.471 1589.743 1590.085 1588.799 1586.35 1585.296 1585.007 1584.863 1584.477 1584.09 1582.657 1583.69 1585.128 1585.898 1586.113 1586.978 1591.934 1593.683 1594.533 1594.749 1594.24 1591.606 1591.552 1592.18 1592.604 1592.818 1592.72 1590.878 1590.566 1588.988 1587.501 1585.022 1580.069 1571.226 1567.433 1563.692 1560.255 1556.926 1551.179 1549.527 1547.415 1544.393 1541.618 1539.266 1535.043 1535.203 1535.621 1536.305 1536.885 1537.419 1537.011 1536.275 1535.229 1533.184 1530.656 1525.684 1523.28 1520.022 1516.667 1514.177 1512.065 1508.471 1506.18 1504.447 1503.934 1503.23 1500.698 1497.422 1492.699 1488.639 1486.528 1486.442 1487.186 1489.585 1493.672 1498.115 1501.906 1505.228 1510.246 1510.884 1511.126 1512.014 1514.04 1515.677 1515.761 1516.945 1519.573 1526.515 1529.473 1535.101 1537.771 1541.012 1543.743 1544.553 1544.236 1540.162 1536.947 1536.457 1538.644 1539.784 1542.095 1543.537
1563.759 1560.366 1561.769 1567.407 1573.237 1576.562 1579.224 1581.704 1579.726 1575.83 1572.353 1570.905 1570.279 1566.59 1565.377 1568.14 1574.057 1580.193 1591.527 1596.472 1600.277 1603.414 1607.111 1610.333 1611.092 1609.037 1606.042 1602.962 1599.816 1597.536 1593.387 1592.471 1589.743 1587.236 1585.769 1585.03 1584.16 1583.647 1583.101 1582.135 1581.857 1581.386 1581.771 1582.257 1581.993 1581.573 1582.309 1587.2 1588.553 1589.333 1589.938 1589.879 1587.057 1587.909 1589.494 1589.871 1589.536 1588.928 1587.248 1587.377 1587.089 1586.132 1583.512 1575.199 1571.514 1568.092 1564.673 1561.661 1558.878 1553.815 1551.987 1550.271 1547.703 1544.086 1539.266 1534.901 1532.939 1531.974 1532.363 1534.827 1535.591 1534.373 1532.917 1531.516 1530.149 1528.432 1524.902 1522.512 1519.708 1517.024 1514.707 1512.462 1508.156 1504.952 1502.728 1502.3 1502.04 1500.098 1496.909 1492.962 1489.307 1486.3 1485.845 1486.815 1488.427 1491.288 1495.042 1498.515 1501.13 1505.26 1506.498 1507.489 1508.428 1510.045 1511.427 1511.53 1516.945 1519.573 1522.628 1525.016 1531.985 1535.536 1538.542 1540.676 1541.207 1540.529 1537.246 1534.977 1534.357 1535.262 1535.84 1536.681 1539.369
1560.258 1558.775 1560.987 1566.495 1572.638 1575.929 1577.035 1576.43 1573.235 1568.888 1565.705 1564.55 1562.857 1560.6 1561.855 1568.193 1575.327 1581.266 1592.796 1597.527 1600.386 1603.111 1606.854 1608.748 1610.042 1608.8 1606.094 1602.855 1600.047 1595.155 1593.387 1590.644 1588.199 1586.224 1584.501 1583.322 1583.005 1582.152 1581.318 1580.674 1580.153 1579.83 1579.993 1579.254 1577.405 1576.265 1579.432 1582.047 1583.611 1584.674 1585.485 1585.903 1584.186 1585.514 1587.271 1587.212 1586.392 1585.52 1584.544 1584.418 1584.126 1582.924 1580.366 1574.733 1571.816 1568.968 1566.26 1563.749 1561.387 1556.1 1553.493 1551.133 1548.828 1544.086 1540.988 1537.03 1532.315 1526.988 1526.806 1529.579 1531.905 1530.788 1528.827 1526.996 1525.988 1524.977 1522.609 1520.365 1517.888 1516.192 1515.102 1513.283 1506.833 1503.45 1501.197 1500.017 1499.804 1497.895 1494.926 1492.461 1490.319 1487.671 1485.402 1486.089 1487.095 1489.125 1492.261 1495.533 1500.261 1502.008 1503.194 1504.049 1504.791 1505.683 1508.44 1511.53 1512.616 1515.024 1518.617 1522.139 1529.595 1533.975 1537.149 1538.621 1538.787 1537.021 1534.643 1532.537 1531.511 1531.541 1532.297 1534.475 1536.736
1555.522 1556.01 1559.787 1564.996 1570.489 1574.197 1574.898 1570.096 1565.49 1561.398 1558.762 1557.915 1557.938 1559.734 1564.003 1570.731 1577.338 1583.549 1594.132 1597.969 1600.24 1602.184 1603.551 1604.109 1606.826 1608.006 1605.858 1602.708 1600.458 1595.155 1592.655 1590.197 1587.683 1585.609 1584.277 1582.202 1581.428 1580.454 1579.436 1578.559 1578.23 1578.222 1577.948 1577.092 1575.551 1573.605 1574.352 1577.006 1579.334 1580.678 1581.337 1581.47 1581.447 1582.299 1583.533 1583.72 1583.087 1582.155 1582.008 1581.751 1580.749 1578.712 1576.859 1573.093 1570.872 1568.548 1566.418 1564.62 1562.601 1556.61 1553.709 1551.488 1548.828 1545.603 1539.466 1536.41 1531.655 1526.57 1524.361 1525.571 1527.419 1526.91 1525.197 1523.111 1522.204 1520.754 1518.547 1516.675 1514.894 1514.085 1513.459 1508.19 1504.434 1501.801 1500.033 1498.874 1498.147 1492.957 1491.428 1491.127 1490.459 1488.199 1484.853 1485.013 1486.047 1488.058 1490.028 1492.743 1497.199 1498.578 1499.676 1500.581 1500.979 1501.697 1508.44 1509.32 1510.624 1513.139 1517.593 1522.038 1527.866 1530.952 1534.162 1535.692 1535.681 1533.976 1531.984 1529.79 1527.942 1527.315 1528.289 1532.039 1533.73
1550.995 1553.174 1558.592 1563.607 1567.339 1570.32 1567.434 1562.762 1558.165 1554.185 1550.967 1550.629 1558.797 1562.773 1567.507 1573.561 1580.091 1585.782 1592.053 1595.115 1597.459 1598.102 1598.414 1599.759 1601.736 1603.097 1603.103 1602.091 1600.458 1595.479 1592.714 1590.066 1587.481 1585.344 1584.097 1581.651 1580.166 1578.602 1576.911 1575.755 1576.714 1576.931 1577.039 1576.759 1575.791 1574.362 1572.612 1573.764 1575.564 1576.833 1577.349 1577.659 1576.753 1577.517 1578.83 1579.201 1579.13 1578.76 1579.149 1579.093 1577.769 1575.573 1573.58 1570.814 1568.902 1566.846 1565.092 1563.545 1561.918 1556.054 1553.709 1551.488 1548.987 1545.706 1539.115 1536.556 1532.446 1527.938 1525.417 1524.52 1524.036 1523.871 1522.635 1519.877 1517.317 1515.266 1513.963 1513.281 1512.584 1511.74 1509.831 1503.952 1501.549 1499.826 1498.457 1497.389 1495.658 1489.467 1488.6 1489.183 1489.126 1486.936 1484.371 1483.408 1483.417 1486.384 1488.896 1491.041 1494.04 1495.033 1496.309 1497.611 1498.113 1501.697 1506.006 1508.344 1510.445 1513.644 1518.211 1525.747 1527.771 1528.851 1529.802 1530.907 1530.98 1530.006 1528.682 1526.963 1525.018 1524.064 1525.743 1529.332 1531.092
1548.238 1552.09 1557.52 1561.625 1563.783 1565.109 1561.521 1556.664 1552.161 1548.861 1547.59 1550.353 1561.66 1566.549 1571.164 1575.992 1581.123 1584.4 1587.571 1588.682 1589.934 1590.609 1591.622 1596.582 1598.41 1600.223 1601.532 1602.091 1600.524 1596.086 1593.427 1590.68 1588.133 1585.929 1584.518 1580.944 1579.225 1576.931 1574.577 1573.765 1575.443 1575.791 1575.735 1575.672 1575.453 1574.559 1572.304 1571.918 1572.466 1573.262 1573.625 1574.166 1572.844 1573.41 1574.85 1575.238 1575.291 1575.062 1575.683 1576.261 1575.513 1573.656 1572.049 1568.782 1566.375 1564.483 1562.808 1561.325 1556.878 1556.054 1553.096 1551.065 1548.543 1544.704 1538.097 1535.835 1532.995 1529.755 1527.4 1525.493 1522.7 1521.875 1520.801 1517.95 1514.172 1511.957 1511.39 1510.478 1509.823 1508.756 1505.337 1500.575 1500.144 1499.777 1499.241 1498.355 1495.919 1489.155 1488.035 1487.425 1486.912 1485.224 1479.06 1476.749 1478.69 1483.071 1486.661 1488.953 1491.273 1491.636 1492.484 1494.423 1498.113 1499.651 1504.837 1507.655 1510.59 1513.716 1517.56 1523.742 1525.059 1525.497 1525.981 1526.501 1526.504 1526.249 1525.231 1523.839 1522.599 1522.507 1524.179 1527.205 1528.686
1545.786 1551.601 1555.045 1557.919 1559.391 1560.157 1556.358 1551.404 1547.804 1546.725 1548.285 1552.808 1564.439 1570.189 1574.405 1576.76 1578.936 1581.862 1582.283 1582.104 1582.066 1582.599 1584.026 1593.585 1598.063 1600.364 1601.532 1601.429 1600.67 1596.99 1594.457 1591.816 1589.279 1586.728 1582.306 1580.623 1578.747 1576.568 1574.736 1573.288 1574.207 1574.4 1573.982 1573.748 1573.942 1574.058 1571.015 1570.16 1569.767 1569.643 1569.63 1569.695 1569.359 1569.678 1570.42 1570.91 1571.25 1571.597 1572.492 1573.408 1573.058 1571.703 1570.337 1565.927 1563.385 1561.689 1560.458 1559.255 1556.878 1554.009 1551.46 1549.24 1546.73 1542.575 1536.148 1534.659 1533.163 1530.769 1527.153 1525.534 1523.581 1521.491 1520.082 1518.367 1515.737 1513.018 1512.095 1511.124 1510.481 1508.842 1504.175 1500.527 1500.775 1501.131 1501.055 1499.732 1496.519 1490.645 1488.953 1487.385 1485.875 1484.009 1478.309 1475.637 1476.397 1479.555 1483.158 1486.069 1488.143 1487.944 1488.499 1494.423 1496.851 1502.148 1505.338 1508.638 1511.438 1513.633 1515.462 1519.899 1521.265 1521.726 1522.216 1522.581 1522.853 1522.32 1521.227 1520.375 1520.219 1520.343 1523.628 1524.586 1526.148
1546.804 1549.97 1551.696 1553.009 1554.083 1554.323 1550.86 1546.488 1544.097 1545.465 1549.669 1555.476 1567.651 1572.939 1575.81 1576.846 1576.751 1575.295 1575.008 1574.448 1574.093 1575.903 1582.234 1592.53 1596.968 1600.364 1600.874 1601.115 1601.037 1598.193 1595.826 1592.963 1590.012 1587.599 1583.15 1580.932 1578.928 1577.212 1575.539 1573.938 1572.519 1572.131 1571.463 1571.042 1571.158 1571.124 1568.396 1567.572 1566.756 1565.833 1564.679 1565.527 1564.913 1564.341 1564.981 1566.064 1566.664 1567.988 1568.904 1569.505 1569.576 1569.092 1566.817 1565.015 1563.045 1561.375 1560.214 1559.255 1553.721 1550.099 1548.308 1547.25 1545.164 1541.266 1536.233 1535.192 1533.695 1530.971 1527.684 1524.75 1523.724 1521.505 1518.954 1517.159 1516.178 1514.657 1513.883 1513.288 1512.395 1509.891 1506.07 1503.128 1502.84 1502.121 1500.928 1499.133 1493.131 1491.292 1489.547 1487.71 1485.691 1483.621 1478.245 1475.798 1475.875 1477.877 1480.628 1483.293 1485.553 1486.012 1488.499 1491.504 1496.146 1502.067 1505.213 1508.124 1510.678 1512.849 1514.338 1516.093 1516.949 1517.27 1517.722 1518.1 1518.251 1517.849 1516.532 1515.568 1516.433 1517.935 1521.592 1522.862 1524.942
1542.481 1546.028 1547.556 1548.006 1549.071 1550.038 1546.133 1540.848 1539.282 1544.305 1550.483 1561.871 1566.66 1570.968 1573.197 1573.367 1571.725 1567.015 1567.429 1568.893 1570.692 1573.961 1580.31 1592.53 1596.968 1600.14 1601.732 1601.021 1600.332 1599.416 1597.288 1594.257 1590.966 1588.057 1583.462 1581.412 1579.307 1577.391 1575.823 1574.223 1570.585 1569.177 1567.523 1565.905 1566.093 1565.37 1564.336 1564.062 1563.793 1562.973 1561.651 1561.839 1561.281 1560.581 1560.92 1561.616 1562.018 1563.822 1565.234 1566.221 1566.313 1565.842 1565.798 1565.287 1564.182 1562.915 1560.214 1558.588 1552.049 1549.352 1548.22 1547.09 1545.385 1542.757 1539.292 1538.352 1536.749 1533.983 1530.625 1525.524 1524.186 1522.172 1518.92 1515.624 1514.469 1514.124 1513.501 1512.708 1511.463 1508.795 1505.5 1503.383 1502.425 1501.204 1499.614 1497.614 1492.761 1491.18 1489.838 1487.895 1485.72 1483.396 1477.382 1475.26 1475.55 1476.492 1478.859 1483.248 1485.553 1486.012 1487.644 1491.407 1496.668 1502.37 1504.39 1506.244 1508.165 1510.205 1511.563 1512.378 1512.512 1512.664 1513.129 1513.564 1513.789 1513.737 1512.728 1512.088 1513.608 1515.806 1519.555 1521.818 1524.223
1539.103 1541.911 1542.737 1542.726 1543.63 1544 1540.798 1537.047 1537.478 1544.069 1551.218 1562.768 1565.891 1567.305 1567.453 1566.611 1563.907 1559.818 1560.648 1563.7 1568.822 1573.812 1580.31 1591.699 1596.332 1599.67 1601.094 1600.539 1599.837 1599.728 1598.471 1595.584 1591.942 1588.576 1583.748 1581.808 1579.646 1577.377 1575.427 1573.678 1569.554 1567.452 1564.678 1561.935 1561.998 1561.905 1561.049 1561.134 1561.421 1561.217 1560.401 1559.349 1558.727 1558.256 1558.223 1558.553 1558.783 1560.833 1562.032 1562.729 1563.19 1563.11 1563.106 1563.104 1563.023 1562.915 1561.911 1560.276 1554.025 1551.661 1550.125 1548.573 1546.359 1542.578 1541.429 1540.217 1538.635 1536.362 1532.24 1526.565 1524.343 1521.874 1518.823 1515.15 1512.941 1512.151 1511.781 1510.776 1509.051 1506.943 1502.63 1501.789 1500.905 1499.585 1497.678 1495.223 1492.024 1490.717 1489.4 1487.964 1485.805 1483.362 1478.749 1476.287 1475.329 1475.87 1477.752 1483.248 1484.983 1486.251 1488.502 1492.96 1497.745 1502.245 1502.963 1503.371 1504.393 1506.35 1506.996 1507.69 1508.001 1508.566 1509.403 1509.649 1510.338 1510.618 1510.422 1510.725 1512.188 1513.333 1517.154 1519.424 1521.92
1537.41 1538.794 1538.46 1537.655 1538.023 1538.069 1536.893 1535.77 1538.131 1545.389 1552.401 1562.692 1563.415 1562.184 1561.124 1559.8 1557.539 1558.412 1561.495 1564.77 1568.979 1573.812 1585.949 1590.61 1594.928 1598.264 1599.126 1598.732 1599.381 1599.978 1599.167 1596.706 1592.879 1589.197 1583.962 1581.796 1579.583 1577.329 1575.09 1571.232 1569.027 1566.436 1563.588 1561.21 1560.591 1559.707 1559.118 1558.905 1558.956 1558.901 1558.472 1557.181 1556.362 1555.825 1555.683 1555.637 1556.484 1557.339 1558.157 1559.11 1559.703 1559.973 1560.376 1560.507 1563.023 1562.775 1561.86 1560.049 1554.74 1552.974 1551.384 1549.836 1547.785 1543.497 1541.536 1540.106 1538.74 1536.487 1532.866 1526.08 1523.86 1521.435 1518.792 1516.228 1514.34 1511.762 1510.193 1508.419 1506.177 1503.344 1500.757 1500.267 1499.088 1497.306 1495.18 1492.295 1489.612 1488.895 1488.145 1486.939 1485.198 1482.99 1479.57 1477.226 1475.29 1475.616 1477.752 1482.105 1484.754 1486.811 1489.426 1493.589 1497.649 1501.356 1501.587 1501.53 1501.567 1501.814 1501.821 1502.399 1503.15 1503.9 1505.046 1506.288 1507.075 1507.86 1508.665 1509.234 1510.359 1511.976 1515.56 1516.891 1518.141
1534.553 1535.16 1535.09 1534.563 1534.607 1535.647 1535.907 1536.183 1540.163 1547.467 1551.617 1559.52 1559.357 1557.443 1555.18 1553.394 1551.392 1557.178 1562.228 1564.945 1568.979 1573.611 1584.677 1588.028 1591.047 1594.365 1595.901 1595.823 1597.367 1598.862 1599.239 1597.331 1593.392 1589.794 1584.355 1581.795 1579.372 1577.356 1575.41 1571.044 1568.435 1565.74 1563.063 1561.033 1559.847 1557.699 1557.114 1556.876 1556.669 1556.484 1556.127 1554.887 1554.19 1553.63 1553.319 1553.281 1551.901 1552.838 1554.103 1554.971 1555.8 1556.482 1560.376 1560.507 1560.795 1560.681 1559.25 1554.19 1552.144 1551.074 1550.481 1549.469 1547.552 1543.293 1541.115 1539.166 1537.306 1535.146 1532.533 1525.296 1523.453 1521.89 1519.404 1516.476 1513.607 1511.699 1509.427 1507.666 1505.698 1502.256 1499.574 1498.683 1497.445 1495.055 1491.569 1489.161 1487.494 1487.181 1486.914 1485.853 1484.252 1480.601 1479.065 1477.145 1475.553 1475.616 1476.948 1481.189 1484.287 1487.212 1489.167 1491.478 1494.133 1498.277 1498.315 1497.883 1497.475 1497.225 1497.954 1498.676 1499.371 1500.114 1501.38 1503.429 1504.104 1505.229 1506.223 1507.121 1509.319 1510.885 1513.45 1513.43 1514.98
1530.133 1531.216 1531.738 1531.575 1532.205 1535.705 1537.187 1539.773 1544.798 1549.111 1552.047 1554.46 1553.89 1551.337 1549.043 1548.246 1549.693 1554.483 1559.215 1564.945 1568.302 1573.114 1581.384 1584.969 1587.443 1589.219 1590.668 1592.235 1597.209 1598.816 1598.63 1596.373 1592.758 1586.551 1584.145 1581.46 1578.62 1576.245 1574.664 1570.671 1567.93 1565.397 1563.048 1561.133 1559.923 1557.121 1555.762 1554.891 1554.52 1554.27 1553.317 1552.732 1552.25 1551.888 1551.458 1551.028 1548.842 1549.072 1550.015 1551.156 1551.968 1556.482 1556.955 1556.992 1556.9 1556.115 1554.109 1551.372 1550.968 1550.225 1549.346 1548.507 1546.565 1542.489 1540.714 1538.774 1536.759 1534.936 1532.758 1526.272 1524.192 1522.076 1519.124 1515.619 1512.136 1511.059 1509.425 1507.09 1504.448 1502.858 1500.993 1498.861 1496.287 1493.78 1490.595 1488.419 1486.229 1485.782 1485.708 1484.751 1483.281 1480.374 1478.9 1477.215 1475.553 1475.488 1475.969 1480.278 1483.268 1486.358 1488.816 1490.494 1492.602 1493.416 1492.812 1491.776 1491.516 1492.483 1494.813 1496.025 1497.21 1498.585 1500.599 1501.195 1501.52 1502.389 1503.694 1506.004 1507.986 1509.886 1511.149 1512.197 1515.09
1526.375 1527.253 1528.387 1530.282 1532.629 1537.32 1538.49 1540.592 1543.587 1546.171 1548.546 1549.601 1548.611 1547.016 1545.618 1544.84 1547.67 1550.416 1559.215 1562.598 1565.612 1569.905 1576.809 1580.159 1583.129 1585.001 1586.672 1590.907 1597.194 1598.815 1597.918 1594.682 1591.026 1584.73 1582.704 1580.284 1577.433 1574.798 1573.179 1570.595 1568.246 1565.621 1563.884 1562.383 1560.871 1557.335 1555.852 1554.276 1552.925 1552.193 1550.624 1550.409 1550.433 1550.349 1550.198 1549.897 1548.437 1547.968 1547.883 1548.184 1551.968 1552.646 1553.595 1553.605 1552.601 1550.469 1548.612 1547.919 1547.305 1546.944 1546.436 1545.471 1544.043 1541.457 1540.34 1539.119 1537.988 1537.007 1531.114 1528.348 1526.058 1523.268 1519.912 1516.483 1512.008 1511.082 1509.375 1506.426 1503.272 1502.058 1500.844 1498.745 1495.585 1492.67 1490.983 1488.156 1486.613 1485.601 1485.013 1484.071 1482.796 1480.164 1478.827 1477.215 1475.852 1475.478 1475.454 1478.703 1481.478 1484.369 1486.952 1488.242 1488.819 1488.724 1487.927 1487.088 1487.479 1489.27 1491.903 1493.972 1495.72 1497.179 1498.348 1498.487 1499.752 1500.898 1502.81 1505.356 1507.11 1510.895 1513.46 1516.226 1519.823
1524.097 1524.981 1526.631 1528.545 1530.568 1537.507 1538.404 1539.35 1540.283 1540.772 1543.061 1542.97 1541.881 1540.614 1541.002 1545.481 1549.611 1550.416 1554.928 1559.222 1561.546 1565.046 1573.133 1576.967 1581.433 1584.25 1587.109 1595.088 1597.861 1599.014 1597.584 1593.759 1589.666 1583.567 1581.451 1579.126 1576.758 1574.432 1572.525 1569.964 1568.407 1566.075 1563.812 1562.022 1559.593 1558.428 1556.806 1554.908 1553.103 1551.437 1548.753 1548.341 1548.453 1548.574 1548.557 1548.177 1547.274 1547.019 1546.532 1548.184 1548.613 1549.739 1550.055 1550.056 1549.575 1548.191 1545.95 1542.615 1541.714 1541.808 1541.568 1541.09 1540.507 1540.529 1540.284 1539.317 1538.064 1537.017 1531.105 1528.258 1526.372 1523.787 1520.422 1516.995 1513.179 1510.708 1507.762 1505.075 1502.405 1500.386 1499.44 1498.23 1495.17 1491.218 1489.231 1487.426 1486.018 1485.129 1484.717 1483.702 1482.419 1480.164 1478.827 1477.306 1475.961 1475.565 1475.437 1476.836 1478.763 1481.287 1483.93 1485.207 1485.943 1485.835 1485.189 1485.469 1486.834 1487.886 1490.808 1493.055 1494.265 1495.316 1496.502 1499.439 1500.779 1502.226 1503.949 1505.751 1507.358 1513.246 1517.043 1521.326 1524.641
1523.26 1523.95 1525.058 1526.134 1527.762 1532.674 1535.432 1537.045 1537.258 1537.098 1536.886 1536.603 1536.072 1536.723 1540.245 1545.481 1549.611 1551.936 1555.353 1558.54 1560.421 1563.866 1573.171 1578.06 1583.557 1586.591 1589.38 1596.185 1598.792 1599.222 1597.205 1593.232 1589.129 1583.487 1581.152 1578.549 1576.082 1573.826 1572.088 1569.291 1567.946 1565.696 1563.199 1561.39 1561.158 1560.418 1558.635 1556.534 1554.66 1553.073 1550.416 1549.346 1547.548 1545.839 1546.051 1545.899 1545.277 1545.123 1546.532 1546.202 1546.212 1546.718 1546.877 1546.719 1546.114 1544.856 1542.801 1537.187 1535.984 1536.348 1536.606 1537.28 1538.382 1539.026 1539.273 1538.481 1536.604 1533.802 1528.9 1526.67 1524.81 1522.084 1518.83 1516.106 1513.166 1510.958 1508.277 1505.515 1502.771 1500.606 1499.073 1496.194 1492.648 1489.701 1488.078 1487.028 1486.499 1485.839 1484.864 1483.527 1482.419 1479.77 1478.52 1477.225 1475.931 1475.216 1475.181 1475.781 1477.116 1479.138 1481.085 1482.167 1482.263 1482.915 1483.64 1485.253 1487.286 1488.653 1490.47 1491.703 1492.771 1494.452 1497.458 1501.101 1501.749 1502.016 1502.766 1505.218 1509.579 1514.538 1519.415 1524.637 1527.133
1523.117 1523.173 1523.509 1523.843 1524.502 1526.806 1530.922 1534.651 1535.524 1535.473 1535.419 1535.398 1535.703 1537.446 1540.245 1545.77 1552.912 1556.96 1560.635 1562.436 1564.226 1567.917 1576.936 1581.535 1585.779 1588.602 1591.181 1597.278 1599.441 1599.509 1597.076 1592.75 1588.71 1583.134 1580.819 1578.225 1575.575 1573.423 1571.09 1570.418 1569.204 1566.768 1564.286 1562.781 1562.81 1562.068 1560.474 1558.544 1556.851 1555.109 1552.37 1551.556 1548.632 1544.484 1544.256 1543.409 1542.985 1545.123 1544.879 1544.577 1544.27 1543.731 1543.419 1543.141 1542.499 1541.293 1540.282 1536.446 1534.539 1533.702 1533.284 1534.216 1535.721 1536.066 1536.411 1535.707 1532.447 1528.039 1524.903 1523.278 1521.131 1518.384 1515.84 1513.751 1511.33 1509.683 1507.416 1504.412 1503.002 1501.568 1499.893 1497.833 1494.776 1490.654 1489.541 1488.439 1487.798 1486.782 1485.412 1483.527 1482.067 1479.335 1478.177 1477.09 1475.85 1474.757 1474.821 1475.248 1476.133 1477.584 1479.234 1479.268 1477.679 1479.722 1482.576 1485.229 1487.707 1488.987 1488.948 1489.808 1490.924 1492.386 1495.844 1500.088 1500.409 1499.925 1500.846 1505.179 1510.742 1517.7 1521.779 1525.007 1526.682
1523.345 1524.116 1524.596 1525.178 1525.674 1528.683 1532.436 1534.359 1535.548 1535.726 1535.476 1535.449 1535.875 1537.446 1541.377 1547.441 1554.181 1558.619 1562.635 1565.089 1568.075 1575.363 1579.66 1584.272 1587.482 1589.441 1592.091 1598.113 1599.865 1599.617 1596.833 1592.17 1587.98 1583.142 1581.105 1578.707 1576.309 1574.648 1572.456 1571.712 1570.505 1568.961 1567.544 1564.982 1564.35 1563.347 1561.79 1560.004 1558.412 1557.052 1553.988 1552.464 1550.44 1547.083 1542.984 1541.356 1542.985 1542.668 1542.353 1542.119 1541.894 1540.843 1540.667 1540.531 1539.709 1538.452 1537.81 1534.705 1532.613 1530.747 1529.075 1529.687 1531.183 1531.836 1531.921 1530.425 1526.862 1522.868 1517.913 1516.463 1515.323 1514.162 1513.027 1511.089 1509.712 1507.562 1505.207 1503.275 1502.187 1500.7 1499.682 1497.163 1493.913 1492.302 1491.399 1489.75 1488.803 1487.716 1485.412 1483.52 1480.269 1478.873 1477.855 1476.989 1475.569 1474.281 1474.868 1475.296 1475.871 1476.821 1477.694 1476.631 1476.739 1478.346 1480.344 1483.216 1485.412 1486.142 1486.813 1488.187 1489.149 1489.774 1492.179 1498.146 1499.248 1500.578 1503.458 1508.029 1512.346 1518.365 1521.423 1523.425 1524.949
1525.288 1526.601 1527.603 1529.455 1532.297 1533.528 1535.235 1536.779 1536.982 1537.456 1538.625 1538.987 1535.875 1537.861 1541.798 1546.375 1553.366 1557.546 1561.153 1563.894 1567.854 1575.781 1579.726 1583.866 1586.596 1588.718 1591.574 1598.229 1599.536 1598.924 1596.168 1591.724 1585.046 1583.352 1581.574 1579.601 1577.806 1576.454 1573.773 1572.605 1571.744 1571.106 1570.053 1567.514 1565.551 1564.434 1562.734 1561.216 1560.453 1557.836 1555.417 1552.643 1550.241 1547.846 1542.984 1541.356 1540.761 1540.169 1539.531 1539.099 1538.986 1539.054 1538.978 1538.552 1537.784 1536.961 1534.27 1532.09 1530 1527.744 1525.256 1525.206 1526.29 1526.936 1527.369 1526.347 1522.857 1518.88 1512.755 1512.132 1511.813 1511.5 1511.102 1509.238 1507.011 1504.47 1502.543 1500.827 1500.312 1499.325 1498.134 1496.398 1494.65 1493.078 1491.877 1490.3 1489.303 1487.716 1486.215 1484.143 1479.171 1478.183 1477.303 1476.432 1474.848 1473.751 1474.645 1475.31 1476.083 1476.576 1476.272 1475.601 1476.819 1478.313 1479.778 1481.115 1482.547 1483.844 1485.299 1486.762 1487.313 1488.397 1492.214 1498.845 1501.576 1505.495 1510.176 1513.005 1515.676 1517.611 1519.175 1520.345 1521.469
1527.394 1529.226 1531.882 1534.461 1537.667 1538.435 1539.299 1539.838 1540.073 1541.291 1543.147 1538.987 1539.323 1540.042 1542.169 1548.071 1550.532 1554.15 1558.136 1561.969 1566.552 1574.298 1578.056 1581.387 1584.073 1586.873 1590.074 1595.907 1597.571 1598.051 1596.076 1592.085 1585.65 1583.83 1582.259 1580.919 1579.773 1578.429 1575.375 1574.172 1573.583 1573.053 1571.922 1570.179 1566.93 1565.386 1564.176 1563.302 1562.593 1559.921 1556.359 1553.061 1551.169 1547.846 1544.464 1540.4 1539.104 1537.944 1537.029 1536.745 1536.712 1537.361 1537.803 1537.827 1537.669 1537.392 1532.804 1530.528 1528.509 1526.691 1524.815 1523.462 1522.568 1522.575 1522.486 1521.338 1518.13 1512.184 1511.057 1510.606 1510.156 1509.504 1509.147 1507.342 1505.703 1503.888 1502.107 1500.579 1499.597 1497.995 1496.913 1495.785 1494.475 1493.209 1491.279 1490.376 1489.303 1487.958 1486.183 1483.874 1477.853 1476.263 1476.12 1475.386 1473.704 1473.166 1474.536 1475.417 1476.165 1476.535 1476.149 1475.521 1476.357 1477.593 1478.462 1478.63 1479.604 1483.053 1484.817 1486.458 1487.974 1490.657 1495.11 1502.768 1506.743 1510.905 1513.579 1513.956 1513.95 1514.115 1514.468 1515.077 1516.349
1529.398 1532.18 1534.234 1536.885 1538.856 1540.454 1542.415 1543.734 1544.98 1545.731 1543.147 1544.134 1544.831 1545.172 1545.386 1547.002 1548.486 1551.51 1556.371 1560.959 1564.801 1572.471 1576.014 1579.112 1582.062 1585.145 1588.18 1593.867 1596.381 1597.396 1596.446 1593.344 1586.24 1584.472 1583.673 1582.93 1581.783 1580.203 1577.168 1576.05 1575.33 1574.578 1573.481 1570.117 1567.737 1565.969 1565.064 1564.369 1563.749 1560.414 1557.094 1553.788 1551.169 1549.108 1546.624 1541.216 1539.162 1538.445 1537.777 1536.997 1536.171 1536.647 1537.306 1537.65 1537.603 1536.785 1532.318 1529.833 1528.084 1526.972 1525.588 1523.533 1520.15 1518.868 1517.373 1515.549 1513.549 1511.268 1510.624 1509.849 1509.059 1508.559 1508.123 1505.971 1505.059 1503.599 1502.116 1501.404 1500.582 1498.024 1496.62 1495.238 1493.927 1492.883 1490.95 1490.376 1489.319 1487.911 1485.569 1482.461 1477.938 1476.26 1475.326 1474.484 1473.155 1472.635 1474.354 1475.536 1476.292 1476.538 1476.206 1474.972 1475.456 1476.217 1476.436 1476.296 1477.043 1482.716 1484.689 1486.432 1489.999 1495.402 1499.753 1504.194 1507.59 1511.022 1512.408 1512.355 1511.157 1510.96 1511.075 1511.199 1511.807
1527.942 1529.894 1533.831 1536.518 1539.903 1541.596 1543.53 1546.073 1547.863 1546.794 1548.106 1549.454 1550.277 1550.202 1549.89 1548.915 1548.77 1550.856 1555.153 1559.208 1562.451 1570.111 1573.553 1576.381 1579.736 1583.318 1589.246 1593.596 1596.845 1598.152 1597.988 1595.685 1588.603 1586.748 1586.181 1585.219 1583.812 1582.086 1579.141 1577.645 1576.655 1575.974 1574.865 1570.68 1567.826 1565.427 1563.995 1563.218 1562.268 1559.532 1556.013 1553.788 1551.812 1550.128 1548.013 1542.72 1540.613 1539.567 1538.504 1537.83 1536.271 1536.145 1536.684 1537.086 1536.83 1535.685 1531.505 1529.485 1528.125 1527.043 1525.636 1523.833 1519.139 1517.313 1515.753 1514.41 1513.301 1511.063 1510.102 1509.303 1508.545 1507.909 1507.18 1505.497 1504.583 1503.423 1502.577 1501.901 1500.028 1498.574 1496.687 1494.65 1493.167 1492.883 1490.95 1490.106 1489.157 1487.709 1485.494 1483.35 1478.218 1476.733 1475.378 1474.188 1472.927 1472.548 1473.902 1475.268 1476.26 1476.634 1476.249 1474.402 1474.489 1474.648 1474.889 1475.72 1477.388 1484.716 1485.967 1487.918 1492.942 1499.528 1502.371 1504.022 1506.299 1507.708 1508.047 1508.155 1507.594 1507.626 1507.949 1508.524 1509.567
1526.214 1529.216 1532.168 1534.774 1539.758 1541.365 1543.274 1546.073 1547.863 1550.211 1550.617 1551.798 1553.42 1554.175 1554.118 1553.334 1553.106 1554.438 1557.167 1559.645 1560.812 1568.446 1571.822 1574.345 1578.755 1583.01 1589.42 1594.154 1597.823 1599.661 1599.941 1598.122 1592.53 1590.342 1588.99 1587.42 1585.317 1582.299 1580.73 1579.157 1577.496 1575.74 1574.656 1570.736 1566.876 1563.624 1562.306 1561.315 1560.495 1557.432 1556.013 1552.603 1551.164 1549.813 1546.905 1544.986 1542.042 1539.131 1537.496 1537.095 1535.351 1535.131 1535.005 1534.651 1534.646 1533.621 1530.401 1529.222 1527.986 1526.673 1525.37 1521.585 1519.193 1517.363 1516.242 1515.166 1513.955 1511.681 1510.138 1508.883 1508.119 1507.279 1506.45 1504.798 1503.773 1502.773 1502.168 1502.025 1500.08 1498.077 1495.597 1493.315 1493.167 1491.985 1490.282 1489.436 1488.522 1487.07 1484.924 1482.681 1478.506 1476.601 1475.367 1474.154 1472.784 1471.663 1472.938 1474.403 1475.697 1476.459 1476.178 1474.011 1474.153 1474.543 1475.55 1477.281 1480.099 1487.27 1489.765 1492.958 1497.21 1501.124 1501.803 1501.878 1502.146 1502.837 1503.587 1503.616 1502.89 1502.671 1503.206 1504.749 1506.755
1524.956 1527.37 1530.254 1536.153 1537.933 1539.093 1543.274 1546.69 1548.846 1550.932 1551.583 1552.911 1555.339 1557.931 1558.835 1559.133 1558.997 1559.686 1561.354 1562.555 1565.399 1569.783 1573.27 1576.252 1580.994 1585.118 1591.756 1596.047 1599.503 1601.55 1602.27 1600.347 1595.809 1593.707 1591.962 1589.746 1587.215 1583.706 1582.074 1579.984 1577.609 1575.345 1573.227 1569.6 1566.234 1562.917 1560.883 1559.706 1558.658 1557.432 1555.239 1552.397 1549.694 1548.717 1549.471 1546.313 1541.335 1538.074 1536.673 1535.918 1533.974 1533.405 1532.227 1530.844 1530.37 1529.518 1529.316 1528.512 1527.588 1526.531 1525.361 1522.008 1520.042 1518.266 1516.551 1515.035 1514.198 1511.963 1510.248 1508.638 1507.698 1506.994 1504.889 1503.985 1503.053 1501.88 1500.746 1500.809 1499.314 1497.112 1494.605 1493.315 1491.884 1490.924 1488.541 1487.768 1487.132 1485.811 1484.112 1480.934 1479.204 1477.115 1475.293 1474.178 1472.992 1470.751 1471.327 1472.722 1474.168 1474.835 1474.314 1473.02 1473.759 1475.202 1476.808 1479.454 1487.039 1488.823 1490.331 1493.964 1498.559 1500.439 1499.946 1499.454 1499.406 1499.795 1499.88 1499.804 1499.197 1499.028 1499.784 1501.268 1502.952
1523.69 1525.09 1527.656 1534.688 1536.1 1539.093 1540.478 1542.631 1545.632 1549.69 1551.203 1553.328 1556.084 1559.038 1561.709 1563.311 1563.54 1563.926 1565.672 1567.682 1570.054 1572.351 1575.828 1579.961 1584.167 1588.026 1594.66 1598.235 1601.533 1604.517 1606.256 1605.203 1599.226 1597.312 1595.855 1593.139 1590.048 1585.566 1583.599 1581.336 1578.77 1576.333 1574.372 1570.038 1567.038 1563.702 1561.383 1559.694 1557.84 1555.852 1553.603 1551.682 1549.353 1547.582 1549.405 1545.085 1539.677 1537.291 1536.081 1534.922 1532.907 1530.947 1528.398 1526.922 1526.75 1528.073 1528.095 1527.667 1527.137 1526.573 1525.817 1523.137 1521.027 1518.354 1516.011 1515.3 1514.385 1511.98 1510.892 1509.575 1507.953 1505.658 1504.16 1503.271 1502.45 1501.59 1500.466 1499.834 1497.426 1495.599 1494.605 1492.241 1490.672 1489.579 1487.474 1486.451 1485.488 1484.315 1483.285 1481.322 1479.97 1477.722 1475.52 1474.914 1474.511 1470.752 1470.081 1470.441 1471.071 1471.603 1471.422 1471.029 1473.33 1475.278 1477.393 1480.527 1487.937 1489.609 1491.233 1493.695 1495.964 1497.607 1497.587 1497.332 1497.283 1497.288 1496.879 1496.933 1496.409 1496.51 1497.261 1498.462 1499.48
1524.661 1524.677 1525.566 1531.636 1536.1 1536.618 1537.078 1538.385 1540.312 1545.297 1547.538 1549.531 1552.497 1555.904 1561.362 1563.212 1565.491 1567.967 1570.637 1572.931 1574.161 1575.269 1578.591 1582.921 1586.862 1590.574 1597.2 1600.557 1603.881 1607.138 1609.847 1608.016 1605.29 1602.812 1600.04 1596.832 1593.266 1586.953 1584.555 1582.135 1579.33 1577 1574.822 1569.628 1566.818 1564.2 1561.383 1559.694 1556.926 1555.282 1552.896 1550.51 1548.643 1546.99 1545.885 1541.486 1537.839 1536.451 1535.591 1534.4 1532.096 1529.619 1526.395 1524.547 1525.284 1527.099 1526.798 1526.794 1526.642 1526.274 1525.932 1524.79 1521.641 1517.9 1515.871 1514.981 1514.828 1512.978 1512.376 1510.644 1507.507 1505.509 1503.442 1502.665 1501.947 1501.442 1500.774 1499.085 1496.083 1495.599 1493.633 1491.467 1489.646 1487.446 1487.009 1486.418 1485.577 1484.626 1483.361 1481.504 1480.382 1478.281 1476.25 1476.24 1476.363 1472.019 1469.864 1469.249 1468.589 1466.841 1466.982 1469.08 1472.518 1474.936 1476.866 1479.57 1486.183 1488.14 1489.672 1490.838 1491.937 1493.61 1495.099 1494.873 1494.69 1494.555 1494.063 1493.895 1494.052 1494.171 1494.669 1498.462 1499.48
1526.542 1526.607 1527.569 1531.636 1534.064 1535.288 1535.922 1535.811 1536.215 1539.927 1543.805 1546.324 1548.611 1551.542 1557.931 1560.769 1564.941 1570.036 1573.809 1576.191 1578.332 1580.216 1583.121 1586.303 1589.786 1593.487 1600.126 1603.38 1606.527 1609.341 1611.65 1612.531 1611.147 1608.756 1604.539 1599.952 1596.014 1588.396 1585.252 1582.729 1580.168 1577.468 1572.482 1570.309 1567.871 1564.2 1561.59 1559.965 1557.395 1555.231 1552.724 1550.724 1549.619 1549.032 1541.959 1538.179 1536.87 1536.023 1534.832 1532.985 1531.613 1529.714 1527.097 1524.73 1524.487 1525.856 1525.872 1525.922 1526.048 1525.972 1525.176 1521.985 1517.819 1514.896 1514.337 1513.986 1513.809 1513.626 1513.076 1510.747 1507.002 1504.934 1502.781 1502.283 1501.735 1501.344 1500.506 1498.246 1496.083 1494.456 1492.631 1490.792 1489.357 1488.523 1488.771 1488.973 1488.896 1487.679 1484.822 1481.223 1480.303 1478.997 1477.671 1477.316 1477.158 1472.895 1470.201 1469.298 1467.84 1464.146 1464.59 1467.24 1470.754 1473.148 1474.863 1476.646 1483.361 1486.077 1487.162 1488.226 1489.366 1490.997 1493.01 1492.448 1491.578 1491.276 1490.972 1491.48 1491.668 1491.494 1494.669 1495.71 1496.68
