NCOLS 92
NROWS 84
XLLCORNER 451988.49
YLLCORNER 3764865.4
CELLSIZE 10
NODATA_VALUE -9999
255.6654 255.6694 255.7622 255.7664 255.7923 255.8412 255.8631 255.8739 256.0524 256.064 256.1062 256.1985 256.2831 256.3679 256.5371 256.6224 256.7428 256.8415 256.879 256.9181 256.9619 256.9222 256.9011 256.8955 256.8526 256.804 256.6742 256.5589 256.4666 256.3504 256.1633 256.0039 255.7604 255.5815 255.4115 255.2313 255.0745 254.9964 254.8286 254.7267 254.5872 254.4561 254.3757 254.2972 254.1177 254.0934 254.0692 254.0108 253.9936 254.086 254.173 254.2127 254.2429 254.3152 254.4061 254.5053 254.5578 254.6408 254.7327 254.7967 254.8217 254.887 254.9545 254.9948 254.9874 254.9868 254.985 254.9911 254.9984 254.9457 254.8969 254.9071 254.906 254.9142 254.8524 254.8102 254.8159 254.8103 254.8194 254.9187 254.9111 254.9053 254.9473 255.0101 255.0201 255.1998 255.2317 255.2247 255.2625 255.3297 255.3281 255.2485 
255.4706 255.4609 255.5489 255.5761 255.5535 255.5977 255.6664 255.6714 255.7993 255.8368 255.905 255.996 256.0855 256.1693 256.3318 256.4099 256.558 256.7086 256.7718 256.8227 256.9238 256.8919 256.8392 256.8148 256.7996 256.7074 256.5335 256.4032 256.293 256.2082 256.0751 255.9047 255.6452 255.4932 255.3131 255.1647 255.0462 254.9077 254.7333 254.6516 254.5506 254.4487 254.3489 254.2 254.0178 254.0002 253.9573 253.8853 253.8923 253.9108 253.982 254.0552 254.1276 254.2162 254.3004 254.4459 254.4648 254.5227 254.6254 254.6768 254.6828 254.7721 254.8406 254.8847 254.8767 254.8761 254.8793 254.8104 254.7904 254.7958 254.7499 254.6922 254.7014 254.6316 254.5966 254.5956 254.5953 254.5939 254.5945 254.5974 254.6598 254.6992 254.6856 254.7132 254.789 254.8027 254.8029 254.8001 254.8004 254.8028 254.8011 254.802 
255.2255 255.2659 255.2999 255.306 255.3299 255.3752 255.4129 255.4683 255.5515 255.6105 255.7082 255.7686 255.8112 255.9066 256.1318 256.209 256.3124 256.4473 256.5775 256.6666 256.7607 256.7656 256.7054 256.6474 256.6365 256.5421 256.3697 256.2632 256.1245 256.008 255.9074 255.7252 255.4549 255.3176 255.1267 254.9906 254.8945 254.7205 254.5424 254.4558 254.3706 254.2872 254.1951 254.0868 253.9115 253.8406 253.8 253.7959 253.7847 253.7751 253.8581 253.9366 254.0191 254.1002 254.2003 254.4546 254.5282 254.5536 254.5919 254.6849 254.7502 254.8331 254.8673 254.8615 254.8611 254.862 254.8538 254.7677 254.71 254.6796 254.6502 254.5561 254.4918 254.4111 254.3829 254.3916 254.39 254.389 254.388 254.3853 254.3826 254.4359 254.4932 254.4881 254.4907 254.4836 254.4848 254.4851 254.4829 254.4856 254.4774 254.3824 
254.9639 255.0016 255.0396 255.0443 255.1077 255.1561 255.1703 255.26 255.3349 255.4164 255.5147 255.5518 255.5575 255.6499 255.917 256.0195 256.0948 256.1941 256.3073 256.393 256.4875 256.4778 256.4644 256.4216 256.3665 256.3387 256.1614 256.0878 255.9495 255.7959 255.7129 255.5945 255.3289 255.1806 255.0338 254.9112 254.7637 254.6637 254.4851 254.4001 254.3147 254.2293 254.1442 254.0605 253.8946 253.7515 253.6791 253.6754 253.6051 253.6042 253.7219 253.8883 254.0122 254.0913 254.1798 254.3662 254.4521 254.528 254.6102 254.6707 254.6863 254.7831 254.7817 254.7807 254.777 254.7741 254.7798 254.6965 254.601 254.5731 254.5487 254.4561 254.3681 254.2801 254.2175 254.1754 254.1842 254.1828 254.1818 254.1798 254.1783 254.1799 254.1816 254.1763 254.1845 254.2854 254.2168 254.1682 254.1786 254.1569 254.0788 254.0025 
254.76 254.7443 254.8359 254.856 254.8656 254.9112 254.9569 254.9899 255.1304 255.1724 255.2294 255.3027 255.364 255.4533 255.6497 255.7481 255.8297 255.9126 255.9943 256.081 256.1729 256.2236 256.2157 256.1536 256.1283 256.0638 255.9475 255.8368 255.6926 255.5949 255.5146 255.4201 255.1411 255.0504 254.9547 254.8615 254.7373 254.5928 254.5034 254.4138 254.3243 254.2335 254.1487 253.9711 253.8958 253.7508 253.5797 253.4969 253.4791 253.3932 253.5891 253.8064 253.9252 253.9994 254.0845 254.2539 254.3385 254.4281 254.5181 254.6028 254.6686 254.6731 254.6706 254.6637 254.7088 254.7501 254.6732 254.6731 254.6084 254.5213 254.4398 254.3535 254.2674 254.095 254.0759 254.0278 253.9689 253.9762 253.9754 253.9754 253.9751 253.9736 253.9723 253.9709 253.9699 253.974 253.9084 253.8576 253.8685 253.8505 253.761 253.6578 
254.5067 254.5533 254.5746 254.6329 254.643 254.6796 254.7482 254.7503 254.8727 254.9092 254.9859 255.0842 255.1481 255.1871 255.3716 255.4287 255.5185 255.6026 255.6863 255.7743 255.8702 255.8784 255.9231 255.9271 255.842 255.7535 255.6835 255.5838 255.4846 255.3985 255.3068 255.2183 255.0284 254.8842 254.7992 254.7731 254.6727 254.5708 254.4138 254.3175 254.2747 254.2477 254.154 254.0491 253.9183 253.803 253.5939 253.3378 253.2954 253.2007 253.3792 253.6517 253.8571 253.9949 254.0772 254.2418 254.3311 254.3657 254.4001 254.4975 254.5727 254.6415 254.6627 254.6611 254.6684 254.6757 254.6571 254.5708 254.5128 254.4183 254.3327 254.2478 254.1646 253.9924 253.902 253.8696 253.8378 253.7655 253.7692 253.6941 253.6606 253.6657 253.6642 253.6629 253.6615 253.6585 253.6641 253.6135 253.5531 253.5365 253.4579 253.3775 
254.2549 254.2886 254.3411 254.3573 254.4131 254.4572 254.4887 254.5459 254.6218 254.7094 254.7542 254.7993 254.8872 254.9409 255.039 255.1152 255.2062 255.2949 255.3835 255.4668 255.5491 255.5608 255.5664 255.5781 255.5596 255.5336 255.3709 255.2815 255.1904 255.1345 255.1103 255.0167 254.8367 254.7366 254.644 254.6024 254.581 254.4884 254.3794 254.321 254.2337 254.1527 254.0741 254.0592 253.9891 253.9215 253.6601 253.2864 253.1644 253.0678 253.1971 253.5544 253.8345 253.8944 253.9761 254.2261 254.3425 254.3607 254.398 254.4663 254.4781 254.5746 254.5714 254.5707 254.5701 254.5696 254.571 254.4884 254.4628 254.4206 254.3338 254.2256 254.0632 253.8899 253.8043 253.7118 253.663 253.6454 253.5683 253.4869 253.4525 253.4582 253.4568 253.4556 253.4563 253.3788 253.3482 253.3037 253.2421 253.2243 253.1479 253.0721 
253.9809 254.0364 254.1312 254.1389 254.1437 254.1927 254.2443 254.2706 254.3543 254.4256 254.5066 254.54 254.5717 254.6556 254.8037 254.8988 254.9378 254.9798 255.0616 255.0743 255.1405 255.2242 255.2611 255.2281 255.164 255.1559 255.1227 255.0593 254.9671 254.8806 254.818 254.81 254.7191 254.6269 254.5409 254.455 254.3987 254.3022 254.2168 254.1942 254.1464 254.0759 254.0528 254.0519 254.0064 253.9237 253.7533 253.4065 253.063 252.974 252.9543 253.2858 253.7256 253.8955 253.9704 254.1447 254.2348 254.325 254.3659 254.3865 254.4632 254.4684 254.4679 254.4674 254.467 254.4657 254.4639 254.463 254.4626 254.4215 254.3345 254.2258 254.064 253.813 253.695 253.6153 253.529 253.4386 253.3616 253.2823 253.2469 253.2513 253.2501 253.252 253.2398 253.1429 253.0892 252.994 252.9013 252.8295 252.7427 252.7232 
253.802 253.8246 253.8434 253.9056 253.9332 253.9301 253.9642 254.0252 254.1148 254.1411 254.1935 254.2737 254.3405 254.4345 254.5404 254.5993 254.6865 254.7346 254.7352 254.7398 254.8254 254.8981 254.9051 254.8315 254.8327 254.9036 254.9145 254.853 254.7505 254.6926 254.6679 254.6016 254.5974 254.5395 254.4439 254.3528 254.266 254.187 254.1213 254.0266 253.9777 253.9819 253.961 253.9529 253.9824 253.9097 253.8989 253.636 252.9521 252.7953 252.7429 253.0114 253.487 253.8287 253.9751 254.1465 254.1637 254.2085 254.3064 254.368 254.3674 254.3652 254.3636 254.3628 254.3566 254.3845 254.451 254.3564 254.3609 254.3666 254.3404 254.2313 254.0569 253.7884 253.6437 253.508 253.426 253.3404 253.2525 253.1506 253.0927 253.0402 253.0485 253.0275 252.9451 252.8658 252.7717 252.6858 252.5972 252.5 252.4038 252.334 
253.6961 253.6927 253.6884 253.708 253.7097 253.7328 253.7963 253.8144 253.827 253.8826 253.9634 254.058 254.1293 254.1461 254.2942 254.383 254.4288 254.458 254.5077 254.5109 254.6022 254.6755 254.6658 254.616 254.6932 254.7057 254.7018 254.7025 254.6412 254.5818 254.571 254.4877 254.4252 254.3283 254.2868 254.2628 254.1724 254.002 253.9117 253.8726 253.8741 253.8746 253.8726 253.8711 253.8732 253.8686 253.8729 253.7308 253.1716 252.651 252.5872 252.6711 253.173 253.741 253.8773 254.0413 254.1325 254.1633 254.1973 254.2669 254.2643 254.2572 254.3233 254.3679 254.3605 254.3601 254.3592 254.3633 254.2969 254.2496 254.262 254.2487 254.1562 253.8107 253.7152 253.5367 253.3185 253.2351 253.1466 252.9715 252.9449 252.9027 252.842 252.8249 252.7386 252.5435 252.4547 252.3699 252.2461 252.0849 251.9046 251.8124 
253.5928 253.5927 253.585 253.5753 253.6196 253.6793 253.6909 253.6882 253.685 253.6862 253.7484 253.814 253.8374 253.9132 254.0884 254.1208 254.1569 254.2373 254.3235 254.3869 254.4688 254.4434 254.4371 254.4945 254.4915 254.4992 254.5226 254.4846 254.4912 254.4541 254.3884 254.3019 254.2843 254.229 254.1376 254.058 253.9681 253.8779 253.8054 253.7674 253.7767 253.7755 253.7749 253.7735 253.7704 253.7614 253.8072 253.8939 253.6298 252.5219 252.5049 252.4007 252.7539 253.5024 253.8711 254.0427 254.0675 254.0541 254.0936 254.1634 254.1609 254.1537 254.2194 254.2644 254.2567 254.2563 254.2578 254.1808 254.1482 254.1536 254.158 254.1402 254.0594 253.8151 253.7736 253.6606 253.3775 253.1178 252.9572 252.8731 252.7771 252.7398 252.7142 252.6203 252.3488 252.1621 252.0422 251.9058 251.7567 251.6578 251.465 251.4085 
253.4888 253.4797 253.5443 253.5625 253.5781 253.5904 253.5875 253.5872 253.5758 253.6305 253.6809 253.6839 253.6801 253.696 253.8829 253.899 253.9318 254.0271 254.1175 254.203 254.3009 254.2865 254.2759 254.3148 254.3784 254.3793 254.3796 254.3742 254.3844 254.3531 254.2763 254.1931 254.1032 254.0791 254.044 253.9498 253.8601 253.6896 253.6747 253.6206 253.5659 253.5716 253.571 253.5656 253.6346 253.6665 253.7125 253.7734 253.4802 252.364 252.3608 252.2672 252.4467 253.1407 253.7569 253.9392 253.9583 254.0069 254.0647 254.0571 254.0562 254.0503 254.1157 254.1611 254.1535 254.1531 254.1524 254.1598 254.0977 254.047 254.0491 254.0536 254.0497 253.8915 253.8127 253.7011 253.4673 253.1491 252.9682 252.6705 252.6477 252.6023 252.5029 252.4009 252.0493 251.8782 251.7022 251.5204 251.3753 251.2649 250.9897 250.963 
253.3978 253.4576 253.4835 253.4887 253.4863 253.4851 253.4852 253.4818 253.5437 253.5834 253.5847 253.5748 253.5895 253.6637 253.6792 253.7333 253.8317 253.8874 253.9019 253.9892 254.0882 254.1411 254.1791 254.2039 254.2812 254.2767 254.273 254.2826 254.2387 254.1714 254.1743 254.0923 254.0009 253.9186 253.8284 253.7719 253.7605 253.5851 253.4957 253.4606 253.4652 253.4646 253.4641 253.4637 253.4636 253.4688 253.4496 253.2924 252.9195 252.286 252.1833 252.133 252.202 252.6086 253.3639 253.8716 253.9161 253.9612 253.954 253.9535 253.953 253.9472 254.0082 254.0543 254.0507 254.05 254.0494 254.0481 254.0579 254.0118 253.9474 253.9487 253.941 253.8535 253.8 253.7234 253.5881 253.322 253.0641 252.7074 252.5826 252.4419 252.2923 252.1961 251.8513 251.6792 251.5074 251.5204 251.3753 251.2649 250.9897 250.963 
253.3696 253.3857 253.3841 253.3833 253.3835 253.3803 253.3709 253.3805 253.4823 253.4818 253.4702 253.4997 253.5715 253.5782 253.6418 253.6782 253.6723 253.7012 253.7929 253.8748 253.9469 253.9771 254.0185 254.0743 254.0928 254.1791 254.1802 254.1197 254.0648 254.0739 254.0588 253.9699 253.9075 253.8139 253.7269 253.6371 253.5682 253.4866 253.3905 253.3558 253.3621 253.3612 253.3632 253.2802 253.2573 253.2249 253.052 252.8079 252.6286 252.1085 252.044 252.0091 251.8992 252.0637 252.7488 253.6819 253.744 253.7838 253.8495 253.8517 253.8504 253.8493 253.8379 253.8891 253.9539 253.9478 253.9467 253.9459 253.9447 253.9547 253.9214 253.8415 253.8439 253.7804 253.6776 253.5984 253.456 253.1884 252.7703 252.6032 252.4278 252.4419 252.2923 252.1961 251.8513 251.6792 251.5074 251.3357 251.1621 250.9815 250.7307 250.6577 
253.2832 253.282 253.2814 253.2764 253.2662 253.3025 253.3609 253.3665 253.3787 253.3668 253.412 253.4752 253.4771 253.4731 253.5458 253.571 253.6085 253.673 253.6702 253.6767 253.8469 253.8692 253.9121 253.9771 253.97 253.9715 253.9707 253.9675 253.9729 253.9431 253.8693 253.7869 253.6912 253.6636 253.6311 253.5339 253.4634 253.3839 253.2878 253.2523 253.2641 253.2347 253.1567 253.1599 253.0262 252.8945 252.7868 252.5871 252.3381 251.9898 251.944 251.903 251.8237 251.8957 252.2303 253.0019 253.3046 253.4634 253.584 253.7297 253.733 253.7368 253.736 253.7859 253.8396 253.8337 253.8324 253.8307 253.8298 253.8347 253.8051 253.7385 253.7265 253.6618 253.5091 253.3788 253.456 253.1884 252.7703 252.6032 252.4278 252.2466 252.1015 251.991 251.6623 251.4955 251.3228 251.1528 250.9743 250.782 250.6228 250.6388 
253.1783 253.1725 253.1669 253.2285 253.2634 253.2697 253.2769 253.2763 253.2698 253.328 253.376 253.374 253.3696 253.3773 253.469 253.5247 253.574 253.5654 253.583 253.6572 253.7382 253.7738 253.7612 253.7945 253.8682 253.8658 253.8651 253.8714 253.8251 253.7577 253.7634 253.6829 253.587 253.5596 253.5283 253.4311 253.36 253.2811 253.1848 253.1545 253.1167 253.0519 253.0417 252.8641 252.7863 252.6434 252.5036 252.4061 252.235 251.891 251.7722 251.7425 251.7001 251.6606 251.8178 252.4628 252.7809 252.9857 253.1629 253.3159 253.4147 253.5119 253.5748 253.6208 253.6122 253.6218 253.6202 253.6182 253.6172 253.6156 253.6227 253.7385 253.7265 253.6618 253.5091 253.3788 253.2465 253.0053 252.6544 252.4688 252.2893 252.1176 251.949 251.7822 251.5296 251.3844 251.2061 251.0386 250.8432 250.6331 250.5584 250.5369 
253.0883 253.1563 253.1628 253.1718 253.1751 253.1738 253.1733 253.1723 253.1613 253.228 253.278 253.2705 253.2655 253.2712 253.3652 253.4226 253.4746 253.4608 253.4781 253.5575 253.6342 253.6705 253.6629 253.6629 253.6627 253.661 253.6602 253.6593 253.6586 253.6635 253.6464 253.5563 253.4902 253.456 253.4255 253.3287 253.2565 253.1778 253.0891 252.9935 252.949 252.9324 252.8363 252.6689 252.5843 252.4395 252.3009 252.1992 252.0239 251.7655 251.6862 251.589 251.5364 251.5301 251.5363 252.0106 252.2568 252.5234 252.7507 252.9189 253.0883 253.2091 253.2602 253.3005 253.3344 253.6218 253.6202 253.6182 253.6172 253.6156 253.6227 253.6104 253.42 253.4021 253.2997 253.1602 253.0547 252.8815 252.44 252.2104 252.0046 251.8309 251.6933 251.6022 251.3414 251.1951 251.0182 250.8373 250.7014 250.6515 250.5387 250.4829 
253.0699 253.0744 253.0723 253.0716 253.071 253.0709 253.066 253.0721 253.1635 253.1664 253.1681 253.1611 253.1788 253.2562 253.3344 253.3702 253.3567 253.3884 253.4629 253.4588 253.5304 253.5671 253.5596 253.5593 253.5587 253.5576 253.5571 253.5566 253.5561 253.5592 253.5407 253.4537 253.3876 253.35 253.319 253.2306 253.1409 253.0494 252.9924 252.893 252.8514 252.8 252.6483 252.5709 252.4144 252.2318 252.1063 252.0013 251.836 251.666 251.5841 251.4913 251.438 251.4056 251.3457 251.6337 251.8503 252.1123 252.3377 252.5003 253.0883 253.2091 253.2602 253.3005 253.3344 253.4032 253.4152 253.4125 253.4118 253.4107 253.4148 253.3982 253.2239 253.1312 253.0543 252.9229 252.7696 252.6489 252.2343 252.0688 251.9153 251.7517 251.5983 251.4849 251.2511 251.1033 250.9233 250.7522 250.6432 250.6264 250.4744 250.4373 
252.9732 252.9715 252.969 252.9664 252.9648 252.9593 252.9798 253.0587 253.0652 253.065 253.057 253.0895 253.1636 253.1626 253.2321 253.2605 253.3006 253.3654 253.36 253.3554 253.4267 253.4637 253.4563 253.4559 253.4555 253.4545 253.4539 253.453 253.4592 253.4286 253.349 253.3501 253.2888 253.1897 253.1451 253.1319 253.04 252.9475 252.8896 252.7982 252.7093 252.6206 252.5389 252.3567 252.2079 252.0873 252.0113 251.899 251.731 251.5239 251.4718 251.3788 251.291 251.2287 251.2166 251.6337 251.8503 252.1123 252.3377 252.5003 252.673 252.9785 253.0005 253.0519 253.1099 253.1186 253.204 253.207 253.2064 253.2053 253.2094 253.1933 253.019 252.9326 252.8544 252.7301 252.5482 252.3695 252.0308 251.8741 251.7585 251.6416 251.4773 251.3108 251.126 250.9913 250.8161 250.6944 250.6391 250.5557 250.4817 250.3895 
252.8669 252.8643 252.8582 252.9211 252.9632 252.9611 252.9621 252.963 252.9619 252.9543 253.0025 253.0659 253.0605 253.0575 253.1286 253.1582 253.198 253.2613 253.2568 253.2519 253.3228 253.3605 253.353 253.3528 253.3522 253.3512 253.3506 253.3505 253.353 253.3208 253.2522 253.1643 253.1458 253.098 253.0414 253.0208 252.9372 252.8455 252.7801 252.6814 252.6012 252.524 252.4406 252.1732 252.0548 251.9861 251.8636 251.7129 251.613 251.5239 251.4718 251.3788 251.291 251.2287 251.2166 251.3421 251.513 251.7208 251.9423 252.1048 252.2842 252.6577 252.7429 252.8351 252.8934 252.9175 252.9786 253.0038 253.0011 253.0001 253.0049 252.9907 252.817 252.7325 252.6357 252.4923 252.3242 252.172 251.8499 251.7392 251.6046 251.4722 251.3539 251.2196 250.9604 250.8275 250.7143 250.6436 250.6069 250.5215 250.432 250.3875 
252.7807 252.8543 252.8612 252.8617 252.8612 252.8606 252.8601 252.8596 252.8598 252.9159 252.9653 252.957 252.9531 253.0399 253.0549 253.1103 253.1629 253.1531 253.1527 253.1485 253.2192 253.2575 253.2499 253.2496 253.2491 253.2484 253.2484 253.2496 253.2019 253.1378 253.1462 253.0639 253.0375 252.9958 252.9008 252.8373 252.8328 252.7355 252.6115 252.4722 252.4296 252.4092 252.3232 251.9972 252.0548 251.9861 251.8636 251.7129 251.613 251.3539 251.27 251.1779 251.1245 251.1023 251.028 251.1516 251.3125 251.4684 251.6359 251.8029 251.9531 252.2944 252.4256 252.5136 252.6031 252.6767 252.7583 252.7955 252.8004 252.7995 252.7951 252.7583 252.5816 252.4997 252.373 252.199 252.0572 251.9706 251.7167 251.5772 251.4525 251.3243 251.1959 251.1147 250.8571 250.7013 250.6298 250.6054 250.5354 250.4569 250.3726 250.3354 
252.6572 252.6656 252.764 252.7581 252.7577 252.7578 252.7595 252.768 252.8633 252.8557 252.8539 252.8535 252.8508 252.935 252.9549 253.0081 253.0569 253.0501 253.0496 253.0455 253.1096 253.15 253.1478 253.147 253.1467 253.1373 253.1395 253.0843 253.0336 253.0447 253.0213 252.9413 252.8738 252.8287 252.7977 252.738 252.7179 252.553 252.4744 252.4722 252.4296 252.4092 252.3232 251.9972 251.8585 251.7828 251.7056 251.5998 251.4286 251.2622 251.1755 251.0906 250.9957 250.9247 250.93 250.9526 251.0375 251.1765 251.3463 251.481 251.5818 251.8908 252.0748 252.2057 252.2905 252.4008 252.4854 252.5354 252.5643 252.5643 252.5329 252.4408 252.2955 252.2051 252.1295 252.0033 251.8486 251.7698 251.5499 251.4298 251.2999 251.1636 251.0639 250.971 250.7358 250.6554 250.5857 250.549 250.5051 250.417 250.3324 250.2836 
252.5778 252.6532 252.6576 252.661 252.659 252.6866 252.7581 252.7583 252.7518 252.7515 252.7513 252.7455 252.7638 252.851 252.9144 252.9532 252.9475 252.9469 252.9465 252.9453 252.9347 252.9873 253.0394 253.0322 253.0336 252.9547 252.9287 252.9375 252.9479 252.9182 252.8354 252.8315 252.7761 252.8287 252.7977 252.738 252.7179 252.553 252.4744 252.3914 252.3015 252.2146 252.1171 251.8516 251.7762 251.6887 251.6072 251.5044 251.3539 251.1566 251.0717 250.9867 250.898 250.8275 250.8013 250.702 250.7865 250.968 251.1305 251.2435 251.4142 251.6544 251.8268 251.9528 252.0685 252.2332 252.3164 252.3152 252.3075 252.3142 252.2856 252.2136 252.1395 252.0768 252.0149 251.8792 251.7241 251.6389 251.4443 251.2876 251.1413 251.0212 250.8794 250.7672 250.6393 250.5759 250.545 250.488 250.4019 250.3586 250.2332 250.2135 
252.5568 252.5518 252.6266 252.6628 252.6556 252.6541 252.6504 252.6494 252.6489 252.6483 252.6481 252.6431 252.6581 252.7471 252.7424 252.8 252.8509 252.844 252.8435 252.8426 252.8425 252.8379 252.8334 252.8334 252.8327 252.8377 252.8392 252.8399 252.9479 252.9182 252.8354 252.8315 252.7761 252.6798 252.6329 252.6169 252.5079 252.4205 252.3732 252.2908 252.2042 252.1156 252.0045 251.755 251.673 251.5869 251.5003 251.4194 251.3322 251.0762 250.9979 250.8993 250.7961 250.7068 250.6238 250.6288 250.5982 250.7114 250.9493 251.1219 251.4705 251.5907 251.7215 251.8353 251.9403 252.0617 252.1697 252.1903 252.2091 252.2205 252.1618 252.0869 252.0038 251.961 251.9035 251.8069 251.7003 251.5714 251.3053 251.1807 251.0173 250.8597 250.7264 250.6077 250.5377 250.5197 250.4775 250.371 250.3104 250.3097 250.1689 250.1237 
252.4509 252.4487 252.5146 252.5517 252.5486 252.5478 252.5473 252.5463 252.5458 252.5453 252.5448 252.5448 252.5401 252.6191 252.7211 252.7523 252.7408 252.7412 252.7415 252.7399 252.7392 252.7388 252.7383 252.8334 252.8327 252.8377 252.8392 252.8399 252.8379 252.8037 252.7389 252.6485 252.6209 252.5788 252.5351 252.4781 252.3316 252.2477 252.2183 252.1679 252.0911 251.9972 251.8248 251.6574 251.5694 251.4823 251.3968 251.3099 251.2223 251.0856 250.9958 250.8531 250.7211 250.6308 250.5309 250.5249 250.5136 250.5926 250.7674 250.9367 251.2824 251.4368 251.5394 251.6182 251.6988 251.7752 251.9974 252.0208 252.0595 252.0508 251.9541 251.9067 251.8244 251.7415 251.6451 251.5949 251.5397 251.4058 251.1546 251.016 250.8625 250.7175 250.6315 250.5588 250.4336 250.4129 250.3677 250.2914 250.2514 250.2085 250.1275 250.0801 
252.3476 252.3474 252.3358 252.3983 252.4529 252.4448 252.4443 252.4433 252.4429 252.4424 252.4419 252.4416 252.4382 252.5173 252.6123 252.6462 252.6407 252.6355 252.7415 252.7399 252.7392 252.7388 252.7383 252.7379 252.7374 252.7376 252.7387 252.7334 252.684 252.6297 252.6248 252.533 252.4688 252.4168 252.387 252.3098 252.2268 252.1096 252.0607 251.9706 251.919 251.8756 251.7306 251.5512 251.4843 251.4123 251.3201 251.2406 251.177 251.0377 250.9298 250.8042 250.7381 250.6245 250.4353 250.425 250.3871 250.4646 250.6869 250.8761 251.1861 251.3202 251.3823 251.4355 251.5392 251.651 251.8135 251.8739 251.8808 251.8439 251.8142 251.8078 251.7177 251.6583 251.5638 251.4753 251.3866 251.3087 251.0545 250.9102 250.7453 250.6306 250.6002 250.5123 250.3291 250.3109 250.2621 250.2112 250.1931 250.1087 250.029 250.0009 
252.2447 252.2433 252.238 252.29 252.3408 252.3426 252.3415 252.3404 252.34 252.3395 252.3392 252.338 252.4382 252.5173 252.6123 252.6462 252.6407 252.6355 252.6209 252.6344 252.6389 252.6373 252.637 252.6366 252.6368 252.6184 252.617 252.5689 252.5233 252.5324 252.504 252.4165 252.3494 252.2614 252.218 252.187 252.1008 251.9413 251.9232 251.8904 251.7933 251.7026 251.6206 251.4679 251.4379 251.4009 251.3398 251.2985 251.2629 251.0008 250.9373 250.856 250.7703 250.6059 250.3079 250.3278 250.2392 250.3099 250.61 250.8431 251.0847 251.2246 251.3453 251.4363 251.5474 251.6608 251.5939 251.6371 251.6964 251.7255 251.7106 251.6636 251.5758 251.5347 251.4655 251.3763 251.2906 251.2059 250.9969 250.8701 250.7455 250.6093 250.4809 250.3964 250.2204 250.206 250.1615 250.1032 250.1004 250.0614 249.9747 249.921 
252.1417 252.1409 252.1409 252.1283 252.1736 252.2451 252.2395 252.3404 252.34 252.3395 252.3392 252.338 252.338 252.4194 252.5105 252.5341 252.5214 252.4972 252.4256 252.4956 252.5184 252.512 252.5116 252.5105 252.5118 252.442 252.4165 252.4289 252.4287 252.3888 252.3256 252.2223 252.1421 252.1108 252.0771 252.0041 251.9483 251.8743 251.8398 251.7852 251.6916 251.6104 251.5476 251.4608 251.4225 251.3745 251.3574 251.3205 251.2213 251.0768 251.0175 250.9309 250.8387 250.6432 250.2171 250.2208 250.1459 250.1911 250.4636 250.7414 251.0309 251.1434 251.3189 251.4722 251.5579 251.6144 251.5593 251.52 251.4973 251.5356 251.5587 251.5161 251.4287 251.4127 251.3718 251.2742 251.1889 251.1029 250.9407 250.7803 250.6506 250.5587 250.4427 250.3581 250.186 250.1287 250.0554 249.9983 250.0087 250.0013 249.904 249.8866 
252.0389 252.038 252.1409 252.1283 252.1736 252.2451 252.2395 252.2377 252.2372 252.2368 252.2365 252.2319 252.2456 252.3166 252.385 252.3755 252.3185 252.3261 252.3326 252.325 252.3223 252.3224 252.3219 252.3215 252.3208 252.3288 252.3334 252.3218 252.274 252.2175 252.1942 252.0389 252.0256 251.978 251.9116 251.9296 251.9249 251.83 251.7749 251.674 251.5926 251.56 251.5551 251.4611 251.4509 251.4085 251.3339 251.2429 251.1944 251.094 251 250.9137 250.8474 250.7203 250.1451 250.1094 250.0491 250.0606 250.3095 250.6399 251.0298 251.1735 251.3002 251.3828 251.4373 251.5124 251.5197 251.4921 251.4045 251.3397 251.3475 251.3577 251.3266 251.2761 251.2375 251.1815 251.0875 251.0004 250.8297 250.7177 250.6172 250.5111 250.3818 250.2968 250.1263 250.0326 249.9339 249.8831 249.898 249.8869 249.7856 249.803 
252.0389 252.038 252.0377 252.0314 252.0671 252.1264 252.1366 252.1349 252.1346 252.1341 252.1337 252.1336 252.1321 252.1178 252.1872 252.2339 252.2311 252.2304 252.2299 252.2291 252.2287 252.2283 252.2279 252.2275 252.2279 252.2018 252.1985 252.1604 252.1091 252.0796 252.0177 251.9405 251.9019 251.8533 251.8159 251.8256 251.8153 251.7174 251.6626 251.5819 251.5603 251.5566 251.5221 251.4335 251.3826 251.3371 251.2966 251.2615 251.1775 251.1158 251.0467 250.9638 250.8788 250.7192 250.0708 249.9993 249.9508 249.9397 250.1692 250.556 250.9912 251.1094 251.2497 251.3083 251.3221 251.4085 251.4108 251.3801 251.3372 251.2941 251.2429 251.204 251.1651 251.1235 251.0785 251.0382 250.9912 250.908 250.7407 250.6373 250.5647 250.4618 250.3442 250.2531 250.0792 250.041 249.9876 249.905 249.8634 249.8629 249.7835 249.762 
251.9362 251.9353 251.9349 251.9353 251.9241 251.9507 252.0345 252.0341 252.034 252.0325 252.031 252.0307 252.0297 252.0466 252.1046 252.1337 252.1282 252.1279 252.1274 252.1267 252.1263 252.1259 252.1255 252.125 252.1263 252.0704 252.0236 252.0256 251.9917 251.9152 251.9158 251.8296 251.7767 251.7597 251.7465 251.7213 251.715 251.6617 251.6025 251.5588 251.5624 251.5474 251.4691 251.3929 251.3599 251.3394 251.304 251.3062 251.2202 251.221 251.1731 251.0562 250.9291 250.787 250.0061 249.8827 249.8583 249.7901 249.9534 250.4046 250.9378 251.0543 251.193 251.2929 251.3159 251.3017 251.3172 251.2409 251.1945 251.2168 251.1975 251.1027 251.016 250.9672 250.9255 250.8852 250.8337 250.7994 250.6954 250.5698 250.4495 250.366 250.2997 250.2722 250.0956 250.0313 249.9635 249.8677 249.802 249.8029 249.7152 249.6617 
251.8336 251.8327 251.8323 251.8321 251.8268 251.8486 251.9062 251.9046 251.9023 251.9163 251.9303 251.9284 251.9251 252.0124 252.0361 252.0253 252.0258 252.0254 252.0251 252.0217 252.0201 252.0217 252.0234 252.0226 252.0233 252.0058 251.9526 251.9061 251.862 251.8193 251.8183 251.7352 251.7188 251.7338 251.6943 251.6152 251.6166 251.5969 251.545 251.5219 251.5134 251.4706 251.423 251.3346 251.3165 251.3226 251.3324 251.3094 251.2175 251.2282 251.211 251.1226 250.984 250.856 249.9841 249.786 249.7574 249.6701 249.7943 250.2611 250.937 251.0242 251.1335 251.2613 251.3117 251.2601 251.1552 251.1155 251.1052 251.0848 251.0359 250.995 250.8496 250.819 250.7738 250.7187 250.7016 250.7 250.5529 250.4557 250.3502 250.2651 250.1872 250.127 250.0085 249.9433 249.8515 249.7646 249.6819 249.6249 249.5432 249.509 
251.731 251.7301 251.7298 251.7293 251.7295 251.7266 251.7197 251.7185 251.7114 251.7726 251.8333 251.8262 251.8229 251.9053 251.9316 251.9234 251.9235 251.9233 251.9215 251.9499 251.9626 251.9422 251.9183 251.9217 251.9188 251.8289 251.793 251.7461 251.7087 251.7216 251.7108 251.6096 251.617 251.6227 251.5872 251.5132 251.5156 251.4389 251.403 251.424 251.3884 251.3092 251.3052 251.2043 251.2122 251.2112 251.2103 251.2148 251.1301 251.1066 251.0824 251.047 250.9851 250.8666 250.0678 249.7344 249.6442 249.5749 249.6738 250.1163 250.9544 251.0414 251.0859 251.1406 251.2095 251.2095 251.0285 250.9865 251.01 250.9661 250.8979 250.8929 250.7189 250.6525 250.6143 250.6069 250.5933 250.5325 250.4326 250.3381 250.2544 250.1741 250.0874 249.9972 249.9033 249.8453 249.7527 249.6732 249.5854 249.4987 249.4065 249.3498 
251.6285 251.6277 251.6273 251.6269 251.6265 251.6261 251.6257 251.6247 251.6178 251.6758 251.7328 251.7236 251.7215 251.7717 251.8131 251.8238 251.8212 251.8192 251.8231 251.8849 251.8952 251.8559 251.8141 251.8219 251.8101 251.7159 251.6493 251.6017 251.6167 251.6194 251.609 251.5036 251.512 251.5208 251.4854 251.4131 251.4096 251.3244 251.3119 251.2944 251.2451 251.2129 251.127 251.1043 251.1096 251.1092 251.1057 251.1201 251.0384 251.0015 250.9851 250.9345 250.8904 250.8698 250.176 249.7067 249.5277 249.4756 249.5607 249.9724 250.8713 250.9828 250.9993 251.0291 251.1095 251.1053 250.9818 250.9195 250.9016 250.8654 250.8008 250.7982 250.6215 250.5321 250.4555 250.423 250.4229 250.3993 250.248 250.2159 250.1269 249.9847 249.9028 249.8149 249.7187 249.7291 249.6299 249.4821 249.407 249.3193 249.2144 249.2109 
251.5261 251.5253 251.5249 251.5245 251.5241 251.5237 251.5234 251.5224 251.5179 251.5512 251.604 251.6259 251.6216 251.6091 251.6787 251.7288 251.7236 251.7206 251.7293 251.7309 251.7044 251.7129 251.7164 251.7208 251.7136 251.6127 251.5857 251.5334 251.5049 251.5103 251.5097 251.4606 251.4325 251.4148 251.3836 251.313 251.3037 251.2022 251.2218 251.1702 251.0983 251.1119 251.0267 251.0017 251.0074 251.0068 251.0065 251.0082 250.923 250.8993 250.9106 250.8924 250.8622 250.8682 250.2602 249.6791 249.412 249.3769 249.4456 249.8141 250.8176 250.8972 250.9261 250.9856 250.9881 250.9292 250.9025 250.8354 250.8008 250.7745 250.6802 250.6259 250.5325 250.4377 250.3393 250.2919 250.2891 250.2155 250.1018 250.0628 249.9659 249.8566 249.7748 249.6945 249.5359 249.47 249.4304 249.3543 249.1998 249.1109 249.0065 249.0189 
251.4237 251.4229 251.4223 251.424 251.4261 251.4245 251.4211 251.4203 251.4206 251.4111 251.4318 251.49 251.5185 251.513 251.5858 251.6074 251.572 251.5711 251.5708 251.6154 251.6152 251.6143 251.6165 251.6079 251.5654 251.5056 251.5136 251.4903 251.4613 251.4504 251.4082 251.423 251.355 251.3086 251.2819 251.2108 251.2022 251.1057 251.0802 251.0296 251.007 250.9998 250.9111 250.9031 250.905 250.9045 250.904 250.9068 250.8159 250.7941 250.8029 250.8034 250.8068 250.8132 250.425 249.6875 249.2893 249.2861 249.2986 249.5401 250.745 250.8685 250.8855 250.9068 250.8761 250.7955 250.8072 250.7413 250.6538 250.6168 250.5837 250.491 250.3405 250.3082 250.2554 250.1626 250.1125 250.0916 249.9346 249.8463 249.8026 249.7771 249.6652 249.5179 249.3627 249.243 249.1776 249.0969 248.9958 248.9075 248.8011 248.8126 
251.3214 251.3207 251.3227 251.3012 251.2765 251.2895 251.3226 251.319 251.3174 251.3182 251.3082 251.3306 251.4184 251.414 251.4535 251.4453 251.4013 251.4129 251.4558 251.5158 251.5125 251.5119 251.5182 251.4918 251.3971 251.4413 251.4637 251.4391 251.4081 251.4029 251.3613 251.3091 251.247 251.2026 251.1784 251.1025 251.0237 251.0065 250.9474 250.8945 250.9096 250.8907 250.7987 250.8035 250.8026 250.8018 250.8037 250.8105 250.7828 250.7228 250.6947 250.7024 250.7085 250.7247 250.5366 249.6876 249.1753 249.192 249.1699 249.2773 250.5382 250.801 250.8271 250.8166 250.79 250.7066 250.6461 250.6127 250.5572 250.4666 250.413 250.3936 250.2147 250.1361 250.1063 250.0705 249.9819 249.9043 249.7978 249.7398 249.6578 249.5847 249.4944 249.4016 249.2333 249.0798 248.9522 248.8768 248.7907 248.615 248.5954 248.6077 
251.2191 251.2186 251.2251 251.1649 251.099 251.1225 251.172 251.21 251.2203 251.2148 251.2117 251.2247 251.2657 251.3022 251.3113 251.3092 251.3047 251.3256 251.4133 251.4054 251.4084 251.4049 251.3954 251.3978 251.4071 251.4573 251.4389 251.3833 251.3619 251.3535 251.3072 251.2173 251.1791 251.1365 251.0878 251.0583 250.9128 250.9013 250.8495 250.795 250.8091 250.7965 250.6968 250.7065 250.7089 250.7127 250.6907 250.6329 250.6418 250.6185 250.6131 250.5905 250.5246 250.4712 250.0128 249.3656 249.053 249.0956 249.0747 249.12 250.0956 250.4379 250.5458 250.5632 250.5505 250.5264 250.4378 250.417 250.3717 250.3038 250.283 250.2052 250.0996 250.0348 249.9489 249.8709 249.8028 249.7861 249.6231 249.5486 249.4638 249.3811 249.2769 249.1155 249.0054 248.9506 248.8053 248.6622 248.584 248.4026 248.3876 248.3954 
251.1163 251.1161 251.1261 251.0697 251.0086 251.0131 251.0062 251.0507 251.1033 251.1195 251.1125 251.1114 251.1028 251.1828 251.2179 251.2068 251.2231 251.2714 251.3067 251.3441 251.3146 251.3434 251.4217 251.4298 251.4673 251.4043 251.3846 251.3347 251.3034 251.3046 251.2645 251.1755 251.1286 251.0845 251.0533 250.9917 250.8682 250.8258 250.7425 250.6976 250.6855 250.6292 250.6068 250.5562 250.5247 250.5313 250.5201 250.4971 250.4391 250.4293 250.3986 250.3568 250.3096 250.1465 249.5408 249.1789 249.005 248.9885 248.9821 249.0044 249.5194 249.864 250.1553 250.2685 250.2598 250.3218 250.3119 250.2483 250.2037 250.1658 250.1037 250.0859 249.9185 249.8973 249.854 249.7576 249.6662 249.6009 249.527 249.3768 249.2442 249.165 249.076 248.9801 248.8227 248.7411 248.6554 248.5267 248.386 248.3014 248.2077 248.179 
251.0146 251.0163 250.9837 250.9341 250.9099 250.9123 250.9123 250.9039 250.9357 250.9877 251.0135 251.0083 251.0124 251.0995 251.1121 251.0975 251.1351 251.2102 251.1974 251.3442 251.3366 251.3502 251.4134 251.4086 251.3995 251.3616 251.3307 251.2852 251.2437 251.1952 251.1725 251.1179 251.079 251.0461 250.974 250.8891 250.8168 250.7343 250.6379 250.5978 250.5728 250.4966 250.4415 250.4 250.3909 250.3917 250.3982 250.395 250.3038 250.257 250.1726 250.104 250.0244 249.8348 249.2805 249.0597 248.9288 248.8837 248.8846 248.8938 249.1683 249.3748 249.621 249.8424 249.968 250.0353 250.0274 250.0152 250.0073 250.0071 249.9745 249.9032 249.8145 249.7308 249.6464 249.5892 249.5667 249.4813 249.3208 249.2264 249.1342 249.051 248.9728 248.7178 248.6096 248.5282 248.4448 248.3596 248.2674 248.0943 248.0777 248.0237 
250.9093 250.9147 250.8786 250.83 250.8079 250.8101 250.81 250.8097 250.7935 250.8467 250.9156 250.9029 250.9086 251.0082 250.9942 251.0221 251.0629 251.1112 251.219 251.2905 251.3442 251.3631 251.3611 251.3611 251.3611 251.3214 251.2741 251.2324 251.1824 251.1609 251.1087 251.0744 251.0372 250.955 250.8811 250.86 250.7169 250.6298 250.5315 250.4893 250.4722 250.3982 250.312 250.2869 250.2928 250.3008 250.2839 250.2179 250.1361 250.055 249.976 249.8625 249.6994 249.5242 249.1382 248.955 248.8268 248.7812 248.7823 248.7921 248.979 249.0632 249.2666 249.4785 249.5793 249.7344 249.8137 249.8048 249.801 249.8014 249.8015 249.7814 249.6884 249.63 249.527 249.4786 249.4701 249.3796 249.205 249.1187 249.0419 248.9276 248.7686 248.5907 248.5027 248.4268 248.2978 248.1418 248.0762 247.9945 247.8995 247.8653 
250.8575 250.8053 250.821 250.7615 250.6969 250.7079 250.708 250.6985 250.7346 250.7878 250.8029 250.8083 250.8618 250.9465 250.9602 250.9984 251.0811 251.1417 251.2063 251.2437 251.2882 251.2945 251.3201 251.3596 251.302 251.2686 251.2628 251.223 251.1599 251.1558 251.0706 251.0197 250.9316 250.877 250.8517 250.7796 250.6044 250.5138 250.474 250.4449 250.3666 250.2949 250.2121 250.1852 250.1963 250.1643 250.1071 250.08 250.0033 249.8799 249.7618 249.6518 249.4707 249.2901 249.0137 248.8606 248.7241 248.6784 248.683 248.6826 248.7672 248.8582 248.9539 249.0881 249.2373 249.3426 249.5231 249.5663 249.6086 249.6012 249.6006 249.6006 249.5229 249.4887 249.444 249.3497 249.2883 249.2795 249.1125 249.0331 248.9008 248.7486 248.662 248.4912 248.4106 248.2652 248.1244 248.0431 247.96 247.7849 247.7684 247.7153 
250.8096 250.7182 250.7065 250.6909 250.6403 250.5966 250.5959 250.6447 250.6963 250.7018 250.7139 250.7695 250.8026 250.8888 250.9348 251.0144 251.0869 251.1053 251.0965 251.1838 251.2372 251.2619 251.2701 251.2882 251.2609 251.2626 251.2279 251.1819 251.1494 251.0886 251.0033 250.9757 250.918 250.831 250.7828 250.7576 250.5867 250.4999 250.4292 250.3573 250.2612 250.1848 250.1104 250.082 250.1002 250.0577 249.9877 249.986 249.8313 249.7435 249.6054 249.428 249.2792 249.1757 248.9067 248.7601 248.6218 248.5755 248.5809 248.5784 248.6584 248.6882 248.7299 248.8288 248.9207 249.0056 249.1814 249.2667 249.3051 249.2978 249.2952 249.2914 249.2097 249.2445 249.2607 249.1565 249.0645 248.8966 248.8097 248.7236 248.6347 248.5457 248.4597 248.2871 248.201 248.1129 248.0327 247.9185 247.7529 247.6623 247.5957 247.5546 
250.7032 250.6253 250.5944 250.6104 250.5952 250.563 250.5605 250.5966 250.597 250.6218 250.678 250.7149 250.7642 250.8489 250.879 250.9434 251.002 250.9971 251.0598 251.1617 251.171 251.2263 251.2644 251.2609 251.2623 251.2152 251.1767 251.1358 251.0822 251.0569 250.9707 250.9171 250.8277 250.7759 250.7535 250.6836 250.511 250.4253 250.3392 250.2432 250.1754 250.1613 249.9978 249.9822 249.9466 249.8957 249.8708 249.7953 249.6212 249.5357 249.4525 249.3245 249.1427 248.99 248.8092 248.6578 248.5196 248.4728 248.4778 248.4776 248.4792 248.5437 248.5827 248.6098 248.7033 248.7902 248.8805 249.0042 249.1009 249.0759 249.0915 249.1709 249.1076 249.0205 248.9238 248.9017 248.9629 248.7836 248.6973 248.6114 248.5254 248.4394 248.3533 248.1814 248.0954 248.0167 247.8862 247.7282 247.6619 247.5795 247.5537 247.56 
250.661 250.5747 250.5193 250.4927 250.5035 250.5056 250.5053 250.4914 250.532 250.5883 250.5956 250.6087 250.6937 250.7589 250.8401 250.8763 250.9028 250.9748 251.064 251.1404 251.1619 251.1706 251.1892 251.1874 251.1872 251.1781 251.1229 251.0777 251.0471 250.9842 250.8995 250.8746 250.8154 250.7289 250.6608 250.579 250.4075 250.3161 250.2205 250.1722 250.1539 250.0773 249.9707 249.9195 249.8268 249.7838 249.7716 249.6768 249.5034 249.4234 249.2906 249.1569 249.0468 248.877 248.7076 248.5561 248.4171 248.3698 248.3748 248.3748 248.373 248.371 248.4206 248.474 248.4918 248.5801 248.7522 248.7761 248.8139 248.9079 248.9733 248.9748 248.9 248.8687 248.8328 248.735 248.6666 248.6681 248.6009 248.5088 248.4225 248.3367 248.2505 248.079 247.9989 247.8544 247.7085 247.659 247.6494 247.4745 247.451 247.455 
250.5954 250.4981 250.487 250.4292 250.3893 250.3993 250.3969 250.4434 250.4923 250.4925 250.5089 250.5688 250.5896 250.7383 250.7818 250.8117 250.8911 250.9718 251.0446 251.1393 251.1639 251.1611 251.1611 251.1611 251.162 251.1118 251.0697 251.0298 250.9762 250.95 250.8701 250.809 250.7747 250.7428 250.6253 250.4697 250.2937 250.2714 250.2229 250.1375 250.063 249.9721 249.8798 249.8243 249.7305 249.6446 249.5889 249.5715 249.4014 249.3267 249.1929 249.0089 248.8621 248.7709 248.605 248.4541 248.3146 248.2668 248.2717 248.2716 248.2706 248.2628 248.3146 248.3775 248.3665 248.3751 248.5413 248.6326 248.6687 248.6901 248.7869 248.786 248.764 248.7081 248.6618 248.6411 248.5476 248.4589 248.3904 248.3578 248.3256 248.234 248.1477 247.9777 247.8929 247.8066 247.7206 247.634 247.5435 247.4567 247.3922 247.3475 
250.4962 250.414 250.3979 250.3911 250.3417 250.2838 250.2906 250.3943 250.3877 250.4185 250.4741 250.4959 250.5601 250.6832 250.7201 250.8083 250.8762 250.8928 251.0455 251.0709 251.1221 251.1626 251.1611 251.1615 251.0986 251.0611 251.0635 251.0268 250.9617 250.9535 250.7902 250.7717 250.7314 250.6492 250.558 250.4601 250.2885 250.2126 250.1326 250.0458 249.9536 249.8746 249.8027 249.7156 249.6294 249.5373 249.4758 249.4682 249.308 249.1595 249.0312 248.91 248.7524 248.6676 248.5059 248.3539 248.2117 248.1637 248.1684 248.1685 248.1674 248.1669 248.1612 248.1959 248.2637 248.2698 248.4415 248.4636 248.5043 248.5631 248.5764 248.6645 248.6658 248.6046 248.5583 248.5333 248.4605 248.3794 248.2888 248.1963 248.1548 248.1357 248.043 247.9563 247.903 247.7543 247.6142 247.5304 247.4593 247.3718 247.3525 247.3067 
250.4014 250.3165 250.2846 250.2992 250.289 250.2632 250.2675 250.2845 250.33 250.3766 250.4011 250.4758 250.564 250.6316 250.7197 250.772 250.7987 250.8708 251.0449 251.1196 251.1566 251.1613 251.1622 251.1495 251.0605 251.0628 251.0211 250.9732 250.9473 250.8785 250.7855 250.7041 250.6243 250.5369 250.4511 250.3666 250.2012 250.115 250.0255 249.9303 249.8692 249.8598 249.6989 249.6125 249.5273 249.4331 249.3688 249.3673 249.126 249.0068 248.9312 248.8081 248.65 248.5671 248.3217 248.2012 248.1135 248.0588 248.0652 248.0653 248.0641 248.0639 248.0566 248.0898 248.1635 248.1617 248.2247 248.3222 248.3597 248.3849 248.4557 248.5378 248.5674 248.5017 248.4547 248.4315 248.3604 248.2754 248.183 248.1576 248.1233 248.0285 247.9396 247.8499 247.79 247.7007 247.6179 247.5314 247.446 247.2735 247.2428 247.2477 
250.2917 250.2792 250.217 250.1783 250.1844 250.1857 250.1835 250.2424 250.2773 250.3086 250.3924 250.4707 250.4849 250.6284 250.727 250.7614 250.782 250.8715 251.0437 251.1349 251.1631 251.1611 251.1626 251.1447 251.0593 251.0048 250.9672 250.9287 250.8708 250.8505 250.7693 250.7083 250.6167 250.5311 250.4497 250.3511 250.0877 250.0001 249.9675 249.9378 249.8483 249.7679 249.5959 249.5102 249.4175 249.3675 249.3505 249.2692 249.019 248.9032 248.8321 248.7078 248.5475 248.4624 248.2906 248.2043 248.1189 248.0281 247.96 247.9602 247.9607 247.9603 247.9533 247.986 248.0598 248.0585 248.1219 248.211 248.3036 248.3626 248.3559 248.3486 248.423 248.4068 248.3486 248.3569 248.346 248.1656 248.1541 248.1071 248.0109 247.9252 247.8379 247.7492 247.6872 247.595 247.5135 247.4307 247.3575 247.2858 247.1896 247.1587 
250.2616 250.1873 250.1787 250.1609 250.161 250.1611 250.1611 250.164 250.2155 250.306 250.3677 250.3885 250.544 250.635 250.6711 250.7047 250.7875 250.8794 251.0508 251.1407 251.1634 251.1611 251.161 251.1628 251.0832 250.9893 250.9617 250.9278 250.8624 250.8536 250.6892 250.6061 250.5226 250.4399 250.3538 250.2667 250.0883 250.0026 249.9203 249.8378 249.7514 249.6653 249.4933 249.4079 249.313 249.2642 249.2519 249.1672 248.9234 248.7391 248.6125 248.5332 248.4472 248.361 248.1892 248.1031 248.0172 247.9262 247.8567 247.8586 247.7791 247.8058 247.8585 247.8845 247.9536 248.0397 248.0569 248.1052 248.2016 248.2565 248.2527 248.2613 248.259 248.3087 248.3192 248.2544 248.2378 248.0697 248.0497 248.0055 247.919 247.8287 247.757 247.6702 247.5784 247.4854 247.4436 247.433 247.3406 247.2459 247.1852 247.1403 
250.1946 250.1033 250.0748 250.0814 250.0759 250.0936 250.1587 250.223 250.2554 250.3023 250.3604 250.3737 250.5445 250.6347 250.6609 250.6992 250.7646 250.7844 250.9549 251.0458 251.0723 251.1079 251.164 251.1525 251.0631 251.0008 250.9083 250.866 250.8408 250.7721 250.6921 250.6085 250.4682 250.3256 250.247 250.1644 249.9928 249.9068 249.8206 249.7346 249.6486 249.5625 249.3905 249.2966 249.2621 249.2375 249.1553 249.0462 248.7526 248.7092 248.623 248.5018 248.3431 248.2578 248.0867 248.0002 247.9144 247.8233 247.7537 247.7549 247.6765 247.6958 247.8022 247.857 247.8719 247.9632 248.0245 248.1217 248.1688 248.1588 248.1763 248.2738 248.2768 248.2045 248.1946 248.2474 248.1573 248.0738 248.0023 247.9628 247.9311 247.8401 247.754 247.5762 247.4914 247.3996 247.3487 247.3218 247.2337 247.2459 247.1852 247.1403 
250.0845 250.071 250.0612 250.0611 250.0611 250.06 250.0795 250.1744 250.2165 250.307 250.3604 250.3739 250.544 250.6342 250.6609 250.7005 250.7602 250.769 250.942 251.0323 251.0628 251.0641 251.0701 251.0681 251.0621 251.0047 250.9035 250.8612 250.8441 250.7563 250.5884 250.5051 250.418 250.3355 250.225 250.0618 249.8878 249.802 249.7161 249.6302 249.5449 249.4597 249.2822 249.2618 249.2292 249.0992 248.9407 248.8553 248.686 248.6007 248.5146 248.428 248.3437 248.2597 248.0151 247.8951 247.8143 247.7203 247.653 247.641 247.5384 247.6031 247.6973 247.7834 247.8725 248.0439 248.0591 248.1081 248.2048 248.26 248.2803 248.3643 248.3664 248.3098 248.2601 248.2592 248.2591 248.1812 248.0993 248.0165 247.9268 247.8376 247.7393 247.5673 247.4914 247.3996 247.3487 247.3218 247.2337 247.1427 247.0732 247.0293 
250.0673 250.0032 249.9701 249.9698 250.0006 250.0604 250.0686 250.1289 250.2138 250.3105 250.3625 250.3732 250.5434 250.6338 250.6612 250.6935 250.7886 250.8558 250.9365 251.0328 251.063 251.0611 251.0611 251.0616 250.988 250.966 250.92 250.8214 250.764 250.7533 250.5908 250.4377 250.3092 250.2316 250.1449 250.0578 249.8864 249.8006 249.7146 249.6347 249.5218 249.368 249.2948 249.138 249.0039 248.9262 248.8433 248.7577 248.5807 248.5651 248.4784 248.3234 248.2427 248.1576 247.9894 247.9122 247.7799 247.6277 247.5321 247.4432 247.4301 247.5483 247.7039 247.7869 247.8749 247.9648 248.0251 248.1142 248.1507 248.1764 248.2713 248.3547 248.2862 248.2588 248.2622 248.226 248.155 248.0721 248.0993 248.0165 247.9268 247.8376 247.7393 247.5673 247.4821 247.3974 247.3084 247.2124 247.1401 247.065 246.9796 246.9397 
249.9735 249.9715 249.9611 249.961 249.9593 249.9845 250.0633 250.1236 250.222 250.2632 250.2836 250.3706 250.5428 250.6335 250.6606 250.6961 250.7576 250.785 250.9642 251.0262 251.0632 251.0611 251.0621 251.0508 250.9615 250.8984 250.8637 250.8282 250.7643 250.7409 250.4818 250.4072 250.2668 250.122 250.042 249.9563 249.7843 249.6983 249.6122 249.5254 249.4419 249.3468 249.0744 248.9952 248.9054 248.8572 248.8435 248.7574 248.584 248.4988 248.416 248.3332 248.2475 248.1621 247.9909 247.9047 247.8363 247.6834 247.4297 247.3351 247.2493 247.3828 247.6442 247.7924 247.8721 248.0473 248.0624 248.0593 248.0917 248.1727 248.2453 248.251 248.2491 248.2588 248.2622 248.226 248.155 248.0721 248.0497 248.0006 247.9138 247.8045 247.6485 247.4781 247.3788 247.2836 247.1992 247.1097 247.0369 246.9566 246.9385 246.891 
249.9557 249.8662 249.8646 249.9099 249.962 249.9776 250.0632 250.1231 250.2149 250.3033 250.3547 250.3664 250.5377 250.6261 250.7171 250.7588 250.7782 250.8681 250.9629 251.0254 251.0632 251.063 251.0388 250.9644 250.9613 250.9046 250.8056 250.7607 250.7449 250.6591 250.4075 250.298 250.1659 250.0205 249.939 249.8535 249.6815 249.5956 249.5145 249.3894 249.2315 249.1466 248.9793 248.8899 248.8565 248.8302 248.736 248.6492 248.4778 248.4606 248.4256 248.3336 248.2475 248.1627 247.9948 247.904 247.8396 247.6582 247.3379 247.1468 247.1181 247.2742 247.5625 247.7848 247.8751 248.0475 248.0609 248.1146 248.0917 248.1727 248.2453 248.251 248.2491 248.2503 248.211 248.1602 248.1486 248.0439 247.9918 247.9052 247.8176 247.7342 247.6559 247.4721 247.3227 247.2012 247.1231 247.028 246.9352 246.8548 246.8302 246.7839 
249.8665 249.8607 249.8611 249.8577 249.8929 249.9638 250.0403 250.1283 250.2139 250.2997 250.3839 250.4662 250.6411 250.6591 250.7121 250.7607 250.785 250.8575 250.9359 251.0311 251.063 251.063 251.0387 250.9666 250.8834 250.8607 250.8195 250.7271 250.64 250.555 250.305 250.1883 250.1171 249.9939 249.8338 249.7491 249.5792 249.4965 249.3567 249.2119 249.1343 249.0489 248.871 248.8525 248.8153 248.7185 248.6322 248.5449 248.4602 248.4618 248.4194 248.3346 248.2471 248.171 248.0383 247.9131 247.8474 247.6711 247.317 247.0267 247.0175 247.1039 247.5625 247.7848 247.8751 248.0475 248.0609 248.1146 248.1237 248.0866 248.1535 248.227 248.191 248.1585 248.1612 248.1607 248.1364 247.9745 247.9427 247.9071 247.8282 247.7424 247.6557 247.3979 247.2766 247.1884 247.1116 246.9952 246.8334 246.753 246.7296 246.6834 
249.7647 249.8341 249.8635 249.8612 249.8578 249.8744 250.0424 250.1278 250.2134 250.299 250.3843 250.4699 250.6428 250.6611 250.7114 250.7609 250.78 250.8696 250.9614 251.0248 251.0739 251.0258 250.9601 250.9493 250.8588 250.796 250.7576 250.7368 250.6201 250.4553 250.2027 250.0857 250.0131 249.8894 249.7315 249.6467 249.4762 249.3241 249.1945 249.1189 249.0325 248.9463 248.7685 248.7458 248.7086 248.6196 248.5378 248.4637 248.4589 248.3958 248.351 248.3246 248.2647 248.1837 248.097 248.0226 247.9061 247.6711 247.317 247.0267 247.0175 247.1039 247.393 247.7139 247.8861 248.0662 248.0609 248.0586 248.0905 248.1525 248.1461 248.1589 248.1442 248.138 248.1436 248.1217 248.0564 247.9822 247.8885 247.8606 247.8347 247.7466 247.6481 247.3617 247.2237 247.087 246.9949 246.8942 246.7631 246.652 246.604 246.5639 
249.7611 249.7636 249.7581 249.8016 249.86 249.8731 250.0421 250.1273 250.2128 250.2985 250.3839 250.4693 250.6407 250.7316 250.7608 250.7975 250.8596 250.8711 251.0474 251.0024 250.9581 250.9641 250.9381 250.8627 250.7814 250.7577 250.7145 250.6227 250.5105 250.3519 250.0987 249.9841 249.9067 249.7815 249.6296 249.5457 249.2929 249.1802 249.0982 249.0041 248.9207 248.8431 248.6754 248.6493 248.599 248.5431 248.5334 248.456 248.3715 248.3429 248.311 248.2472 248.2647 248.1837 248.097 248.0226 247.9061 247.672 247.3065 246.9088 246.8395 246.9386 247.3206 247.7137 247.8722 248.0447 248.0551 248.0392 248.0363 248.0252 248.0406 248.1476 248.0842 248.0587 248.0617 248.0542 248.0251 247.9614 247.9019 247.8453 247.8131 247.7473 247.6519 247.2991 247.2002 247.0718 246.9106 246.8046 246.6962 246.5433 246.4601 246.4021 
249.7419 249.7627 249.759 249.7996 249.8598 249.8728 250.0414 250.1269 250.2124 250.2979 250.3833 250.4689 250.6401 250.731 250.7608 250.7963 250.8615 250.8747 250.9623 250.961 250.9658 250.9232 250.8574 250.8462 250.7559 250.6972 250.6055 250.4783 250.3262 250.2284 249.9677 249.8887 249.748 249.6021 249.5215 249.427 249.1564 249.0797 248.9467 248.7955 248.7359 248.7338 248.6471 248.5946 248.4904 248.4384 248.5334 248.4465 248.3715 248.3429 248.311 248.2472 248.2465 248.1805 248.0963 248.0034 247.8873 247.6867 247.3142 246.7203 246.7183 246.7815 247.1272 247.6323 247.8775 248.0338 247.97 247.9339 247.9613 247.9605 247.966 248.0301 248.0502 248.062 248.0625 248.0444 247.9825 247.9383 247.8916 247.8056 247.7603 247.7498 247.6543 247.3123 247.187 247.0512 246.8565 246.6542 246.5143 246.3931 246.3271 246.2419 
249.6652 249.6549 249.7064 249.8048 249.8609 249.8705 250.041 250.1262 250.2119 250.2975 250.3828 250.4684 250.6395 250.7305 250.761 250.7896 250.8862 250.9577 250.9565 250.9608 250.9078 250.8549 250.8348 250.7608 250.6789 250.5869 250.4464 250.3067 250.2007 250.0407 249.8675 249.7164 249.5894 249.4731 249.3157 249.2215 248.9885 248.8698 248.7935 248.7061 248.6401 248.7338 248.6471 248.5946 248.4904 248.4384 248.4236 248.3364 248.2664 248.2285 248.2452 248.2233 248.1524 248.1439 248.0864 247.9403 247.8214 247.7254 247.3709 246.5995 246.6133 246.6048 246.9396 247.5272 247.8309 247.9093 247.8654 247.8924 247.9414 247.9362 247.9346 247.9185 247.9933 248.0376 248.0409 248.0621 248.0588 247.9 247.873 247.8154 247.747 247.7223 247.6538 247.2841 247.0869 246.9008 246.7043 246.4898 246.3769 246.2332 246.1502 246.0974 
249.5602 249.6266 249.6594 249.6898 249.7814 249.8666 250.0397 250.1261 250.2113 250.2969 250.3824 250.4678 250.639 250.7303 250.7649 250.7943 250.8824 250.9546 250.8817 250.8589 250.8607 250.8208 250.7558 250.7449 250.566 250.4146 250.2887 250.1715 250.016 249.9277 249.6869 249.572 249.4422 249.301 249.1953 249.0352 248.9885 248.8698 248.7935 248.7061 248.6401 248.633 248.5248 248.4802 248.3907 248.336 248.3225 248.2333 248.1804 248.1379 248.1329 248.1328 248.1121 248.0375 247.9666 247.895 247.8353 247.7357 247.3753 246.4668 246.4462 246.4073 246.7036 247.2544 247.5877 247.7233 247.7958 247.8394 247.8242 247.8248 247.8237 247.8456 247.8981 247.9383 247.9824 248.0352 248.0256 247.9644 247.9152 247.8171 247.7222 247.6571 247.6143 247.1471 246.9018 246.6548 246.4796 246.3527 246.2147 246.083 246.0313 246.0184 
249.5371 249.5576 249.6019 249.6999 249.7572 249.7639 250.0135 250.1248 250.2076 250.2969 250.382 250.4674 250.6382 250.7237 250.8141 250.8653 250.8616 250.8613 250.8514 250.8562 250.8058 250.7541 250.7318 250.6307 250.385 250.2716 250.1406 250.0002 249.8942 249.7338 249.5537 249.572 249.4422 249.301 249.1953 249.0352 248.8469 248.7627 248.6853 248.6067 248.5339 248.4516 248.3555 248.3178 248.282 248.2277 248.2005 248.1296 248.1444 248.0818 248.0307 247.9994 247.933 247.9522 247.8564 247.8311 247.8169 247.7825 247.4722 246.2673 246.3303 246.2969 246.4411 246.85 247.2502 247.5929 247.6627 247.7202 247.7307 247.7263 247.723 247.8043 247.8205 247.8685 247.9326 247.9198 247.9198 247.9321 247.8664 247.7946 247.7432 247.6463 247.4732 246.9545 246.6931 246.4438 246.2565 246.1534 246.0728 245.9118 245.9203 245.9967 
249.4281 249.5265 249.5533 249.5795 249.6723 249.7613 249.9336 250.0133 250.1527 250.2928 250.3743 250.467 250.638 250.7293 250.7604 250.7859 250.852 250.8521 250.7809 250.7589 250.7605 250.7206 250.5919 250.4334 250.2581 250.2716 250.1406 250.0002 249.8942 249.7338 249.5537 249.4013 249.273 249.1608 248.9987 248.912 248.6532 248.565 248.5189 248.4972 248.4191 248.3114 248.2629 248.167 248.1256 248.1036 248.0227 248.0304 248.0372 247.9768 247.9258 247.913 247.8532 247.8271 247.7621 247.7223 247.7469 247.7565 247.4023 246.1458 246.1927 246.1745 246.256 246.509 246.8219 247.313 247.4152 247.5 247.5701 247.5873 247.5878 247.6959 247.7446 247.7884 247.8219 247.8168 247.8128 247.8198 247.7835 247.7496 247.7009 247.5432 247.2726 246.7556 246.488 246.2753 246.1077 245.9452 245.8558 245.8301 245.9121 246.0034 
249.3245 249.4196 249.4522 249.486 249.5773 249.6605 249.9081 250.0199 250.1016 250.1842 250.2935 250.4524 250.6351 250.7301 250.7629 250.7611 250.7611 250.7613 250.7491 250.7428 250.7605 250.7206 250.5919 250.4334 250.2581 250.0977 249.9722 249.8593 249.6986 249.6102 249.3376 249.1931 249.0624 248.958 248.8085 248.7049 248.5392 248.4684 248.3853 248.3179 248.2993 248.1387 248.1081 248.0621 248.03 248.0038 247.9278 247.9285 247.9119 247.8578 247.8237 247.8263 247.7949 247.7324 247.6434 247.5731 247.5739 247.4126 246.8509 245.9939 246.0115 246.0004 246.0653 246.2552 246.4885 246.9927 247.1342 247.2245 247.3136 247.3783 247.3809 247.5907 247.7018 247.7351 247.7176 247.7298 247.76 247.7167 247.7404 247.687 247.5157 247.2843 247.0259 246.5033 246.268 246.0795 245.8999 245.7389 245.698 245.8277 245.9174 246.0023 
249.2136 249.2993 249.388 249.4764 249.5601 249.6468 249.8223 249.8977 250.0421 250.19 250.2668 250.3427 250.5975 250.7219 250.7531 250.7611 250.7611 250.7613 250.7491 250.7428 250.6924 250.5634 250.4097 250.3181 250.0695 249.8971 249.7756 249.6554 249.5103 249.4015 249.1397 249.0027 248.8675 248.7795 248.684 248.5308 248.3492 248.3145 248.2686 248.1776 248.1202 248.0449 247.949 247.915 247.9346 247.9042 247.8254 247.8311 247.752 247.7162 247.7204 247.6771 247.6201 247.5736 247.4554 247.3242 247.1637 246.8443 246.3722 245.9117 245.9231 245.9128 245.9685 246.1115 246.2427 246.6187 246.8164 246.9635 247.0702 247.1346 247.1736 247.3895 247.496 247.5577 247.5753 247.6013 247.6776 247.5797 247.5375 247.4039 247.1889 246.9202 246.6562 246.1724 245.9939 245.8148 245.6542 245.5984 245.6534 245.8311 245.9162 246.002 
249.0257 249.0803 249.1719 249.257 249.3372 249.4328 249.7021 249.7798 249.9187 250.19 250.2668 250.3427 250.5975 250.7219 250.7531 250.7455 250.7454 250.7483 250.6704 250.5734 250.4729 250.3829 250.2861 250.13 249.8745 249.7631 249.6204 249.4755 249.3785 249.2095 248.9597 248.8478 248.7193 248.5615 248.4838 248.3198 248.2318 248.1372 248.0563 248.0148 247.9865 247.8981 247.8474 247.8256 247.8179 247.7741 247.7274 247.7012 247.6477 247.6105 247.5497 247.4744 247.442 247.2605 247.1556 247.0149 246.7715 246.4414 246.1461 245.7899 245.7695 245.7687 245.7996 245.8789 245.969 246.3122 246.4844 246.6348 246.7654 246.8842 246.9692 247.1325 247.222 247.295 247.3187 247.327 247.3613 247.2968 247.1556 246.9748 246.7736 246.5164 246.2987 245.852 245.6763 245.534 245.5039 245.5754 245.7463 245.83 245.9158 246.0014 
248.8325 248.8902 248.9731 249.0474 249.3372 249.4328 249.7021 249.7798 249.9187 250.0614 250.1436 250.2404 250.4749 250.59 250.6334 250.6388 250.6324 250.6171 250.5456 250.4602 250.3315 250.1829 250.0887 250.0037 249.7428 249.5924 249.4029 249.2672 249.1669 249.002 248.7514 248.6349 248.5249 248.3821 248.2752 248.1027 248.0408 247.9626 247.9065 247.8735 247.8168 247.7312 247.6937 247.6902 247.6625 247.6063 247.5877 247.4976 247.4827 247.4384 247.3403 247.2527 247.1615 246.9592 246.8279 246.6525 246.4171 246.1712 245.9458 245.6077 245.6052 245.6011 245.6341 245.7243 245.8197 246.0766 246.2376 246.3827 246.5046 246.6405 246.7683 246.942 247.0004 247.0123 247.0068 247.0128 247.0113 246.8493 246.7218 246.5463 246.3122 246.1081 245.9365 245.5432 245.3798 245.3396 245.4229 245.5108 245.7402 245.8413 245.9236 246.0056 
248.8325 248.8902 248.9731 249.0474 249.1379 249.2327 249.4802 249.5917 249.7117 249.8479 249.9639 250.1176 250.2831 250.3642 250.4613 250.5249 250.4982 250.429 250.3314 250.2406 250.1643 250.0553 249.9018 249.7964 249.5569 249.3945 249.2344 249.0827 248.9657 248.825 248.5713 248.4419 248.3535 248.2503 248.1067 247.9338 247.9014 247.8392 247.7551 247.7097 247.6769 247.5887 247.5335 247.5116 247.5072 247.4659 247.4121 247.3264 247.2916 247.2244 247.1309 247.046 246.9674 246.7112 246.5854 246.3851 246.1203 245.9219 245.7455 245.5062 245.5197 245.5115 245.5477 245.6255 245.6666 245.8179 245.9633 246.1578 246.2952 246.3782 246.5091 246.691 246.7164 246.7097 246.6924 246.6414 246.5901 246.3355 246.2232 246.0731 245.8811 245.7591 245.5872 245.2584 245.2233 245.2908 245.3835 245.4677 245.6725 245.7666 245.8441 245.9637 
248.7375 248.8015 248.8339 248.8496 248.9625 249.1182 249.372 249.4942 249.5731 249.6861 249.8324 249.9079 250.0755 250.1616 250.2387 250.2853 250.3042 250.3012 250.1208 250.0359 249.9501 249.8708 249.7754 249.625 249.3682 249.2538 249.1159 248.9414 248.8049 248.5167 248.4212 248.277 248.1327 248.0591 247.979 247.8029 247.7081 247.6362 247.6006 247.5624 247.5155 247.4329 247.4114 247.4014 247.353 247.3054 247.2684 247.1829 247.1024 247.0373 246.9857 246.889 246.7579 246.5096 246.3132 246.0829 245.8883 245.7226 245.5425 245.3518 245.36 245.352 245.3869 245.4643 245.5087 245.6818 245.7927 245.9217 246.0585 246.1672 246.2035 246.3308 246.3421 246.3527 246.3216 246.2218 246.1253 245.8545 245.76 245.6585 245.5574 245.4568 245.138 245.1294 245.2087 245.3021 245.3868 245.4726 245.6405 245.7253 245.8088 245.9048 
248.63 248.6841 248.7218 248.7622 248.8467 248.9372 249.1779 249.33 249.4686 249.5295 249.5948 249.7014 249.8723 249.9647 249.9919 250.0174 250.1012 250.0898 249.9444 249.8468 249.7419 249.6597 249.5781 249.4954 249.2341 249.0769 248.9076 248.7849 248.6608 248.3416 248.2204 248.0895 247.9564 247.8465 247.7607 247.6214 247.5388 247.515 247.4772 247.4083 247.4124 247.3258 247.3231 247.2661 247.1905 247.1559 247.105 247.0268 246.9428 246.8918 246.8237 246.6865 246.5481 246.2466 246.0536 245.8537 245.6824 245.5255 245.3954 245.201 245.2059 245.1954 245.2269 245.323 245.4118 245.5251 245.6172 245.655 245.7424 245.8892 245.8931 245.994 245.9511 245.8921 245.8475 245.8061 245.715 245.4948 245.4121 245.3267 245.2454 245.145 245.0392 245.1244 245.2205 245.3099 245.3948 245.4805 245.6442 245.734 245.8186 245.8961 
248.5064 248.5258 248.566 248.6661 248.746 248.8091 248.9692 249.0814 249.207 249.2713 249.3138 249.4625 249.6382 249.7273 249.7782 249.8122 249.8705 249.885 249.77 249.6895 249.5608 249.4556 249.3642 249.2521 249.0364 248.8896 248.7646 248.6418 248.4912 248.2016 248.0674 247.9418 247.8097 247.6821 247.5957 247.5143 247.449 247.4156 247.3783 247.3151 247.3016 247.2099 247.1867 247.1434 247.0708 247.0088 247.0067 246.8683 246.8406 246.7478 246.6052 246.4771 246.3466 245.9993 245.8216 245.6826 245.5449 245.3808 245.2384 245.0373 245.0886 245.1109 245.1414 245.2184 245.249 245.3277 245.4001 245.4679 245.5477 245.648 245.6435 245.6876 245.624 245.515 245.4656 245.458 245.3715 245.2754 245.1855 245.097 244.9933 244.9138 245.0483 245.1436 245.1803 245.2234 245.3139 245.3967 245.6377 245.6806 245.7719 245.9042 
248.4054 248.4285 248.4697 248.5572 248.6066 248.6249 248.7665 248.7898 248.8754 249.0195 249.106 249.1831 249.3207 249.4036 249.498 249.5475 249.5569 249.6468 249.5145 249.4657 249.39 249.2567 249.1493 248.8771 248.8058 248.7031 248.5877 248.4844 248.3575 248.0404 247.9195 247.7824 247.668 247.5913 247.5024 247.4137 247.347 247.3134 247.2765 247.2126 247.2007 247.1115 247.0416 247.0072 246.9792 246.8973 246.8562 246.7343 246.6873 246.561 246.4168 246.3238 246.1454 245.7921 245.6577 245.5418 245.3876 245.2228 245.0942 244.8876 244.9265 244.9391 244.9686 245.0515 245.0987 245.1816 245.2149 245.2779 245.347 245.3767 245.4287 245.381 245.3451 245.2934 245.2087 245.1592 245.0844 245.0032 244.9004 244.8248 244.8185 244.8773 244.9854 245.0526 245.1254 245.1958 245.2826 245.3692 245.5629 245.6275 245.7664 245.9142 
248.3046 248.3288 248.3777 248.4162 248.4043 248.489 248.5852 248.6847 248.7523 248.8117 248.898 248.9457 249.0035 249.1132 249.2192 249.2882 249.3131 249.3408 249.3406 249.1856 249.0807 249.0235 248.9575 248.7251 248.6152 248.4685 248.3916 248.3256 248.1481 247.8957 247.7569 247.6537 247.5757 247.4897 247.3998 247.3101 247.2456 247.2112 247.1749 247.1106 247.0988 247.0091 246.9444 246.9084 246.8802 246.7845 246.7008 246.5764 246.4867 246.3829 246.2565 246.1063 245.932 245.6385 245.513 245.3463 245.1935 245.0776 244.9357 244.8041 244.8082 244.795 244.8203 244.9159 244.9948 245.0713 245.0912 245.1325 245.1941 245.2112 245.293 245.2062 245.1613 245.0824 244.9922 244.9096 244.7614 244.6588 244.6458 244.7156 244.7699 244.7974 244.9457 245.0248 245.1129 245.1988 245.2908 245.3666 245.5275 245.6382 245.7306 245.8271 
248.176 248.1896 248.242 248.2685 248.2267 248.3144 248.5002 248.5659 248.5969 248.6342 248.6803 248.6705 248.7186 248.9094 249.0518 249.0959 249.1248 249.0784 249.118 248.9828 248.8405 248.7445 248.7229 248.645 248.4732 248.3493 248.281 248.1636 247.9927 247.7338 247.64 247.5603 247.4712 247.3786 247.3002 247.2226 247.1357 247.1054 247.0737 247.0085 246.9969 246.907 246.8422 246.8102 246.7833 246.6861 246.5991 246.4291 246.35 246.232 246.0999 245.9722 245.7979 245.4764 245.3569 245.2074 245.0429 244.9145 244.7963 244.6254 244.6287 244.6548 244.7261 244.8167 244.8922 244.9563 245.0328 245.0747 245.0897 245.1008 245.1214 245.0355 245.0021 244.9554 244.864 244.7795 244.6036 244.5528 244.6085 244.6677 244.6921 244.7688 244.9418 245.034 245.1171 245.2066 245.2735 245.2867 245.4607 245.5538 245.6364 245.7208 
248.0169 248.0058 248.06 248.1193 248.1344 248.2214 248.3695 248.3943 248.465 248.5152 248.467 248.4673 248.6141 248.7849 248.9096 248.9157 248.9012 248.8727 248.8752 248.8304 248.6866 248.5333 248.5014 248.4843 248.3652 248.2579 248.1567 248.0276 247.8871 247.6173 247.5375 247.4468 247.3869 247.3399 247.2605 247.1293 247.0757 247.0389 246.9677 246.9061 246.8951 246.805 246.7452 246.6704 246.6348 246.5942 246.5084 246.281 246.1759 246.0807 245.9549 245.8 245.6344 245.3465 245.2385 245.116 244.9344 244.7663 244.625 244.4877 244.4872 244.5322 244.623 244.7027 244.7853 244.9275 245.0273 245.065 245.0419 244.9844 244.993 244.9776 244.9294 244.8513 244.7709 244.6746 244.4628 244.5166 244.6071 244.6883 244.7356 244.7633 244.9515 244.9691 245.0821 245.1855 245.194 245.2776 245.3738 245.4394 245.5333 245.6177 
247.9101 247.9178 247.944 247.9895 248.0347 248.1212 248.1972 248.2728 248.3562 248.3568 248.3088 248.3553 248.6012 248.6424 248.71 248.7847 248.7599 248.6037 248.6516 248.6233 248.4884 248.4042 248.3969 248.2586 248.232 248.1715 248.0301 247.8781 247.7929 247.5806 247.4973 247.4082 247.3439 247.2917 247.2036 247.0161 247.006 246.966 246.8599 246.7975 246.7929 246.7029 246.6463 246.549 246.4771 246.4197 246.3336 246.1304 246.0371 245.9229 245.791 245.6568 245.4902 245.2434 245.135 245.0111 244.8267 244.6537 244.4926 244.3903 244.3887 244.4221 244.5339 244.6738 244.7597 244.9359 244.9803 244.9911 244.9908 244.9553 244.8855 244.8971 244.8408 244.7561 244.6545 244.4871 244.5675 244.6389 244.6854 244.789 244.8489 244.8468 244.8714 244.9312 244.9689 245.0587 245.1803 245.1923 245.3526 245.3739 245.4232 245.5144 
247.7931 247.8272 247.8062 247.8368 247.9263 247.9718 248.0881 248.1534 248.1884 248.2059 248.2283 248.3137 248.4719 248.5147 248.5253 248.561 248.5502 248.4674 248.4117 248.4016 248.3678 248.309 248.2988 248.1203 248.0653 248.0434 247.9408 247.7785 247.6971 247.531 247.4451 247.3599 247.2686 247.1745 247.0872 246.9698 246.9303 246.8471 246.7806 246.7553 246.6926 246.5985 246.5448 246.4522 246.3653 246.2769 246.191 246.0224 245.945 245.7995 245.6521 245.5769 245.4608 245.1992 245.0603 244.9345 244.8139 244.613 244.3892 244.2882 244.281 244.3492 244.5194 244.6755 244.7536 244.9396 244.9655 244.9223 244.8702 244.8814 244.794 244.7842 244.7535 244.6412 244.4379 244.2925 244.6352 244.7235 244.7531 244.8039 244.8638 244.8611 244.862 244.93 244.964 244.9677 245.0015 245.0849 245.2602 245.2765 245.3188 245.4109 
247.6543 247.7007 247.7111 247.7432 247.811 247.814 247.9558 247.9832 248.0559 248.1175 248.1268 248.2042 248.3531 248.4276 248.4066 248.4024 248.4081 248.3247 248.2573 248.2896 248.2777 248.2064 248.1967 248.0191 247.9252 247.8676 247.7893 247.6725 247.5877 247.4165 247.3307 247.2399 247.1832 247.1466 247.0582 246.9187 246.8311 246.7755 246.7491 246.6816 246.5993 246.5176 246.4383 246.3504 246.2645 246.1787 246.0928 245.9211 245.8371 245.7422 245.6098 245.4681 245.3844 245.1359 245.0118 244.8826 244.7546 244.6181 244.371 244.1813 244.1714 244.2899 244.5208 244.6876 244.8401 244.8885 244.9171 244.9743 244.93 244.8487 244.7697 244.7366 244.5686 244.2933 244.2311 244.5323 244.753 244.7569 244.7619 244.7643 244.7953 244.8587 244.8632 244.8706 244.8649 244.9039 244.968 244.9836 245.1566 245.1733 245.2153 245.3071 
247.498 247.5651 247.6139 247.6402 247.7118 247.715 247.7884 247.8635 247.9341 247.9692 248.024 248.1083 248.2065 248.2929 248.3109 248.3101 248.3001 248.2045 248.2035 248.1729 248.1184 248.1017 248.0925 247.9701 247.903 247.8106 247.7249 247.6429 247.5573 247.3866 247.3013 247.2131 247.1434 247.0845 246.9964 246.8101 246.773 246.7403 246.6687 246.572 246.4927 246.4262 246.334 246.2486 246.1627 246.0768 245.9909 245.8192 245.7331 245.6502 245.5558 245.4542 245.3608 245.0866 245.009 244.8737 244.7385 244.6103 244.3056 244.0772 244.0616 244.2286 244.5221 244.6855 244.8653 244.993 244.9554 244.8609 244.88 244.8577 244.7154 244.5395 244.1898 244.195 244.5499 244.663 244.7621 244.763 244.711 244.6987 244.7727 244.7773 244.7716 244.8333 244.8634 244.869 244.8683 244.875 245.057 245.0718 245.113 245.2134 
247.4444 247.4931 247.5072 247.5373 247.6113 247.6091 247.6714 247.7717 247.8059 247.8242 247.9213 248.0069 248.065 248.1644 248.2089 248.2016 248.1976 248.161 248.1629 248.106 248.0598 248.048 247.9934 247.914 247.8335 247.7457 247.6597 247.5737 247.4878 247.3158 247.23 247.1441 247.0569 246.9655 246.8897 246.7921 246.7247 246.6523 246.5544 246.4813 246.4626 246.3196 246.2325 246.1466 246.0607 245.9748 245.889 245.711 245.6223 245.5367 245.4517 245.3646 245.2863 245.1168 245.005 244.8747 244.753 244.5869 244.1281 243.9796 243.9517 244.1594 244.5503 244.7766 245.0255 244.9997 244.9621 244.9163 244.8401 244.7758 244.4896 243.9951 244.1523 244.5949 244.6889 244.7491 244.6662 244.6703 244.6643 244.6631 244.6687 244.668 244.6629 244.7342 244.7787 244.7632 244.7854 244.8629 244.8671 244.932 244.969 244.997 
247.3851 247.4181 247.4011 247.4346 247.509 247.4977 247.568 247.6686 247.7062 247.7259 247.8185 247.9045 247.966 248.0593 248.1376 248.1476 248.1044 248.1635 248.1237 248.0777 248.0373 247.987 247.9511 247.8733 247.8054 247.7157 247.6306 247.5451 247.4596 247.289 247.2036 247.1182 247.0328 246.9462 246.8646 246.715 246.6238 246.5316 246.4764 246.4568 246.3905 246.2162 246.1306 246.0446 245.9586 245.8731 245.7847 245.6712 245.6153 245.5243 245.4362 245.3442 245.2609 245.0961 245.01 244.8813 244.7297 244.491 244.0099 243.8779 243.8418 244.0953 244.5556 244.785 245.0602 245.0003 244.9603 244.9392 244.8311 244.6727 243.9408 244.2448 244.6218 244.668 244.6694 244.673 244.6608 244.6611 244.6611 244.6611 244.6611 244.6611 244.6622 244.6672 244.6597 244.6972 244.7677 244.7673 244.7604 244.827 244.8644 244.8898 
247.2754 247.3137 247.2993 247.332 247.4045 247.4521 247.4891 247.5617 247.6007 247.6171 247.7158 247.7957 247.8549 247.945 248.044 248.0992 248.07 248.0971 248.0702 248.0623 248.0224 247.9612 247.9542 247.8049 247.7288 247.6407 247.5546 247.4688 247.3828 247.211 247.125 247.039 246.953 246.8673 246.7791 246.6716 246.612 246.5192 246.4433 246.3742 246.2865 246.1144 246.0284 245.9425 245.8568 245.7678 245.6892 245.6132 245.5299 245.4328 245.3737 245.3559 245.2707 245.0922 245.0112 244.8833 244.7302 244.4652 243.7723 243.7753 243.7324 244.0201 244.5838 244.8789 244.9851 244.9814 244.9284 244.8618 244.7281 244.3221 244.3334 244.6495 244.6756 244.6318 244.5666 244.569 244.5692 244.5685 244.568 244.5676 244.567 244.5665 244.5653 244.5583 244.6115 244.6691 244.6636 244.6627 244.6569 244.723 244.761 244.7861 
247.1956 247.2074 247.1937 247.2231 247.3006 247.3879 247.3968 247.4465 247.5319 247.5702 247.6043 247.7537 247.8305 247.9226 247.985 247.9953 248.0015 248.0617 248.0611 248.063 248.0291 247.9427 247.8888 247.784 247.6947 247.6096 247.524 247.4386 247.3532 247.1824 247.0971 247.0116 246.9261 246.8407 246.7548 246.6013 246.5225 246.435 246.3486 246.2615 246.1764 246.0126 245.9263 245.8403 245.7549 245.6636 245.5815 245.5165 245.4185 245.3742 245.348 245.2685 245.1804 245.0725 245.021 244.8828 244.738 244.4614 243.6667 243.6724 243.6127 244.0168 244.6803 244.799 244.7942 244.8031 244.7652 244.6268 244.2354 243.8433 244.6154 244.6876 244.6218 244.5259 244.463 244.4657 244.4657 244.4651 244.4657 244.4653 244.4635 244.4631 244.4619 244.4547 244.5085 244.5666 244.5602 244.5593 244.5582 244.5512 244.5965 244.694 
247.1094 247.097 247.1246 247.178 247.1973 247.2782 247.3488 247.3807 247.4367 247.5211 247.5669 247.669 247.7636 247.8596 247.8967 247.9038 247.9684 247.9867 248.0353 248.0645 248.0315 247.9352 247.8653 247.788 247.6978 247.6125 247.527 247.4415 247.3559 247.185 247.0991 247.018 246.9374 246.8513 246.7657 246.5937 246.5078 246.4224 246.3367 246.2546 246.1601 245.8974 245.8212 245.7389 245.6477 245.5792 245.5635 245.4089 245.3149 245.2816 245.2614 245.1653 245.0769 244.9719 244.985 244.9 244.7182 244.3498 243.5466 243.5801 243.5444 243.7191 244.1246 244.4187 244.4253 244.3399 244.2223 243.939 243.6546 243.8425 244.601 244.5728 244.5226 244.4228 244.3598 244.3623 244.3632 244.3691 244.3059 244.2878 244.3635 244.3611 244.3586 244.3514 244.4046 244.4632 244.457 244.456 244.4498 244.5174 244.5563 244.5837 
