NCOLS 39
NROWS 160
XLLCORNER 617273.99
YLLCORNER 4620205.4
CELLSIZE 10
NODATA_VALUE -9999
1473.61 1472.266 1469.338 1467.909 1466.537 1465.479 1464.133 1463.999 1463.828 1463.492 1463.267 1463.07 1462.783 1462.61 1462.453 1462.238 1462.013 1461.857 1461.684 1461.439 1461.369 1461.291 1461.182 1461.196 1461.198 1461.197 1461.189 1461.202 1461.277 1461.431 1461.505 1461.577 1461.722 1461.79 1461.87 1462.012 1462.057 1462.113 1462.106 
1473.81 1472.372 1469.497 1468.065 1466.829 1465.8 1464.34 1464.066 1463.857 1463.506 1463.304 1463.032 1462.76 1462.55 1462.399 1462.234 1461.908 1461.768 1461.684 1461.439 1461.366 1461.288 1461.246 1461.286 1461.29 1461.297 1461.332 1461.411 1461.486 1461.634 1461.734 1461.881 1462.084 1462.208 1462.284 1462.428 1462.655 1462.631 1462.623 
1474.055 1472.672 1469.633 1468.271 1467.074 1466.019 1464.463 1464.061 1463.912 1463.449 1463.244 1463.131 1462.793 1462.643 1462.461 1462.244 1461.92 1461.761 1461.601 1461.445 1461.366 1461.288 1461.346 1461.293 1461.315 1461.383 1461.509 1461.515 1461.59 1461.901 1462.03 1462.099 1462.165 1462.42 1462.496 1462.64 1463.095 1463.258 1463.24 
1474.276 1472.84 1469.712 1468.383 1467.145 1466.05 1464.355 1464.056 1463.905 1463.465 1463.302 1463.198 1462.771 1462.568 1462.338 1462.19 1461.898 1461.759 1461.606 1461.441 1461.361 1461.309 1461.366 1461.293 1461.498 1461.503 1461.657 1461.732 1461.807 1462.101 1462.258 1462.403 1462.483 1462.731 1462.808 1462.952 1463.435 1463.743 1463.946 
1474.425 1472.906 1471.376 1468.478 1467.155 1466.07 1464.278 1464.053 1463.903 1463.473 1463.307 1463.149 1462.927 1462.502 1462.299 1462.118 1461.842 1461.757 1461.603 1461.445 1461.404 1461.389 1461.312 1461.443 1461.498 1461.606 1461.859 1461.927 1462.014 1462.316 1462.472 1462.623 1462.774 1462.967 1463.108 1463.178 1463.651 1463.955 1464.169 
1474.531 1472.984 1471.477 1468.561 1467.288 1466.145 1464.419 1464.038 1463.894 1463.458 1463.269 1463.081 1462.849 1462.492 1462.331 1462.094 1461.85 1461.763 1461.63 1461.485 1461.465 1461.392 1461.387 1461.503 1461.528 1461.606 1461.859 1462.057 1462.216 1462.579 1462.788 1462.926 1463.006 1463.173 1463.309 1463.387 1463.866 1464.145 1464.275 
1474.567 1473.016 1471.463 1468.616 1467.42 1466.389 1464.623 1464.059 1463.884 1463.53 1463.311 1463.037 1462.844 1462.41 1462.256 1462.055 1461.803 1461.738 1461.663 1461.484 1461.466 1461.41 1461.401 1461.578 1461.735 1461.81 1461.95 1462.057 1462.216 1462.873 1463.004 1463.147 1463.299 1463.332 1463.424 1463.578 1463.913 1464.231 1464.287 
1474.228 1472.738 1471.238 1468.657 1467.601 1466.675 1464.915 1464.189 1463.94 1463.524 1463.26 1463.03 1462.802 1462.403 1462.221 1462.075 1461.746 1461.665 1461.616 1461.49 1461.521 1461.522 1461.518 1461.675 1461.807 1461.903 1462.103 1462.272 1462.43 1462.684 1463.004 1463.474 1463.53 1463.506 1463.532 1463.688 1464.111 1464.217 1464.288 
1473.42 1472.032 1470.688 1468.455 1467.573 1466.725 1465.163 1464.402 1464.071 1463.458 1463.165 1462.978 1462.7 1462.353 1462.153 1461.997 1461.803 1461.672 1461.645 1461.548 1461.587 1461.585 1461.588 1461.764 1461.86 1461.973 1462.255 1462.487 1462.665 1463.032 1463.416 1463.474 1463.864 1463.723 1463.756 1463.896 1464.263 1464.287 1464.292 
1472.377 1470.976 1469.624 1467.797 1467.156 1466.658 1465.078 1464.343 1463.994 1463.694 1462.962 1462.753 1462.565 1462.253 1462.113 1461.998 1461.762 1461.661 1461.62 1461.593 1461.586 1461.583 1461.603 1461.903 1462.006 1462.037 1462.411 1462.708 1462.977 1463.269 1463.814 1463.873 1463.864 1463.723 1464.03 1464.023 1464.252 1464.288 1464.3 
1471.232 1469.521 1468.08 1466.664 1466.42 1466.027 1464.733 1464.131 1463.708 1463.388 1462.874 1462.614 1462.51 1462.198 1462.065 1461.995 1461.745 1461.723 1461.691 1461.643 1461.585 1461.628 1461.708 1461.938 1462.05 1462.215 1462.541 1462.851 1463.29 1463.629 1464.044 1464.157 1464.156 1464.048 1464.03 1464.023 1464.313 1464.33 1464.398 
1469.57 1467.563 1466.016 1464.692 1464.658 1464.523 1464.097 1463.747 1463.393 1463.123 1462.708 1462.509 1462.383 1462.171 1462.058 1461.938 1461.785 1461.763 1461.69 1461.685 1461.651 1461.745 1461.817 1461.993 1462.16 1462.316 1462.673 1463.029 1463.586 1463.998 1464.27 1464.29 1464.285 1464.272 1464.213 1464.219 1464.286 1464.465 1464.409 
1467.974 1465.858 1464.534 1463.615 1463.773 1463.69 1463.475 1463.322 1463.076 1462.893 1462.541 1462.398 1462.292 1462.147 1462.045 1461.892 1461.809 1461.765 1461.737 1461.729 1461.741 1461.798 1461.918 1462.161 1462.303 1462.424 1462.616 1463.225 1463.767 1464.145 1464.286 1464.286 1464.286 1464.286 1464.285 1464.293 1464.366 1464.465 1464.409 
1466.807 1464.941 1464.151 1463.663 1463.512 1463.516 1463.223 1463.048 1462.828 1462.735 1462.464 1462.368 1462.294 1462.152 1462.045 1461.895 1461.886 1461.814 1461.788 1461.827 1461.853 1461.893 1461.969 1462.286 1462.425 1462.53 1462.696 1463.283 1463.791 1464.11 1464.275 1464.285 1464.26 1464.258 1464.264 1464.288 1464.348 1464.404 1464.485 
1466.006 1464.337 1464.071 1463.718 1463.412 1463.245 1463.22 1462.945 1462.778 1462.637 1462.386 1462.373 1462.296 1462.103 1461.992 1461.946 1461.887 1461.919 1461.855 1461.931 1461.911 1461.997 1462.074 1462.344 1462.464 1462.638 1462.876 1463.286 1463.719 1464.005 1464.221 1464.243 1464.19 1464.184 1464.208 1464.28 1464.286 1464.336 1464.439 
1465.55 1464.107 1464.058 1463.661 1463.41 1463.19 1463.124 1462.833 1462.686 1462.591 1462.429 1462.368 1462.285 1462.116 1462.029 1461.979 1461.953 1461.951 1461.885 1461.959 1461.98 1462.116 1462.236 1462.521 1462.617 1462.736 1462.929 1463.366 1463.673 1463.905 1464.174 1464.183 1464.186 1464.184 1464.203 1464.255 1464.26 1464.255 1464.246 
1465.167 1464.093 1463.981 1463.555 1463.342 1463.18 1463.034 1462.839 1462.759 1462.689 1462.428 1462.382 1462.37 1462.165 1462.065 1462.041 1461.99 1461.983 1462.02 1462.099 1462.157 1462.264 1462.33 1462.614 1462.798 1462.899 1462.998 1463.406 1463.658 1463.849 1464.135 1464.186 1464.186 1464.186 1464.186 1464.186 1464.186 1464.186 1464.186 
1464.511 1464.029 1463.893 1463.379 1463.264 1463.178 1463.02 1462.925 1462.76 1462.614 1462.491 1462.355 1462.302 1462.208 1462.139 1462.151 1462.13 1462.071 1462.156 1462.174 1462.28 1462.378 1462.497 1462.57 1462.845 1462.998 1463.112 1463.445 1463.718 1463.908 1464.166 1464.184 1464.186 1464.186 1464.186 1464.186 1464.186 1464.186 1464.186 
1464.04 1463.938 1463.705 1463.461 1463.23 1463.082 1462.995 1462.859 1462.768 1462.676 1462.537 1462.44 1462.362 1462.36 1462.32 1462.264 1462.256 1462.229 1462.259 1462.31 1462.423 1462.487 1462.644 1462.736 1462.89 1463.04 1463.19 1463.648 1463.827 1464.024 1464.224 1464.224 1464.189 1464.185 1464.186 1464.186 1464.186 1464.186 1464.186 
1463.851 1463.638 1463.488 1463.325 1463.261 1463.175 1463.098 1462.828 1462.781 1462.775 1462.52 1462.474 1462.459 1462.399 1462.343 1462.278 1462.342 1462.344 1462.367 1462.447 1462.541 1462.586 1462.74 1462.766 1463.027 1463.237 1463.428 1463.796 1463.975 1464.078 1464.251 1464.272 1464.193 1464.185 1464.186 1464.186 1464.186 1464.186 1464.186 
1463.627 1463.533 1463.393 1463.383 1463.253 1463.176 1463.1 1462.939 1462.862 1462.786 1462.613 1462.566 1462.56 1462.485 1462.45 1462.441 1462.448 1462.502 1462.458 1462.539 1462.687 1462.756 1462.85 1462.894 1463.103 1463.313 1463.608 1463.897 1464.07 1464.139 1464.242 1464.265 1464.19 1464.185 1464.186 1464.186 1464.186 1464.186 1464.186 
1463.575 1463.479 1463.481 1463.411 1463.252 1463.174 1463.096 1462.935 1462.88 1462.873 1462.716 1462.67 1462.661 1462.577 1462.623 1462.567 1462.634 1462.643 1462.657 1462.729 1462.793 1462.871 1462.955 1463.093 1463.306 1463.52 1463.713 1464.096 1464.161 1464.184 1464.234 1464.273 1464.235 1464.238 1464.185 1464.186 1464.186 1464.186 1464.186 
1463.648 1463.56 1463.49 1463.485 1463.311 1463.184 1463.182 1463.032 1462.979 1462.976 1462.815 1462.765 1462.771 1462.759 1462.761 1462.753 1462.758 1462.812 1462.769 1462.856 1462.92 1463.063 1463.141 1463.243 1463.424 1463.636 1463.897 1464.138 1464.208 1464.246 1464.231 1464.31 1464.346 1464.305 1464.183 1464.186 1464.186 1464.186 1464.186 
1463.69 1463.643 1463.501 1463.494 1463.346 1463.289 1463.286 1463.134 1463.082 1463.078 1463.003 1462.94 1462.881 1462.95 1462.922 1462.878 1462.947 1462.895 1462.947 1462.959 1463.028 1463.197 1463.259 1463.273 1463.522 1463.706 1463.965 1464.172 1464.217 1464.287 1464.204 1464.336 1464.38 1464.302 1464.261 1464.187 1464.185 1464.186 1464.186 
1463.819 1463.783 1463.716 1463.708 1463.453 1463.375 1463.3 1463.243 1463.186 1463.18 1463.105 1463.08 1463.076 1463.077 1463.07 1463.059 1463.066 1463.153 1463.144 1463.145 1463.227 1463.295 1463.356 1463.348 1463.642 1463.804 1463.975 1464.189 1464.194 1464.213 1464.191 1464.284 1464.384 1464.303 1464.265 1464.182 1464.186 1464.186 1464.186 
1464.032 1463.998 1463.911 1463.827 1463.61 1463.493 1463.496 1463.339 1463.291 1463.281 1463.208 1463.184 1463.183 1463.179 1463.212 1463.268 1463.263 1463.354 1463.378 1463.436 1463.379 1463.394 1463.474 1463.543 1463.717 1463.831 1463.987 1464.19 1464.186 1464.186 1464.186 1464.234 1464.323 1464.293 1464.348 1464.283 1464.195 1464.185 1464.186 
1464.032 1464.188 1464.106 1464.017 1463.64 1463.607 1463.596 1463.505 1463.442 1463.303 1463.369 1463.35 1463.295 1463.369 1463.477 1463.487 1463.561 1463.661 1463.658 1463.655 1463.582 1463.496 1463.568 1463.579 1463.684 1463.729 1463.899 1464.069 1464.186 1464.186 1464.186 1464.19 1464.223 1464.286 1464.37 1464.351 1464.197 1464.184 1464.186 
1464.219 1464.188 1464.169 1464.007 1463.802 1463.792 1463.705 1463.603 1463.574 1463.506 1463.493 1463.494 1463.489 1463.488 1463.737 1463.801 1463.876 1463.954 1463.947 1463.852 1463.701 1463.598 1463.673 1463.67 1463.71 1463.789 1463.883 1463.97 1464.189 1464.186 1464.186 1464.185 1464.187 1464.21 1464.344 1464.359 1464.251 1464.241 1464.184 
1464.286 1464.27 1464.169 1464.007 1463.906 1463.887 1463.822 1463.822 1463.71 1463.704 1463.621 1463.631 1463.691 1463.698 1463.998 1464.096 1464.092 1464.162 1464.159 1464.058 1463.902 1463.764 1463.774 1463.776 1463.818 1463.879 1463.89 1463.959 1464.131 1464.198 1464.267 1464.183 1464.186 1464.187 1464.339 1464.376 1464.354 1464.359 1464.216 
1464.285 1464.245 1464.16 1464.019 1463.906 1463.887 1464.032 1464.034 1463.917 1463.901 1463.824 1463.68 1463.726 1463.884 1464.154 1464.187 1464.187 1464.187 1464.196 1464.165 1464.01 1463.878 1463.857 1463.789 1463.888 1463.885 1463.893 1463.962 1464.124 1464.188 1464.202 1464.272 1464.263 1464.254 1464.366 1464.476 1464.459 1464.399 1464.282 
1464.283 1464.184 1464.176 1464.121 1464.022 1464.028 1464.032 1464.034 1464.078 1463.994 1463.916 1463.832 1463.921 1463.997 1464.19 1464.184 1464.197 1464.274 1464.185 1464.173 1464.098 1463.983 1463.963 1463.885 1463.886 1463.885 1463.89 1463.963 1464.128 1464.183 1464.189 1464.286 1464.307 1464.374 1464.43 1464.486 1464.485 1464.466 1464.445 
1464.319 1464.193 1464.185 1464.19 1464.225 1464.221 1464.221 1464.223 1464.078 1464.097 1464.017 1463.934 1464.025 1464.1 1464.187 1464.185 1464.197 1464.268 1464.184 1464.187 1464.179 1463.977 1463.989 1463.979 1463.906 1463.91 1463.978 1463.984 1464.125 1464.184 1464.186 1464.193 1464.215 1464.304 1464.447 1464.547 1464.489 1464.485 1464.487 
1464.355 1464.259 1464.21 1464.213 1464.272 1464.286 1464.285 1464.288 1464.176 1464.097 1464.017 1464.032 1464.119 1464.185 1464.186 1464.186 1464.186 1464.186 1464.186 1464.186 1464.182 1464.081 1464.087 1464.086 1464.088 1463.973 1463.983 1463.988 1464.199 1464.186 1464.186 1464.184 1464.201 1464.289 1464.443 1464.562 1464.49 1464.485 1464.487 
1464.234 1464.255 1464.27 1464.289 1464.285 1464.308 1464.287 1464.285 1464.261 1464.181 1464.117 1464.032 1464.119 1464.179 1464.187 1464.186 1464.186 1464.186 1464.191 1464.186 1464.186 1464.186 1464.186 1464.186 1464.186 1464.153 1464.083 1464.08 1464.127 1464.185 1464.186 1464.184 1464.197 1464.287 1464.439 1464.552 1464.489 1464.557 1464.485 
1464.186 1464.184 1464.206 1464.28 1464.286 1464.346 1464.288 1464.285 1464.257 1464.205 1464.192 1464.086 1464.106 1464.179 1464.201 1464.21 1464.197 1464.206 1464.251 1464.19 1464.192 1464.191 1464.19 1464.189 1464.186 1464.152 1464.086 1464.088 1464.191 1464.185 1464.191 1464.277 1464.29 1464.385 1464.548 1464.576 1464.575 1464.585 1464.535 
1464.191 1464.185 1464.199 1464.25 1464.283 1464.291 1464.313 1464.291 1464.286 1464.277 1464.216 1464.144 1464.118 1464.182 1464.201 1464.21 1464.341 1464.406 1464.223 1464.306 1464.292 1464.286 1464.293 1464.277 1464.204 1464.191 1464.17 1464.096 1464.188 1464.185 1464.191 1464.258 1464.417 1464.477 1464.482 1464.657 1464.588 1464.585 1464.582 
1464.101 1464.187 1464.185 1464.185 1464.232 1464.332 1464.382 1464.298 1464.304 1464.285 1464.285 1464.194 1464.192 1464.21 1464.273 1464.378 1464.341 1464.406 1464.356 1464.389 1464.304 1464.293 1464.254 1464.188 1464.185 1464.141 1464.094 1464.173 1464.185 1464.186 1464.185 1464.181 1464.348 1464.493 1464.569 1464.656 1464.585 1464.59 1464.646 
1463.876 1464.083 1464.186 1464.186 1464.183 1464.305 1464.383 1464.334 1464.369 1464.306 1464.285 1464.288 1464.223 1464.288 1464.301 1464.448 1464.489 1464.482 1464.356 1464.389 1464.413 1464.409 1464.255 1464.189 1464.185 1464.146 1464.086 1464.089 1464.188 1464.186 1464.186 1464.186 1464.349 1464.498 1464.575 1464.63 1464.664 1464.591 1464.645 
1463.78 1463.984 1464.187 1464.186 1464.186 1464.239 1464.35 1464.357 1464.387 1464.377 1464.322 1464.312 1464.346 1464.349 1464.43 1464.504 1464.504 1464.487 1464.487 1464.471 1464.413 1464.512 1464.335 1464.194 1464.182 1464.149 1464.087 1464.092 1464.188 1464.186 1464.183 1464.179 1464.423 1464.512 1464.663 1464.683 1464.678 1464.681 1464.74 
1463.665 1463.866 1464.19 1464.186 1464.186 1464.224 1464.284 1464.286 1464.348 1464.36 1464.386 1464.389 1464.487 1464.508 1464.566 1464.528 1464.58 1464.494 1464.499 1464.485 1464.494 1464.512 1464.335 1464.291 1464.207 1464.201 1464.204 1464.201 1464.185 1464.185 1464.194 1464.267 1464.459 1464.605 1464.679 1464.728 1464.789 1464.785 1464.783 
1463.649 1463.877 1464.157 1464.185 1464.186 1464.203 1464.25 1464.286 1464.284 1464.296 1464.343 1464.342 1464.469 1464.485 1464.485 1464.539 1464.549 1464.517 1464.531 1464.483 1464.496 1464.579 1464.43 1464.291 1464.207 1464.286 1464.286 1464.281 1464.212 1464.184 1464.198 1464.27 1464.535 1464.605 1464.681 1464.795 1464.783 1464.793 1464.867 
1463.648 1463.986 1464.16 1464.185 1464.186 1464.185 1464.191 1464.234 1464.287 1464.285 1464.286 1464.31 1464.423 1464.484 1464.456 1464.525 1464.5 1464.587 1464.535 1464.49 1464.516 1464.556 1464.459 1464.396 1464.32 1464.286 1464.286 1464.281 1464.218 1464.211 1464.3 1464.385 1464.569 1464.71 1464.785 1464.899 1464.886 1464.894 1464.971 
1463.617 1464.015 1464.186 1464.186 1464.186 1464.186 1464.186 1464.186 1464.216 1464.231 1464.254 1464.369 1464.413 1464.434 1464.385 1464.486 1464.499 1464.548 1464.567 1464.506 1464.561 1464.515 1464.503 1464.501 1464.404 1464.31 1464.3 1464.281 1464.295 1464.213 1464.316 1464.466 1464.64 1464.709 1464.79 1464.99 1464.985 1464.986 1464.986 
1463.638 1464.034 1464.186 1464.186 1464.186 1464.186 1464.185 1464.19 1464.232 1464.183 1464.193 1464.272 1464.359 1464.384 1464.391 1464.471 1464.501 1464.518 1464.49 1464.484 1464.496 1464.582 1464.54 1464.545 1464.425 1464.45 1464.367 1464.304 1464.295 1464.213 1464.435 1464.504 1464.747 1464.822 1464.889 1464.995 1464.985 1465.01 1465.158 
1463.564 1463.893 1464.189 1464.186 1464.186 1464.186 1464.186 1464.185 1464.225 1464.185 1464.186 1464.183 1464.32 1464.337 1464.3 1464.391 1464.474 1464.517 1464.495 1464.484 1464.495 1464.545 1464.515 1464.447 1464.461 1464.385 1464.396 1464.407 1464.323 1464.359 1464.435 1464.504 1464.778 1464.888 1464.901 1464.959 1465.135 1465.195 1465.192 
1463.46 1463.822 1464.19 1464.186 1464.186 1464.184 1464.201 1464.249 1464.2 1464.186 1464.186 1464.187 1464.239 1464.217 1464.176 1464.292 1464.337 1464.345 1464.458 1464.485 1464.485 1464.486 1464.448 1464.402 1464.411 1464.478 1464.434 1464.488 1464.433 1464.518 1464.6 1464.676 1464.778 1464.835 1464.97 1464.992 1465.187 1465.197 1465.281 
1463.447 1463.832 1464.19 1464.186 1464.186 1464.185 1464.257 1464.223 1464.192 1464.186 1464.186 1464.186 1464.186 1464.186 1464.186 1464.183 1464.225 1464.25 1464.412 1464.46 1464.486 1464.486 1464.486 1464.485 1464.468 1464.484 1464.466 1464.461 1464.449 1464.379 1464.467 1464.548 1464.788 1464.835 1464.97 1465.045 1465.186 1465.217 1465.365 
1463.452 1463.847 1464.19 1464.186 1464.186 1464.185 1464.21 1464.187 1464.186 1464.186 1464.186 1464.186 1464.186 1464.186 1464.186 1464.186 1464.184 1464.198 1464.307 1464.411 1464.449 1464.45 1464.459 1464.424 1464.356 1464.437 1464.345 1464.341 1464.288 1464.311 1464.396 1464.494 1464.783 1464.877 1464.888 1465.045 1465.186 1465.304 1465.375 
1463.528 1463.782 1464.194 1464.186 1464.186 1464.186 1464.186 1464.186 1464.186 1464.186 1464.186 1464.186 1464.186 1464.186 1464.186 1464.186 1464.185 1464.196 1464.265 1464.339 1464.332 1464.333 1464.349 1464.314 1464.245 1464.29 1464.238 1464.245 1464.252 1464.3 1464.422 1464.559 1464.729 1464.804 1464.914 1465.069 1465.222 1465.304 1465.375 
1463.47 1463.768 1464.12 1464.19 1464.186 1464.186 1464.186 1464.186 1464.186 1464.186 1464.186 1464.186 1464.186 1464.186 1464.186 1464.186 1464.184 1464.2 1464.271 1464.286 1464.286 1464.282 1464.234 1464.22 1464.186 1464.186 1464.186 1464.186 1464.186 1464.245 1464.376 1464.474 1464.632 1464.868 1465.029 1465.15 1465.214 1465.299 1465.375 
1463.434 1463.683 1464.067 1464.135 1464.183 1464.186 1464.186 1464.186 1464.186 1464.186 1464.186 1464.186 1464.186 1464.186 1464.186 1464.186 1464.184 1464.203 1464.277 1464.286 1464.276 1464.235 1464.193 1464.186 1464.186 1464.186 1464.186 1464.186 1464.186 1464.226 1464.355 1464.516 1464.645 1464.957 1465.07 1465.1 1465.241 1465.302 1465.379 
1463.543 1463.692 1463.779 1464.064 1464.18 1464.187 1464.186 1464.186 1464.186 1464.186 1464.186 1464.186 1464.186 1464.186 1464.186 1464.186 1464.185 1464.19 1464.221 1464.288 1464.261 1464.189 1464.185 1464.186 1464.186 1464.186 1464.186 1464.186 1464.186 1464.296 1464.439 1464.565 1464.667 1464.899 1464.998 1465.142 1465.266 1465.273 1465.355 
1463.359 1463.514 1463.729 1464.031 1464.114 1464.179 1464.186 1464.186 1464.186 1464.186 1464.186 1464.186 1464.186 1464.186 1464.186 1464.186 1464.186 1464.186 1464.186 1464.289 1464.265 1464.193 1464.185 1464.186 1464.186 1464.186 1464.186 1464.185 1464.191 1464.327 1464.358 1464.411 1464.544 1464.797 1464.97 1465.041 1465.186 1465.193 1465.272 
1463.072 1463.309 1463.545 1463.954 1464.016 1464.089 1464.187 1464.186 1464.186 1464.186 1464.186 1464.186 1464.186 1464.186 1464.186 1464.186 1464.185 1464.199 1464.257 1464.263 1464.209 1464.187 1464.186 1464.186 1464.186 1464.186 1464.186 1464.185 1464.188 1464.241 1464.231 1464.229 1464.259 1464.603 1464.824 1464.931 1465.179 1465.206 1465.284 
1462.842 1463.012 1463.242 1463.693 1463.838 1463.989 1464.103 1464.12 1464.182 1464.186 1464.186 1464.186 1464.186 1464.186 1464.186 1464.186 1464.185 1464.192 1464.216 1464.2 1464.185 1464.186 1464.186 1464.186 1464.186 1464.186 1464.186 1464.186 1464.186 1464.186 1464.186 1464.181 1464.201 1464.506 1464.702 1464.864 1465.101 1465.183 1465.259 
1462.605 1462.706 1462.938 1463.318 1463.539 1463.696 1464.024 1464.025 1464.102 1464.09 1464.125 1464.184 1464.186 1464.186 1464.186 1464.186 1464.186 1464.186 1464.186 1464.186 1464.186 1464.186 1464.186 1464.186 1464.186 1464.186 1464.186 1464.186 1464.186 1464.186 1464.185 1464.194 1464.269 1464.572 1464.718 1464.839 1464.972 1465.033 1465.108 
1462.507 1462.589 1462.669 1462.894 1463.148 1463.382 1463.714 1463.836 1463.92 1464.055 1464.092 1464.106 1464.174 1464.186 1464.186 1464.186 1464.186 1464.186 1464.186 1464.186 1464.186 1464.186 1464.186 1464.186 1464.186 1464.186 1464.186 1464.186 1464.186 1464.186 1464.185 1464.194 1464.266 1464.557 1464.662 1464.731 1464.836 1464.85 1464.937 
1462.484 1462.483 1462.479 1462.656 1462.821 1462.981 1463.356 1463.538 1463.627 1463.858 1463.963 1464.096 1464.104 1464.188 1464.186 1464.186 1464.186 1464.186 1464.186 1464.186 1464.186 1464.186 1464.186 1464.186 1464.186 1464.186 1464.186 1464.186 1464.186 1464.186 1464.185 1464.196 1464.275 1464.521 1464.57 1464.688 1464.766 1464.802 1464.851 
1462.669 1462.582 1462.5 1462.516 1462.6 1462.677 1462.933 1463.158 1463.308 1463.465 1463.85 1463.918 1463.994 1464.044 1464.123 1464.183 1464.186 1464.186 1464.186 1464.186 1464.186 1464.186 1464.186 1464.186 1464.186 1464.186 1464.186 1464.186 1464.186 1464.186 1464.185 1464.188 1464.221 1464.379 1464.403 1464.529 1464.577 1464.698 1464.702 
1462.835 1462.69 1462.611 1462.481 1462.482 1462.482 1462.677 1462.843 1463 1463.155 1463.626 1463.806 1463.807 1463.941 1464.025 1464.102 1464.149 1464.187 1464.186 1464.186 1464.186 1464.186 1464.186 1464.186 1464.186 1464.186 1464.186 1464.186 1464.186 1464.186 1464.186 1464.186 1464.185 1464.248 1464.288 1464.317 1464.398 1464.533 1464.535 
1463.045 1462.911 1462.822 1462.591 1462.574 1462.494 1462.527 1462.606 1462.693 1462.845 1463.313 1463.534 1463.681 1463.848 1463.9 1463.909 1463.973 1464.115 1464.104 1464.103 1464.188 1464.186 1464.186 1464.186 1464.186 1464.186 1464.186 1464.186 1464.186 1464.186 1464.186 1464.186 1464.186 1464.198 1464.241 1464.287 1464.313 1464.441 1464.434 
1463.339 1463.178 1463.034 1462.754 1462.674 1462.595 1462.51 1462.505 1462.586 1462.662 1462.995 1463.242 1463.472 1463.696 1463.806 1463.801 1463.875 1463.936 1463.999 1464.002 1464.108 1464.122 1464.182 1464.186 1464.186 1464.186 1464.186 1464.186 1464.186 1464.186 1464.186 1464.186 1464.186 1464.185 1464.19 1464.226 1464.276 1464.334 1464.332 
1463.394 1463.207 1463.196 1462.91 1462.781 1462.706 1462.622 1462.477 1462.487 1462.56 1462.861 1463.013 1463.176 1463.5 1463.537 1463.694 1463.784 1463.827 1463.897 1463.899 1464.001 1464.011 1464.093 1464.188 1464.186 1464.186 1464.186 1464.186 1464.186 1464.186 1464.186 1464.186 1464.186 1464.186 1464.186 1464.187 1464.215 1464.22 1464.222 
1463.394 1463.207 1463.198 1463.064 1462.988 1462.89 1462.732 1462.55 1462.488 1462.485 1462.65 1462.816 1462.967 1463.233 1463.427 1463.496 1463.573 1463.735 1463.793 1463.792 1463.939 1464.014 1464.086 1464.147 1464.188 1464.186 1464.186 1464.186 1464.186 1464.186 1464.186 1464.186 1464.186 1464.186 1464.186 1464.186 1464.186 1464.186 1464.186 
1463.519 1463.36 1463.198 1463.064 1463.03 1462.876 1462.729 1462.555 1462.491 1462.484 1462.507 1462.612 1462.762 1462.975 1463.138 1463.299 1463.459 1463.556 1463.712 1463.786 1463.83 1463.92 1463.998 1464.074 1464.122 1464.182 1464.186 1464.186 1464.186 1464.186 1464.186 1464.186 1464.186 1464.186 1464.186 1464.186 1464.186 1464.186 1464.186 
1463.446 1463.346 1463.197 1463.177 1463.03 1462.88 1462.809 1462.655 1462.574 1462.496 1462.484 1462.496 1462.577 1462.725 1463.042 1463.187 1463.268 1463.425 1463.501 1463.584 1463.797 1463.808 1463.89 1463.97 1464.124 1464.184 1464.186 1464.186 1464.186 1464.186 1464.186 1464.186 1464.186 1464.186 1464.186 1464.186 1464.186 1464.186 1464.186 
1463.421 1463.329 1463.192 1463.085 1462.951 1462.88 1462.809 1462.646 1462.567 1462.495 1462.484 1462.503 1462.577 1462.652 1462.828 1462.992 1463.152 1463.253 1463.405 1463.48 1463.686 1463.82 1463.891 1463.968 1464.092 1464.104 1464.171 1464.186 1464.186 1464.186 1464.186 1464.186 1464.186 1464.186 1464.186 1464.186 1464.186 1464.186 1464.186 
1463.314 1463.232 1463.156 1463.019 1462.963 1462.88 1462.801 1462.646 1462.567 1462.493 1462.485 1462.485 1462.487 1462.547 1462.7 1462.79 1462.94 1463.164 1463.303 1463.379 1463.528 1463.64 1463.79 1463.874 1464.024 1464.104 1464.177 1464.186 1464.186 1464.186 1464.186 1464.186 1464.186 1464.186 1464.186 1464.186 1464.186 1464.186 1464.186 
1463.269 1463.148 1463.074 1463.002 1462.933 1462.857 1462.798 1462.645 1462.564 1462.493 1462.485 1462.485 1462.485 1462.483 1462.616 1462.687 1462.762 1463.132 1463.197 1463.276 1463.428 1463.54 1463.687 1463.768 1463.996 1464 1464.078 1464.188 1464.186 1464.186 1464.186 1464.186 1464.186 1464.186 1464.186 1464.186 1464.186 1464.186 1464.186 
1463.226 1463.161 1463.085 1463.007 1462.838 1462.774 1462.763 1462.645 1462.568 1462.508 1462.485 1462.485 1462.486 1462.495 1462.618 1462.688 1462.765 1462.957 1463.099 1463.185 1463.334 1463.513 1463.589 1463.664 1463.931 1464.001 1464.078 1464.188 1464.186 1464.186 1464.186 1464.186 1464.186 1464.186 1464.186 1464.186 1464.186 1464.186 1464.186 
1463.296 1463.148 1463.047 1462.999 1462.85 1462.769 1462.687 1462.627 1462.581 1462.569 1462.523 1462.485 1462.486 1462.495 1462.584 1462.595 1462.668 1462.865 1463.03 1463.176 1463.261 1463.444 1463.579 1463.582 1463.87 1464.006 1464.081 1464.188 1464.186 1464.186 1464.186 1464.186 1464.186 1464.186 1464.186 1464.186 1464.186 1464.186 1464.186 
1463.253 1463.138 1463.007 1462.953 1462.849 1462.767 1462.693 1462.595 1462.565 1462.51 1462.556 1462.483 1462.498 1462.572 1462.584 1462.595 1462.663 1462.884 1463.008 1463.079 1463.238 1463.345 1463.491 1463.572 1463.826 1463.922 1464.075 1464.187 1464.186 1464.186 1464.186 1464.186 1464.186 1464.186 1464.186 1464.186 1464.186 1464.186 1464.186 
1463.309 1463.172 1463.117 1462.944 1462.865 1462.795 1462.697 1462.643 1462.574 1462.561 1462.515 1462.499 1462.495 1462.569 1462.584 1462.597 1462.663 1462.9 1462.991 1463.002 1463.136 1463.425 1463.498 1463.573 1463.81 1464.015 1464.086 1464.188 1464.186 1464.186 1464.186 1464.186 1464.186 1464.186 1464.186 1464.186 1464.186 1464.186 1464.186 
1463.356 1463.202 1463.134 1463.05 1462.915 1462.863 1462.73 1462.657 1462.582 1462.512 1462.574 1462.531 1462.494 1462.568 1462.585 1462.584 1462.591 1462.9 1462.991 1463.099 1463.169 1463.352 1463.504 1463.587 1463.769 1463.933 1464.077 1464.168 1464.186 1464.186 1464.186 1464.186 1464.186 1464.186 1464.186 1464.186 1464.186 1464.186 1464.186 
1463.407 1463.227 1463.114 1463.084 1462.936 1462.866 1462.832 1462.7 1462.674 1462.626 1462.594 1462.5 1462.522 1462.576 1462.585 1462.584 1462.608 1462.731 1463.023 1463.099 1463.169 1463.356 1463.521 1463.664 1463.828 1463.991 1464 1464.141 1464.186 1464.186 1464.186 1464.186 1464.186 1464.186 1464.186 1464.186 1464.186 1464.186 1464.186 
1463.453 1463.289 1463.23 1463.183 1462.993 1462.952 1462.891 1462.846 1462.709 1462.679 1462.601 1462.585 1462.585 1462.585 1462.583 1462.605 1462.691 1462.777 1463.021 1463.093 1463.168 1463.356 1463.521 1463.572 1463.843 1463.939 1464.082 1464.164 1464.186 1464.186 1464.186 1464.186 1464.186 1464.186 1464.186 1464.186 1464.186 1464.186 1464.186 
1463.556 1463.435 1463.333 1463.345 1463.167 1463.09 1462.93 1462.926 1462.796 1462.712 1462.632 1462.585 1462.585 1462.585 1462.584 1462.599 1462.688 1462.849 1463.016 1463.097 1463.189 1463.354 1463.485 1463.572 1463.875 1463.974 1463.984 1464.056 1464.187 1464.186 1464.186 1464.186 1464.186 1464.186 1464.186 1464.186 1464.186 1464.186 1464.183 
1463.659 1463.552 1463.474 1463.379 1463.294 1463.191 1463.08 1463.037 1462.901 1462.826 1462.744 1462.597 1462.584 1462.585 1462.593 1462.637 1462.721 1462.849 1463.013 1463.109 1463.269 1463.34 1463.449 1463.593 1463.875 1463.974 1463.99 1464.071 1464.187 1464.186 1464.186 1464.186 1464.186 1464.186 1464.186 1464.186 1464.188 1464.186 1464.182 
1463.75 1463.679 1463.623 1463.552 1463.438 1463.361 1463.286 1463.204 1462.974 1462.88 1462.842 1462.683 1462.622 1462.622 1462.647 1462.714 1462.797 1462.895 1463.023 1463.134 1463.266 1463.498 1463.631 1463.708 1463.698 1463.841 1463.99 1464.071 1464.187 1464.186 1464.186 1464.186 1464.186 1464.186 1464.186 1464.22 1464.298 1464.297 1464.194 
1463.928 1463.819 1463.803 1463.813 1463.79 1463.563 1463.49 1463.414 1463.087 1462.919 1462.887 1462.733 1462.684 1462.689 1462.724 1462.738 1462.831 1462.967 1463.077 1463.206 1463.278 1463.548 1463.661 1463.809 1463.816 1463.934 1463.99 1464.067 1464.187 1464.213 1464.189 1464.186 1464.186 1464.186 1464.186 1464.303 1464.505 1464.433 1464.281 
1464.065 1464.021 1464.002 1463.947 1463.95 1463.759 1463.688 1463.624 1463.217 1463.01 1462.941 1462.808 1462.764 1462.729 1462.769 1462.861 1462.936 1462.973 1463.126 1463.194 1463.274 1463.584 1463.748 1463.888 1463.935 1464.021 1464.035 1464.092 1464.216 1464.213 1464.189 1464.186 1464.186 1464.185 1464.186 1464.518 1464.738 1464.823 1464.681 
1464.164 1464.165 1464.154 1464.126 1464.116 1464.065 1463.965 1463.787 1463.343 1463.163 1462.997 1462.885 1462.877 1462.835 1462.821 1462.953 1462.986 1463.02 1463.16 1463.234 1463.311 1463.579 1463.744 1463.924 1464.098 1464.144 1464.187 1464.189 1464.394 1464.381 1464.208 1464.186 1464.186 1464.181 1464.193 1464.667 1464.958 1465.117 1465.267 
1464.186 1464.186 1464.185 1464.19 1464.242 1464.172 1464.076 1463.89 1463.436 1463.228 1463.041 1462.927 1462.936 1462.941 1462.933 1463.061 1463.076 1463.078 1463.281 1463.355 1463.427 1463.566 1463.769 1464.004 1464.167 1464.226 1464.237 1464.278 1464.554 1464.458 1464.237 1464.18 1464.186 1464.181 1464.193 1464.892 1465.191 1465.408 1465.619 
1464.173 1464.217 1464.216 1464.236 1464.329 1464.16 1464.091 1463.926 1463.511 1463.378 1463.211 1463.024 1463.014 1462.974 1463.017 1463.121 1463.191 1463.184 1463.332 1463.411 1463.483 1463.512 1463.769 1463.999 1464.161 1464.357 1464.499 1464.631 1464.655 1464.614 1464.467 1464.286 1464.234 1464.265 1464.422 1464.892 1465.496 1465.648 1466.003 
1464.632 1464.79 1464.613 1464.576 1464.564 1464.056 1463.86 1463.825 1463.498 1463.398 1463.35 1463.297 1463.19 1463.159 1463.196 1463.205 1463.24 1463.285 1463.372 1463.458 1463.529 1463.574 1463.769 1464.003 1464.129 1464.353 1464.574 1464.719 1464.84 1464.825 1464.784 1464.665 1464.624 1464.734 1464.865 1465.224 1465.496 1465.648 1466.394 
1465.288 1465.321 1465.131 1464.905 1464.589 1463.962 1463.76 1463.71 1463.512 1463.439 1463.446 1463.414 1463.295 1463.346 1463.299 1463.312 1463.344 1463.335 1463.46 1463.509 1463.584 1463.617 1463.791 1463.957 1464.067 1464.219 1464.406 1464.733 1464.908 1464.95 1465.038 1465.078 1465.068 1465.204 1465.271 1465.609 1465.817 1466.018 1466.394 
1465.566 1465.48 1465.284 1464.942 1464.485 1463.962 1463.767 1463.687 1463.567 1463.567 1463.549 1463.411 1463.44 1463.444 1463.357 1463.348 1463.391 1463.439 1463.54 1463.553 1463.64 1463.721 1463.854 1463.889 1464.013 1464.217 1464.345 1464.629 1464.969 1465.055 1465.13 1465.237 1465.411 1465.473 1465.546 1465.935 1466.052 1466.156 1466.375 
1465.603 1465.673 1465.243 1464.837 1464.452 1463.855 1463.691 1463.681 1463.583 1463.587 1463.574 1463.474 1463.487 1463.476 1463.451 1463.481 1463.454 1463.529 1463.605 1463.644 1463.683 1463.765 1463.87 1463.953 1464.018 1464.173 1464.285 1464.494 1464.763 1465.138 1465.242 1465.373 1465.54 1465.619 1465.718 1466.002 1466.202 1466.408 1466.644 
1465.516 1465.455 1465.175 1464.916 1464.384 1463.83 1463.684 1463.678 1463.621 1463.647 1463.577 1463.556 1463.557 1463.545 1463.542 1463.605 1463.567 1463.692 1463.698 1463.799 1463.792 1463.821 1463.855 1463.956 1464.078 1464.144 1464.198 1464.331 1464.63 1465.165 1465.307 1465.38 1465.493 1465.62 1465.779 1466.058 1466.313 1466.42 1466.634 
1465.029 1464.972 1464.787 1464.583 1464.239 1463.876 1463.736 1463.679 1463.667 1463.679 1463.66 1463.667 1463.596 1463.671 1463.729 1463.676 1463.766 1463.911 1463.913 1464.02 1464.012 1464.006 1463.919 1463.949 1464.066 1464.188 1464.181 1464.271 1464.561 1465.158 1465.261 1465.338 1465.458 1465.623 1465.744 1466.058 1466.284 1466.5 1466.752 
1464.209 1464.214 1464.291 1464.21 1464.188 1463.98 1463.838 1463.764 1463.697 1463.711 1463.762 1463.694 1463.693 1463.761 1463.773 1463.829 1463.902 1464.06 1464.124 1464.143 1464.145 1464.156 1464.076 1464.054 1464.128 1464.227 1464.301 1464.434 1464.749 1465.114 1465.149 1465.225 1465.426 1465.547 1465.657 1466.083 1466.311 1466.544 1466.823 
1463.986 1463.988 1464.027 1464.116 1464.188 1464.039 1463.956 1463.872 1463.785 1463.771 1463.778 1463.765 1463.779 1463.862 1463.924 1463.951 1463.981 1464.081 1464.168 1464.331 1464.283 1464.189 1464.161 1464.153 1464.209 1464.276 1464.575 1464.818 1464.969 1465.073 1465.049 1465.135 1465.175 1465.25 1465.406 1465.59 1466.154 1466.518 1466.822 
1463.986 1463.985 1463.986 1463.989 1463.992 1463.939 1463.878 1463.875 1463.872 1463.87 1463.862 1463.857 1464.091 1464.147 1464.144 1464.05 1464.092 1464.157 1464.159 1464.524 1464.567 1464.383 1464.217 1464.328 1464.503 1464.568 1464.965 1465.116 1465.057 1464.998 1464.942 1464.944 1464.787 1464.754 1464.65 1464.78 1465.808 1466.204 1466.739 
1463.986 1463.987 1463.986 1463.986 1463.986 1463.985 1464.013 1464.071 1463.995 1463.974 1463.986 1464.055 1464.18 1464.198 1464.245 1464.196 1464.092 1464.175 1464.284 1464.765 1464.822 1464.826 1464.6 1464.738 1464.926 1465.09 1465.261 1465.18 1465.157 1464.922 1464.774 1464.638 1464.422 1464.3 1464.127 1464.135 1465.303 1466.002 1466.623 
1464.014 1464.09 1464.082 1464.178 1464.094 1464.086 1463.975 1463.998 1464.074 1463.982 1463.996 1464.071 1464.211 1464.35 1464.524 1464.262 1464.217 1464.389 1464.598 1465.051 1465.207 1465.272 1465.29 1465.32 1465.426 1465.595 1465.439 1465.291 1465.201 1464.657 1464.347 1464.296 1464.211 1464.176 1464.186 1464.294 1465.163 1465.908 1466.603 
1464.245 1464.42 1464.386 1464.277 1464.2 1464.194 1463.981 1463.986 1463.987 1464.016 1464.102 1464.176 1464.252 1464.43 1464.562 1464.416 1464.164 1464.248 1464.55 1465.247 1465.494 1465.609 1465.736 1465.791 1465.863 1465.915 1465.699 1465.489 1465.289 1464.455 1464.181 1464.185 1464.185 1464.183 1464.29 1464.633 1465.494 1466.055 1466.76 
1464.474 1465.032 1465.151 1464.838 1464.513 1464.251 1464.05 1463.985 1463.984 1464.027 1464.086 1464.087 1464.471 1464.717 1464.747 1464.526 1464.177 1464.219 1464.462 1465.275 1465.56 1465.824 1466.101 1466.221 1466.274 1466.216 1465.913 1465.664 1465.33 1464.333 1464.186 1464.185 1464.186 1464.302 1464.635 1465.1 1465.999 1466.547 1467.108 
1465.177 1465.749 1465.756 1465.468 1465.129 1464.73 1464.179 1464.176 1464.101 1464.031 1464.013 1464.171 1464.699 1465.011 1464.968 1464.886 1464.25 1464.179 1464.286 1465.275 1465.68 1466.033 1466.255 1466.539 1466.584 1466.501 1466.242 1465.887 1465.376 1464.297 1464.146 1464.19 1464.137 1464.6 1465.056 1465.507 1466.458 1467.002 1467.532 
1465.926 1466.298 1466.482 1466.16 1465.754 1465.358 1464.521 1464.198 1464.18 1464.074 1464.098 1464.185 1464.388 1465.178 1465.269 1465.194 1464.497 1464.13 1464.172 1465.211 1465.822 1466.245 1466.611 1467.025 1467.066 1467.042 1466.717 1466.329 1465.751 1464.449 1464.415 1464.614 1464.526 1465.02 1465.515 1466.025 1467.035 1467.534 1468.068 
1465.926 1467.099 1467.129 1466.794 1466.461 1466.073 1465.179 1464.745 1464.26 1464.126 1464.171 1464.201 1464.554 1465.445 1465.691 1465.691 1465.018 1464.518 1464.162 1465.16 1465.959 1466.53 1466.999 1467.45 1467.579 1467.651 1467.216 1466.91 1466.466 1465.626 1465.431 1465.448 1465.472 1465.912 1466.293 1466.783 1467.718 1468.153 1468.702 
1467.116 1467.099 1467.129 1467.4 1467.076 1466.675 1465.86 1465.353 1464.791 1464.046 1464.084 1464.223 1464.733 1465.876 1466.121 1466.192 1465.576 1465.299 1465.2 1465.795 1466.642 1467.207 1467.601 1468.259 1468.338 1468.265 1468.008 1467.793 1467.532 1467.072 1466.828 1466.682 1466.681 1467.036 1467.359 1467.704 1468.491 1468.883 1469.326 
1468.457 1468.139 1467.928 1467.4 1467.076 1467.307 1466.457 1465.947 1465.307 1464.278 1464.273 1464.577 1465.177 1466.332 1466.656 1466.799 1466.567 1466.583 1466.637 1467.077 1467.614 1468.12 1468.425 1469.006 1469.162 1469.144 1469.065 1468.871 1468.577 1468.599 1468.15 1468.117 1468.031 1468.291 1468.486 1468.723 1469.366 1469.687 1470.014 
1469.785 1469.183 1468.808 1468.069 1467.769 1467.307 1467.05 1466.6 1465.998 1465.132 1465.109 1465.399 1466.039 1466.957 1467.297 1467.519 1467.766 1467.864 1468.091 1468.377 1468.846 1469.162 1469.529 1470.012 1470.155 1470.059 1470.146 1470.033 1469.777 1469.689 1469.373 1469.309 1469.278 1469.427 1469.54 1469.773 1470.247 1470.511 1470.812 
1470.807 1470.271 1469.748 1468.888 1468.418 1468.044 1467.05 1466.6 1467.288 1466.964 1466.776 1466.851 1467.102 1467.809 1468.165 1468.456 1468.794 1469.021 1469.241 1469.521 1470.107 1470.394 1470.684 1471.21 1471.321 1471.366 1471.206 1471.075 1470.909 1470.886 1470.615 1470.545 1470.535 1470.47 1470.548 1470.651 1471.092 1471.32 1471.558 
1471.865 1471.243 1470.6 1469.731 1469.297 1468.968 1468.079 1467.64 1467.288 1466.964 1468.288 1468.307 1468.479 1468.918 1469.21 1469.494 1469.926 1470.298 1470.576 1470.792 1471.354 1471.647 1471.937 1472.236 1472.356 1472.41 1472.378 1472.335 1472.233 1472.086 1471.671 1471.601 1471.528 1471.418 1471.497 1471.566 1471.917 1472.141 1472.369 
1472.724 1472.086 1471.479 1470.682 1470.322 1469.938 1469.286 1468.955 1468.732 1468.43 1468.288 1468.307 1469.766 1470.078 1470.249 1470.543 1471.025 1471.317 1471.612 1471.91 1472.501 1472.773 1472.985 1473.492 1473.597 1473.648 1473.636 1473.534 1473.274 1473.028 1472.69 1472.527 1472.375 1472.325 1472.345 1472.412 1472.473 1472.952 1473.118 
1473.385 1472.792 1472.3 1471.575 1471.364 1471.094 1470.576 1470.331 1470.177 1470.02 1469.75 1469.8 1469.766 1471.197 1471.378 1471.665 1472.103 1472.347 1472.658 1473.032 1473.6 1473.806 1474.017 1474.584 1474.721 1474.694 1474.673 1474.597 1474.406 1474.169 1473.518 1473.349 1473.111 1473.074 1473.084 1473.159 1473.277 1473.718 1473.914 
1473.816 1473.488 1473.134 1472.587 1472.488 1472.35 1472.149 1471.81 1471.638 1471.472 1471.12 1471.087 1471.078 1471.197 1471.378 1472.571 1472.787 1473.366 1473.677 1474.051 1474.57 1474.807 1474.88 1475.626 1475.751 1475.724 1475.706 1475.676 1475.517 1475.058 1474.184 1474.008 1473.92 1473.688 1473.71 1473.8 1474.012 1474.406 1474.76 
1474.239 1474.063 1473.805 1473.684 1473.719 1473.659 1473.635 1473.323 1473.153 1472.954 1472.353 1472.19 1472.131 1472.253 1472.366 1472.571 1472.787 1474.21 1474.505 1474.868 1475.479 1475.764 1475.976 1476.342 1476.544 1476.498 1476.491 1476.509 1476.297 1475.604 1474.992 1474.678 1474.457 1474.317 1474.342 1474.429 1474.57 1475.123 1475.413 
1474.681 1474.588 1474.572 1474.75 1474.866 1474.893 1474.969 1474.81 1474.575 1474.175 1473.455 1473.21 1472.976 1473.068 1473.216 1473.378 1473.602 1474.21 1474.505 1475.73 1476.153 1476.401 1476.53 1476.591 1476.562 1476.489 1476.482 1476.401 1476.324 1475.955 1475.881 1475.663 1475.188 1474.842 1474.813 1474.767 1474.973 1475.716 1476.062 
1475.186 1475.299 1475.506 1475.856 1475.988 1476.019 1476.085 1476.128 1475.797 1475.202 1474.156 1473.964 1473.815 1473.736 1473.844 1474.075 1474.37 1475.251 1475.493 1475.73 1476.484 1476.547 1476.586 1476.587 1476.553 1476.47 1476.397 1476.344 1476.297 1476.389 1476.543 1476.384 1475.905 1475.554 1475.22 1475.171 1475.309 1476.067 1476.41 
1475.807 1476.129 1476.309 1476.594 1476.74 1476.752 1476.796 1476.69 1476.375 1475.799 1474.722 1474.561 1474.433 1474.505 1474.5 1474.635 1474.904 1476.095 1476.519 1476.487 1476.484 1476.547 1476.591 1476.576 1476.433 1476.386 1476.385 1476.384 1476.407 1476.492 1476.621 1476.467 1476.398 1476.265 1475.503 1475.483 1475.63 1476.257 1476.502 
1476.372 1476.616 1476.755 1476.865 1477.092 1477.193 1477.158 1476.905 1476.667 1476.265 1475.284 1475.166 1475.188 1475.261 1475.129 1475.054 1475.218 1476.151 1476.489 1476.502 1476.652 1476.668 1476.591 1476.576 1476.388 1476.397 1476.395 1476.438 1476.551 1476.699 1476.765 1476.681 1476.594 1476.451 1475.862 1475.877 1475.874 1476.398 1476.478 
1476.645 1476.905 1477.049 1477.206 1477.395 1477.491 1477.412 1477.144 1476.935 1476.666 1475.962 1475.817 1475.943 1476.031 1475.915 1475.568 1475.542 1476.07 1476.409 1476.486 1476.587 1476.586 1476.578 1476.502 1476.388 1476.523 1476.545 1476.741 1476.862 1476.917 1476.914 1476.864 1476.681 1476.447 1476.301 1476.101 1476.172 1476.448 1476.47 
1476.915 1477.217 1477.353 1477.509 1477.666 1477.683 1477.652 1477.392 1477.173 1476.936 1476.592 1476.518 1476.522 1476.548 1476.332 1475.966 1475.78 1476.007 1476.422 1476.489 1476.574 1476.594 1476.602 1476.542 1476.526 1476.523 1476.545 1477.136 1477.121 1477.098 1476.987 1476.942 1476.796 1476.721 1476.56 1476.499 1476.495 1476.607 1476.544 
1477.301 1477.523 1477.718 1477.828 1477.96 1477.943 1477.901 1477.65 1477.496 1477.341 1477.079 1477.006 1476.894 1476.72 1476.33 1476.073 1475.944 1476.092 1476.452 1476.486 1476.556 1476.642 1476.685 1476.691 1476.724 1476.779 1476.93 1477.136 1477.121 1477.104 1477.019 1476.977 1476.895 1476.802 1476.625 1476.575 1476.583 1476.535 1476.485 
1477.809 1477.949 1478.133 1478.218 1478.268 1478.244 1478.155 1478.033 1477.874 1477.755 1477.491 1477.327 1477.016 1476.617 1476.289 1476.107 1476.03 1476.35 1476.51 1476.526 1476.576 1476.666 1476.661 1476.7 1476.913 1477.046 1477.097 1477.149 1477.183 1477.104 1477.019 1477.063 1476.953 1476.705 1476.379 1476.396 1476.464 1476.48 1476.486 
1478.366 1478.5 1478.535 1478.564 1478.557 1478.563 1478.536 1478.311 1478.171 1478.06 1477.866 1477.427 1477.036 1476.555 1476.293 1476.128 1476.129 1476.463 1476.509 1476.559 1476.559 1476.55 1476.594 1476.73 1477.08 1477.117 1477.11 1477.188 1477.185 1477.171 1477.111 1477.063 1476.818 1476.518 1476.385 1476.386 1476.386 1476.433 1476.487 
1478.972 1479.031 1479.014 1478.945 1478.966 1478.853 1478.802 1478.57 1478.402 1478.23 1478.057 1477.484 1477.075 1476.653 1476.264 1476.118 1476.181 1476.404 1476.452 1476.44 1476.439 1476.457 1476.526 1476.652 1477.191 1477.224 1477.22 1477.202 1477.164 1477.101 1477.088 1476.967 1476.818 1476.518 1476.385 1476.386 1476.386 1476.431 1476.48 
1479.457 1479.525 1479.453 1479.425 1479.32 1479.215 1479.137 1478.868 1478.705 1478.517 1478.269 1477.636 1477.228 1476.792 1476.323 1476.202 1476.169 1476.304 1476.341 1476.378 1476.386 1476.385 1476.386 1476.552 1477.309 1477.326 1477.324 1477.254 1477.184 1477.184 1477.126 1476.989 1476.74 1476.515 1476.385 1476.386 1476.386 1476.386 1476.411 
1479.95 1479.964 1479.944 1479.946 1479.788 1479.688 1479.548 1479.246 1479.049 1478.781 1478.519 1477.803 1477.41 1477.038 1476.512 1476.383 1476.306 1476.288 1476.332 1476.441 1476.485 1476.423 1476.445 1476.618 1477.414 1477.433 1477.431 1477.386 1477.183 1477.186 1477.188 1476.877 1476.699 1476.489 1476.385 1476.386 1476.386 1476.386 1476.412 
1480.556 1480.457 1480.441 1480.373 1480.261 1480.21 1480.032 1479.642 1479.446 1479.184 1478.959 1478.198 1477.858 1477.493 1477.003 1476.874 1476.792 1476.695 1476.678 1476.913 1476.967 1476.838 1476.906 1477.098 1477.521 1477.519 1477.453 1477.349 1477.198 1477.16 1477.142 1476.737 1476.529 1476.396 1476.386 1476.386 1476.386 1476.386 1476.412 
1481 1481.01 1481.055 1480.962 1480.71 1480.65 1480.537 1480.3 1479.931 1479.681 1479.391 1478.855 1478.482 1478.193 1477.597 1477.477 1477.409 1477.374 1477.388 1477.608 1477.567 1477.469 1477.54 1477.521 1477.689 1477.586 1477.427 1477.373 1477.201 1477.041 1476.955 1476.685 1476.548 1476.404 1476.386 1476.386 1476.386 1476.386 1476.386 
1481.498 1481.558 1481.494 1481.473 1481.203 1481.132 1481.041 1480.871 1480.517 1480.25 1479.927 1479.496 1479.248 1478.947 1478.425 1478.271 1478.144 1478.082 1478.168 1478.152 1478.061 1478.006 1477.997 1477.96 1477.748 1477.64 1477.453 1477.269 1477.023 1476.91 1476.862 1476.602 1476.519 1476.4 1476.386 1476.386 1476.386 1476.386 1476.386 
1482.106 1482.104 1482.096 1482.081 1481.798 1481.73 1481.637 1481.482 1481.148 1480.961 1480.698 1480.127 1479.929 1479.716 1479.249 1479.141 1478.98 1478.891 1478.746 1478.669 1478.647 1478.428 1478.328 1478.149 1477.751 1477.592 1477.266 1476.889 1476.642 1476.657 1476.667 1476.541 1476.457 1476.392 1476.385 1476.386 1476.386 1476.386 1476.386 
1482.547 1482.631 1482.617 1482.606 1482.474 1482.336 1482.25 1482.079 1481.819 1481.59 1481.414 1480.904 1480.688 1480.531 1480.053 1479.88 1479.726 1479.598 1479.245 1479.17 1479.032 1478.631 1478.494 1478.301 1478.116 1477.573 1477.062 1476.497 1476.374 1476.42 1476.422 1476.483 1476.421 1476.389 1476.385 1476.386 1476.386 1476.386 1476.386 
1483.047 1483.14 1483.146 1483.21 1483.215 1483.017 1482.869 1482.844 1482.547 1482.374 1482.209 1481.764 1481.583 1481.365 1481.131 1480.583 1480.438 1480.225 1479.745 1479.611 1479.306 1478.761 1478.65 1478.45 1478.257 1477.644 1477.058 1476.488 1476.386 1476.386 1476.386 1476.437 1476.486 1476.395 1476.385 1476.386 1476.386 1476.386 1476.386 
1483.566 1483.7 1483.769 1483.831 1483.831 1483.693 1483.662 1483.585 1483.362 1483.187 1483.023 1482.653 1482.388 1482.087 1481.849 1481.337 1481.07 1480.852 1480.114 1479.769 1479.523 1478.959 1478.787 1478.548 1478.318 1477.741 1477.103 1476.493 1476.401 1476.437 1476.468 1476.613 1476.601 1476.401 1476.384 1476.386 1476.386 1476.386 1476.386 
1484.076 1484.267 1484.394 1484.46 1484.532 1484.444 1484.497 1484.409 1484.216 1484.102 1483.926 1483.514 1483.291 1482.963 1482.654 1482.074 1481.746 1481.333 1480.547 1480.15 1479.815 1479.097 1478.802 1478.589 1478.308 1477.689 1477.008 1476.467 1476.427 1476.555 1476.681 1476.651 1476.542 1476.435 1476.391 1476.386 1476.386 1476.386 1476.386 
1484.5 1484.849 1484.938 1485.07 1485.068 1485.147 1485.125 1485.111 1485.151 1485.056 1484.946 1484.419 1484.213 1483.88 1483.568 1482.719 1482.281 1481.824 1480.85 1480.416 1479.975 1479.18 1478.833 1478.452 1478.203 1477.6 1477.085 1476.458 1476.562 1476.858 1476.912 1476.812 1476.502 1476.438 1476.393 1476.386 1476.386 1476.386 1476.386 
1485.106 1485.411 1485.564 1485.699 1485.771 1485.939 1486.055 1486.039 1485.976 1485.88 1485.785 1485.383 1485.15 1484.898 1484.53 1483.383 1482.853 1482.27 1481.099 1480.593 1480.082 1479.57 1478.658 1478.272 1477.922 1477.429 1477.258 1477.029 1477.061 1477.051 1476.959 1476.709 1476.399 1476.385 1476.386 1476.389 1476.34 1476.333 1476.294 
1485.528 1485.757 1486.074 1486.237 1486.46 1486.62 1486.712 1486.849 1486.787 1486.813 1486.719 1486.7 1486.189 1485.714 1485.261 1484.043 1483.335 1482.591 1481.328 1480.663 1480.022 1479.397 1478.113 1477.628 1477.337 1477.149 1477.228 1477.338 1477.329 1477.029 1476.644 1476.442 1476.384 1476.396 1476.439 1476.559 1476.974 1477.196 1477.1 
1485.935 1486.158 1486.63 1486.845 1486.993 1487.337 1487.512 1487.497 1487.464 1487.482 1487.547 1487.551 1487.189 1486.804 1486.217 1484.55 1483.837 1482.995 1481.484 1480.695 1479.821 1478.856 1476.63 1476.576 1476.543 1476.522 1476.633 1476.973 1477.385 1476.961 1476.417 1476.362 1476.386 1476.373 1476.373 1477.475 1478.435 1478.933 1479.276 
1486.254 1486.484 1487.038 1487.265 1487.487 1487.845 1488.042 1488.106 1488.141 1488.189 1488.174 1488.162 1488.252 1487.9 1486.852 1484.875 1484.043 1483.201 1481.644 1480.681 1479.482 1478.3 1476.258 1476.372 1476.387 1476.379 1476.453 1476.874 1477.579 1477.048 1476.415 1476.381 1476.387 1476.339 1476.529 1479.123 1480.434 1481.463 1482.132 
1486.658 1486.968 1487.367 1487.651 1487.804 1488.253 1488.459 1488.605 1488.703 1488.691 1488.689 1488.685 1488.669 1488.217 1486.985 1485.197 1484.334 1483.479 1481.833 1480.674 1479.231 1477.716 1476.306 1476.348 1476.345 1476.309 1476.586 1477.414 1477.894 1477.593 1476.677 1476.345 1476.348 1476.852 1477.934 1481.417 1483.398 1485.089 1486.156 
1486.658 1487.17 1487.644 1487.861 1488.103 1488.514 1488.652 1488.779 1488.62 1488.571 1488.573 1488.577 1488.282 1487.455 1486.685 1485.114 1484.417 1483.854 1483.034 1481.096 1479.772 1478.075 1477.488 1477.518 1477.008 1476.63 1477.36 1478.271 1478.851 1478.539 1477.733 1477.416 1478.049 1478.939 1480.357 1484.195 1486.436 1488.135 1488.957 
1486.868 1487.17 1487.937 1488.111 1488.412 1488.691 1488.688 1488.67 1488.6 1488.412 1488.255 1488.102 1487.336 1486.889 1486.43 1485.253 1484.687 1484.064 1483.44 1481.836 1480.942 1480.135 1479.22 1478.854 1478.351 1478.464 1478.765 1479.723 1480.144 1480.047 1479.861 1480.071 1481.404 1482.616 1483.838 1486.86 1488.578 1489.753 1490.404 
1487.212 1487.513 1487.937 1488.111 1488.694 1488.676 1488.653 1488.568 1488.494 1488.209 1488.037 1487.805 1487.068 1486.69 1486.313 1485.505 1485.034 1484.554 1484.006 1482.965 1482.397 1481.962 1481.408 1481.228 1481.148 1481.389 1481.681 1481.914 1482.08 1481.914 1482.025 1482.458 1484.918 1486.262 1487.496 1488.817 1489.717 1490.711 1491.15 
1487.614 1487.941 1488.373 1488.53 1488.694 1488.676 1488.548 1488.488 1488.42 1488.194 1487.846 1487.526 1486.912 1486.607 1486.308 1485.81 1485.461 1485.077 1484.752 1484.265 1484.085 1483.892 1483.604 1483.667 1483.768 1484.201 1484.793 1485.353 1484.632 1483.782 1483.784 1484.251 1486.511 1488.026 1489.035 1489.8 1490.893 1491.393 1491.807 
1487.982 1488.332 1488.775 1488.82 1488.68 1488.558 1488.548 1488.488 1488.645 1488.495 1488.081 1487.668 1486.951 1486.707 1486.418 1485.988 1485.767 1485.697 1485.542 1485.595 1485.563 1485.541 1485.675 1485.98 1486.357 1486.202 1487.493 1487.994 1487.304 1485.284 1485.163 1485.442 1487.039 1488.243 1489.293 1490.318 1491.726 1492.322 1492.688 
1488.414 1488.607 1488.972 1488.83 1488.59 1488.486 1488.526 1488.62 1488.645 1488.751 1488.438 1487.905 1487.012 1486.756 1486.615 1486.379 1486.242 1486.355 1486.595 1486.892 1486.892 1486.798 1487.325 1487.76 1487.989 1487.807 1488.708 1488.883 1488.28 1486.229 1486.153 1486.248 1487.079 1488.094 1489.238 1490.582 1492.384 1493.167 1493.824 
1488.562 1488.756 1489.099 1488.89 1488.633 1488.504 1488.714 1488.924 1488.968 1488.751 1488.438 1488.189 1487.356 1486.984 1486.898 1486.682 1486.747 1486.892 1487.362 1488.326 1488.198 1487.935 1488.141 1488.718 1488.966 1489.029 1489.337 1489.304 1488.692 1486.915 1486.719 1486.81 1487.763 1488.386 1489.269 1490.574 1493.061 1494.028 1494.832 
1488.755 1489.071 1489.302 1489.193 1488.934 1488.777 1489.126 1489.423 1489.3 1488.893 1488.551 1488.189 1487.356 1487.226 1487.011 1486.939 1487.107 1487.451 1488.14 1488.853 1488.97 1488.543 1488.648 1489.285 1489.711 1489.956 1489.731 1489.493 1488.871 1487.352 1486.734 1487.099 1488.624 1489.272 1490.081 1491.227 1493.559 1494.629 1495.665 
1489.116 1489.385 1489.581 1489.504 1489.473 1489.474 1489.554 1489.433 1489.407 1489.107 1488.789 1488.49 1487.78 1487.226 1487.011 1487.252 1487.501 1487.831 1488.428 1489.215 1489.321 1488.766 1488.981 1489.605 1490.028 1490.267 1490.14 1489.703 1489.235 1487.929 1487.44 1487.892 1488.621 1490.371 1491.206 1492.26 1494.494 1495.483 1496.411 
1489.527 1489.74 1489.94 1489.942 1489.925 1489.928 1489.72 1489.599 1489.417 1489.306 1489.046 1488.776 1488.037 1487.504 1487.277 1487.252 1487.639 1487.997 1488.523 1489.526 1489.689 1489.399 1489.282 1490.001 1490.561 1490.8 1490.584 1490.2 1489.646 1488.451 1488.285 1488.74 1489.625 1491.311 1492.452 1493.512 1495.659 1496.496 1497.406 
1489.992 1490.16 1490.201 1490.329 1490.18 1490.146 1489.855 1489.654 1489.429 1489.227 1489.02 1488.858 1488.593 1487.787 1487.75 1487.652 1487.639 1487.997 1488.593 1489.827 1490.105 1490.224 1490.461 1491.004 1491.193 1491.331 1491.085 1490.746 1490.344 1489.187 1489.227 1489.945 1490.608 1492.824 1493.807 1494.86 1496.852 1497.732 1498.57 
1490.415 1490.571 1490.567 1490.572 1490.366 1490.285 1489.877 1489.588 1489.254 1489.026 1488.884 1488.643 1488.397 1487.983 1487.9 1487.782 1487.997 1488.154 1488.593 1489.827 1490.607 1490.932 1491.329 1491.822 1492.015 1492.079 1491.693 1491.519 1491.273 1491.001 1491.223 1491.644 1492.427 1494.483 1495.462 1496.443 1497.9 1498.702 1499.542 
1490.755 1490.987 1491.052 1490.784 1490.605 1490.462 1489.814 1489.396 1488.924 1488.901 1488.837 1488.558 1488.256 1488.062 1488.077 1488.199 1488.492 1488.807 1489.115 1490.146 1490.607 1491.599 1492.045 1492.628 1492.745 1492.81 1492.915 1492.764 1492.536 1492.615 1492.947 1493.503 1494.228 1496.395 1497.287 1497.951 1499.003 1499.615 1500.393 
1491.248 1491.338 1491.388 1491.133 1490.888 1490.656 1489.652 1489.08 1488.9 1489.02 1489.04 1488.69 1488.442 1488.227 1488.406 1488.716 1489.22 1489.47 1489.895 1490.761 1491.185 1491.599 1492.045 1493.538 1493.719 1493.79 1493.999 1493.97 1493.981 1494.101 1494.56 1495.065 1495.869 1498.228 1499.577 1500.059 1500.306 1500.607 1501.254 
1491.728 1491.743 1491.736 1491.561 1491.338 1491.031 1489.486 1488.865 1488.873 1489.318 1489.542 1489.261 1489.03 1488.859 1488.967 1489.37 1490.069 1490.335 1490.86 1491.227 1492.05 1492.55 1492.937 1493.538 1493.719 1495.039 1495.348 1495.347 1495.419 1495.451 1495.891 1496.374 1497.022 1499.169 1500.561 1500.986 1501.073 1501.123 1501.423 
1492.224 1492.338 1492.331 1492.116 1491.951 1491.492 1489.82 1489.087 1489.232 1489.629 1490.267 1490.217 1490.114 1490.027 1490.229 1490.432 1491.174 1491.508 1491.906 1492.216 1493.134 1493.516 1493.968 1494.682 1494.879 1495.039 1495.348 1496.735 1496.842 1496.743 1496.95 1497.25 1497.668 1498.848 1499.696 1500.664 1500.765 1500.777 1500.774 
1492.715 1492.822 1492.924 1492.698 1492.481 1492.13 1491.054 1490.625 1490.784 1491.051 1491.45 1491.536 1491.56 1491.581 1491.8 1492.018 1492.507 1492.768 1493.011 1493.362 1494.082 1494.535 1495.006 1495.785 1496.094 1496.307 1496.647 1496.735 1498.148 1498.066 1497.843 1497.908 1498.103 1498.744 1499.089 1499.595 1500.177 1500.294 1500.397 
1493.354 1493.422 1493.519 1493.422 1493.235 1493.034 1492.726 1492.683 1492.696 1492.712 1493.084 1493.234 1493.323 1493.574 1493.71 1493.862 1494.041 1494.142 1494.262 1494.492 1495.092 1495.491 1495.997 1497.071 1497.553 1497.816 1498.087 1498.135 1498.148 1498.066 1498.51 1498.385 1498.441 1498.837 1499.061 1499.337 1499.574 1500.139 1500.293 
1494.082 1494.149 1494.273 1494.272 1494.28 1494.253 1494.232 1494.295 1494.329 1494.469 1494.969 1495.235 1495.412 1495.86 1495.937 1495.901 1495.558 1495.425 1495.454 1495.547 1496.098 1496.497 1496.99 1498.231 1498.807 1499.345 1499.42 1499.405 1499.294 1499.181 1498.51 1498.385 1498.843 1499.017 1499.005 1499.077 1499.38 1499.93 1500.21 
1494.82 1494.932 1495.01 1495.223 1495.344 1495.46 1495.539 1495.74 1495.811 1495.984 1496.719 1497.198 1497.828 1498.37 1498.498 1498.335 1497.557 1496.61 1496.494 1496.547 1496.982 1497.456 1498.08 1499.216 1499.799 1500.359 1500.652 1500.507 1500.425 1500.165 1499.04 1498.865 1498.843 1499.116 1499.183 1499.146 1499.495 1500.351 1500.458 
1495.614 1495.779 1495.962 1496.205 1496.411 1496.596 1496.842 1497.041 1497.106 1497.192 1498.089 1498.681 1499.491 1500.423 1500.433 1499.991 1498.765 1497.558 1497.369 1497.433 1497.815 1498.285 1498.845 1500.156 1500.6 1500.879 1501.112 1500.98 1500.929 1500.677 1499.465 1499.211 1499.042 1499.116 1499.183 1499.476 1499.846 1500.855 1501.147 
1496.488 1496.598 1496.776 1497.037 1497.274 1497.676 1498.035 1498.319 1498.314 1498.327 1498.893 1499.404 1500.144 1501.021 1500.876 1500.302 1499.21 1498.203 1498.093 1498.126 1498.63 1499.146 1499.564 1500.618 1500.986 1500.972 1501.033 1501.037 1500.887 1500.828 1499.885 1499.593 1499.298 1499.305 1499.356 1499.476 1499.846 1501.371 1501.955 
1497.451 1497.396 1497.43 1497.676 1498.022 1498.495 1498.988 1499.737 1499.655 1499.574 1499.447 1499.8 1500.472 1500.921 1500.718 1500.202 1499.442 1498.61 1498.567 1498.565 1499.233 1499.875 1500.49 1500.823 1500.96 1501.093 1500.999 1501.042 1500.901 1500.819 1500.684 1500.32 1499.748 1499.643 1499.631 1499.78 1500.227 1501.371 1501.955 
1498.194 1498.113 1497.979 1498.309 1498.68 1499.161 1499.7 1500.592 1500.706 1500.661 1499.937 1499.973 1500.605 1500.897 1500.561 1499.901 1499.576 1499.138 1499.11 1499.075 1499.438 1499.962 1500.721 1500.895 1500.896 1501.037 1501.031 1501.057 1500.982 1500.961 1500.989 1500.667 1500.097 1499.879 1499.757 1499.961 1500.413 1501.584 1502.234 
1498.836 1498.553 1498.484 1498.607 1499.201 1499.613 1500.091 1500.838 1500.991 1501.057 1500.347 1500.162 1500.712 1500.99 1500.581 1500.141 1500.074 1500.001 1499.964 1499.783 1499.634 1499.907 1500.322 1500.583 1500.859 1501.04 1501.088 1501.056 1501.038 1501.098 1500.908 1500.657 1500.211 1500.023 1499.925 1500.065 1500.499 1501.688 1502.473 
