NCOLS 89
NROWS 110
XLLCORNER 677881.89
YLLCORNER 4377654.9
CELLSIZE 10
NODATA_VALUE -9999
1169.453 1165.751 1162.384 1155.564 1141.961 1138.255 1134.069 1118.755 1111.004 1105.443 1100.988 1085.703 1081.106 1077.118 1072.237 1062.154 1059.886 1057.698 1055.431 1050.488 1047.141 1044.471 1042.14 1037.33 1033.948 1030.383 1026.751 1019.046 1014.897 1009.86 1004.184 997.9268 997.6918 999.3761 1001.955 1007.177 1009.453 1011.281 1013.01 1015.122 1015.368 1015.497 1015.139 1012.657 1009.93 1006.521 999.324 996.4888 993.4912 989.9564 980.0305 975.3593 968.3416 964.1829 961.1503 961.9794 963.3588 964.7715 970.2363 973.2693 976.1558 979.2876 986.3753 989.7047 992.7242 995.4959 999.1437 1000.401 1001.605 1002.188 1001.643 1001.067 1000.407 999.5416 998.1635 997.4066 996.5232 995.6063 993.843 992.9986 992.0258 991.2667 991.0154 991.405 991.9774 992.4808 993.2358 993.4804 993.3486 
1167.614 1164.188 1159.987 1152.545 1139.971 1136.352 1131.435 1125.501 1108.26 1103.821 1099.411 1084.855 1079.382 1074.784 1068.848 1056.921 1052.787 1049.652 1047.017 1043.298 1041.637 1039.984 1037.43 1031.378 1028.127 1025.206 1022.008 1014.664 1010.727 1005.523 999.5818 992.5084 992.1059 992.9954 994.8903 1000.493 1003.147 1005.149 1006.726 1008.298 1008.526 1008.569 1008.239 1005.683 1003.317 1000.793 998.2296 993.1619 990.6298 987.1804 977.6053 972.9078 968.3416 960.6866 955.0423 955.9064 957.9346 959.9243 965.0914 968.0757 970.8837 973.6284 979.7691 983.5143 987.1353 989.8795 993.517 994.7417 995.8887 996.4978 996.2552 995.7356 995.1291 994.5916 993.2097 992.3494 991.4067 990.3825 988.0793 986.892 985.6338 984.8193 984.83 985.5226 986.3146 987.1037 988.3647 988.6257 988.4669 
1165.706 1162.31 1155.184 1147.37 1137.961 1133.701 1128.222 1121.462 1108.26 1102.101 1097.121 1090.676 1077.712 1072.341 1066.737 1052.386 1047.399 1042.333 1039.701 1036.489 1034.103 1031.546 1029.083 1024.33 1021.915 1019.658 1017.073 1010.099 1006.12 1001.414 995.9847 986.2618 984.4231 984.447 985.3072 991.6516 995.5798 998.1381 999.913 1001.822 1002.055 1001.544 1000.678 999.3624 998.0491 996.3449 994.369 990.0527 987.1168 983.407 979.144 969.7706 965.4933 960.6866 950.8711 950.9734 953.1828 955.4819 960.4495 963.2773 966.1414 968.8246 973.9537 976.834 980.2174 983.3122 987.4473 988.4965 989.2891 990.0029 990.6531 990.3098 989.9395 989.6025 988.4447 987.3101 986.1005 984.713 981.5817 980.4193 979.6667 979.2883 979.429 979.982 980.6574 981.3754 983.1342 983.824 984.1751 
1163.396 1159.456 1151.269 1143.91 1135.598 1131.01 1125.494 1118.338 1106.248 1102.101 1097.121 1088.84 1076.257 1070.761 1065.297 1058.226 1044.001 1038.252 1034.304 1027.489 1025.019 1022.727 1020.842 1017.615 1015.971 1014.191 1011.743 1005.452 1002.136 997.5412 992.4337 981.6489 977.1863 975.7016 976.4374 982.2865 985.1421 988.0984 991.0466 995.0052 995.8572 996.0488 995.7744 994.514 993.4921 992.1034 990.5646 986.6371 983.2896 979.4843 975.33 966.4531 960.9534 954.9437 950.8711 945.3672 947.4797 950.5039 953.3848 958.5768 961.4862 964.4698 969.1901 971.4484 974.0323 976.891 980.9288 982.3273 983.3787 984.1505 984.9629 984.7756 984.4963 984.076 982.5656 981.2131 979.7289 978.207 974.9001 974.2684 974.0002 973.8141 973.8337 974.4362 974.9357 975.4708 977.515 978.5833 979.4557 
1160.463 1154.802 1148.037 1142.218 1133.491 1128.677 1123.319 1116.349 1105.106 1100.015 1094.738 1088.84 1076.247 1070.187 1064.286 1056.941 1042.944 1037.279 1031.888 1026.992 1020.233 1017.267 1014.638 1011.395 1009.749 1006.96 1004.353 999.8983 996.9602 992.652 988.1971 978.689 974.197 972.2863 972.1983 976.0387 979.0176 981.6919 983.924 987.9688 989.6217 990.4574 990.7994 990.2618 989.4103 988.1618 986.3375 981.5032 978.8124 975.5955 971.1837 961.2949 954.3746 949.5161 946.901 945.3672 939.8067 943.0327 947.2709 953.7023 956.5139 959.4367 962.1453 966.5954 968.5266 970.6741 974.5705 976.2957 977.8463 978.5332 978.9903 979.0428 978.7612 978.0999 976.3171 975.1467 973.9106 972.6739 970.277 969.2513 968.5509 968.1773 967.9484 968.3082 969.0036 969.8796 972.3289 973.7622 975.1122 
1158.127 1152.214 1146.825 1141.524 1132.288 1127.817 1122.556 1116.252 1104.902 1099.408 1094.435 1089.431 1076.247 1070.916 1064.58 1057.456 1044.002 1038.276 1032.124 1026.645 1018.464 1014.365 1011.27 1008.855 1003.963 1000.469 997.549 995.1948 990.7542 987.7708 984.2424 976.4279 971.0598 969.0822 968.8237 970.9441 973.6434 976.611 979.0749 982.6991 984.0896 984.9354 985.4731 984.9961 983.7936 982.3217 980.4626 976.0315 973.4096 969.4148 964.9326 954.412 949.7768 946.1592 942.7725 939.5057 939.8067 943.0327 940.942 948.1128 951.1526 953.967 956.6331 961.2159 962.9464 964.6846 966.4455 969.9429 971.1729 971.8611 972.5134 972.7388 972.5875 972.0839 971.0077 970.3382 969.3553 968.1683 965.6417 964.1953 963.0558 962.3438 961.5616 961.7645 962.6017 963.5699 966.1757 967.7568 969.3429 
1156.327 1151.111 1146.369 1141.906 1133.42 1128.837 1124.575 1118.134 1105.898 1101.23 1096.358 1091.307 1077.557 1070.916 1066.581 1059.58 1045.647 1039.692 1033.708 1028.123 1018.615 1014.164 1010.802 1007.404 1000.147 996.7902 992.5591 989.0231 985.4418 983.4153 980.8154 977.8523 967.7339 964.1733 963.3267 964.4365 966.6221 969.5051 972.4955 977.0622 978.0046 978.3835 978.4623 977.4094 976.3931 975.5243 974.3308 969.9494 966.4473 962.741 958.6743 949.7889 945.9248 942.5916 939.5219 935.5314 935.6978 937.6414 940.942 942.6294 945.8251 948.6995 951.4844 956.042 957.6722 959.1793 960.6841 963.6343 964.3107 964.753 965.171 965.86 966.1038 966.3036 966.39 965.901 965.0161 963.6863 960.6221 958.9391 957.4881 956.1465 953.7462 953.4613 954.4261 956.0027 959.3525 961.1046 962.6385 
1155.813 1150.968 1146.834 1142.951 1134.6 1130.562 1126.849 1120.514 1107.147 1102.935 1098.639 1093.562 1080.347 1073.112 1066.581 1059.58 1047.327 1041.729 1036.167 1030.311 1019.876 1015.149 1011.298 1007.304 999.0352 994.5179 989.7479 986.3354 981.3776 978.974 976.7094 973.6174 964.1885 959.4578 956.8378 956.1927 958.9536 960.7099 963.0179 968.8674 970.3573 970.7925 971.0343 970.7595 970.0165 969.1522 968.1849 963.9643 960.7805 957.0895 953.2296 945.7702 942.358 939.0142 935.589 930.7678 930.175 931.416 934.7466 942.6294 940.7258 943.5799 946.2021 951.0397 952.8096 954.237 955.5194 957.2462 957.7217 958.0756 958.4774 959.2609 959.6088 959.9742 960.2469 959.7579 958.9898 958.0239 956.6591 953.251 951.4648 949.6056 946.0324 945.5753 946.4907 948.1522 951.4892 953.2467 955.0254 
1156.353 1152.5 1149.069 1145.105 1135.937 1131.839 1128.108 1123.126 1108.689 1104.683 1100.845 1095.926 1083.21 1075.642 1068.943 1062.11 1047.327 1044.052 1038.95 1033.09 1022.132 1017.069 1012.62 1008.302 999.9927 995.0095 990.2543 986.6122 978.0603 975.1025 972.1537 968.3964 959.2977 954.58 950.7761 949.1069 951.9215 954.3245 956.378 958.1066 961.3593 962.132 962.8345 963.7369 963.3079 963.014 962.35 958.5247 955.4272 951.9391 948.3919 941.9396 938.5431 934.7913 930.8812 925.5469 924.6373 925.3278 928.4756 937.0473 940.7258 937.8526 940.6414 945.1011 946.9716 948.687 950.1361 951.3098 951.5625 951.8068 952.0683 952.6755 952.9101 952.828 952.5897 951.9076 951.3914 950.9111 949.8508 946.4447 944.4893 942.5072 940.5486 938.2389 939.1636 941.0615 944.9335 946.5607 948.0156 
1161.984 1153.883 1150.839 1147.433 1142.854 1132.875 1128.74 1124.415 1110.478 1106.346 1102.642 1098.233 1085.647 1078.356 1071.497 1064.908 1049.485 1044.052 1041.369 1035.888 1025.277 1019.964 1014.585 1010.036 1001.818 996.9979 992.2173 987.8254 977.8509 974.0405 969.4763 964.6835 954.0469 950.0244 946.5301 944.1161 944.2062 946.4116 949.1946 952.0759 955.9855 956.9766 957.6727 958.1721 958.1186 957.4905 956.3754 952.8608 950.123 946.9045 943.4714 937.5428 934.0854 930.3071 926.6765 919.5397 916.6456 917.6139 921.507 930.9731 934.7449 937.8526 940.6414 939.0698 940.8677 942.5982 944.1353 945.6082 945.6442 945.6432 945.3441 944.4339 944.6756 944.7834 944.7582 943.921 943.3198 942.5272 941.4814 938.9388 937.4343 935.8799 934.347 932.571 932.8673 934.1496 936.1786 940.5917 942.4327 
1163.365 1154.82 1152.095 1149.498 1145.138 1133.929 1129.234 1124.551 1118.782 1107.871 1104.019 1100.46 1088.083 1081.099 1074.1 1067.329 1052.824 1046.776 1041.369 1038.556 1028.44 1023.507 1017.86 1012.698 1003.888 999.1871 994.3912 989.6443 980.0862 975.6107 969.8893 963.9418 951.4491 947.4875 943.3327 939.5621 937.0786 937.5325 939.6447 942.9638 948.4897 950.595 952.0994 953.0463 953.0178 952.0687 950.9272 949.4983 944.8024 941.7195 938.6638 935.7036 929.4209 925.9852 922.3894 914.8143 912.465 912.3135 913.3745 923.6926 928.4565 931.6849 934.4365 939.0698 934.644 936.5676 938.5349 940.3838 940.0452 939.6801 938.9608 936.9551 936.7581 936.681 936.7322 936.2715 935.7159 935.0847 934.4627 932.7303 931.4012 930.0598 928.5997 926.025 925.2915 925.7513 927.6074 933.5333 936.4146 
1164.442 1155.607 1152.789 1149.955 1145.9 1134.897 1129.505 1124.524 1119.213 1109.045 1104.916 1101.023 1096.191 1083.464 1076.597 1069.715 1056.041 1049.651 1043.99 1038.556 1031.319 1026.829 1021.488 1015.984 1006.19 1001.32 996.4353 991.644 982.4339 977.9806 971.9116 965.1392 952.1386 947.0144 941.6651 936.9378 931.7946 930.489 930.8134 932.5516 937.4684 940.7371 943.4678 945.1709 945.9882 945.4636 944.7004 943.7903 939.8737 936.945 934.0451 931.306 925.3176 921.7983 918.1874 914.5516 908.776 907.8649 908.6319 914.8412 920.0236 924.5591 927.9936 932.7734 934.644 929.9398 931.6678 933.8133 933.857 933.4682 932.6513 930.4445 929.6614 928.8599 928.6744 929.247 929.3341 929.5128 929.4274 927.3077 925.8364 924.4968 923.0319 918.8391 916.9604 917.0018 918.6646 925.1494 928.4562 
1164.603 1156.228 1152.932 1150.018 1146.029 1134.613 1129.034 1123.995 1118.917 1109.289 1105.418 1101.667 1096.937 1084.701 1078.546 1072.181 1065.455 1052.471 1046.758 1041.089 1031.319 1026.829 1024.726 1019.4 1008.953 1003.702 998.6476 993.7254 984.5179 980.1333 974.4238 967.3791 953.6638 947.536 941.3483 935.8491 927.6693 925.778 925.3198 926.3949 930.4687 932.3231 934.0659 935.3033 936.9047 937.4497 938.0244 938.0544 934.7874 931.9055 929.2572 926.8553 921.2319 917.9243 914.173 910.0253 903.184 902.6266 903.754 905.8311 912.8723 917.2713 921.2718 926.4891 928.1971 929.9398 925.6278 928.3862 928.3953 927.7394 926.7081 924.2661 923.0749 922.0266 921.8104 922.7189 923.1115 923.5146 923.5411 921.9215 920.777 919.3178 917.8365 912.9232 910.7056 910.397 911.4177 917.249 920.7438 
1164.287 1156.783 1152.665 1149.137 1144.765 1133.384 1127.848 1122.814 1118.16 1109.573 1105.606 1101.859 1097.323 1085.634 1080.111 1074.547 1067.776 1054.961 1049.653 1043.887 1038.32 1029.366 1024.726 1022.288 1017.29 1006.373 1000.886 995.8346 986.4158 981.9112 976.9051 969.8607 955.5227 949.0693 942.6666 937.0113 926.8249 924.3696 923.3843 922.0108 923.0947 925.2426 927.3676 929.2615 931.2621 931.4107 931.5139 931.2849 928.3629 926.381 924.4952 922.3676 917.222 913.4456 908.5972 903.9705 898.3144 897.394 898.13 899.9498 906.3889 910.9466 915.4447 918.7159 922.5601 924.1379 925.6278 922.4617 922.6898 922.3096 921.3502 917.9 916.7487 915.5215 915.3531 916.7109 917.3455 917.657 917.63 916.8417 915.6558 913.788 911.902 906.8741 905.3225 905.5807 907.0413 911.251 913.9927 
1163.692 1156.626 1151.71 1147.594 1142.617 1131.439 1126.277 1121.719 1117.551 1109.907 1105.445 1101 1096.596 1086.085 1081.251 1076.865 1069.902 1056.754 1052.069 1046.692 1040.879 1031.444 1027.156 1022.288 1019.537 1008.682 1003.046 997.8428 993.0109 983.7091 978.8135 972.0552 957.5248 950.9952 944.8087 939.0771 927.5619 923.4024 921.0814 917.8687 915.3236 916.8807 919.2801 921.9928 924.9515 925.1721 925.1815 925.2197 922.9753 921.3475 919.6458 917.9037 911.7087 906.3656 901.5124 897.0711 891.2076 890.6702 891.8017 893.8537 899.6859 903.2388 907.8115 912.2461 917.3835 919.0607 920.5482 921.7267 922.6898 917.5101 916.5859 911.6113 909.3247 907.6398 907.1777 908.6213 909.4499 910.0554 910.3629 909.3638 908.0256 906.6457 905.0451 900.5619 899.8056 900.5551 902.3452 906.6076 908.8717 
1162.784 1155.057 1149.619 1144.456 1139.12 1128.837 1124.063 1120.109 1116.462 1109.856 1104.468 1099.785 1095.88 1086.563 1081.855 1077.62 1070.777 1057.782 1053.695 1049.301 1043.672 1033.158 1028.907 1024.47 1019.537 1009.802 1004.494 999.439 994.7136 985.5022 980.4849 974.2232 966.9201 952.7117 946.7726 941.1822 929.4554 924.2546 920.0447 916.259 910.3214 908.4829 909.9659 912.715 917.7208 919.0732 919.3757 919.113 917.6011 916.0799 914.3427 912.3562 903.1715 898.6249 894.2859 890.1598 884.948 884.4172 885.2885 887.4373 893.7839 896.9565 900.2273 903.915 910.8815 913.7909 915.7098 916.9361 917.7642 917.5101 909.1438 906.8055 902.1232 900.57 900.0328 900.2197 901.2347 901.8255 902.2032 900.8901 899.5234 898.3765 897.2037 894.3991 893.7852 894.8861 897.0006 901.6053 903.795 
1161.705 1152.578 1146.581 1140.31 1134.801 1124.959 1121.071 1117.538 1114.156 1108.123 1102.416 1097.731 1093.837 1085.8 1081.373 1076.684 1070.308 1058.364 1054.345 1050.583 1044.949 1033.899 1029.742 1025.571 1020.607 1009.802 1004.494 1000.288 995.6458 986.5639 981.879 976.4905 969.5082 954.5902 948.5973 943.1365 937.5418 926.3411 921.3106 916.4648 906.0868 902.5779 902.5883 904.1635 908.8214 910.679 911.3916 911.5695 910.8309 909.1556 906.9015 903.6697 895.8154 891.5301 887.5408 883.6971 877.8386 876.7171 877.5152 880.1546 887.5035 891.1571 894.4592 897.5049 902.816 905.599 908.3162 910.3008 911.3817 910.6599 909.1438 899.5197 894.9167 894.29 894.249 894.281 894.054 893.8862 893.7851 893.402 891.5443 890.5596 889.6758 888.2286 888.0054 889.229 891.4544 896.2068 898.529 
1159.923 1155.425 1142.611 1135.846 1130.54 1121.505 1118.349 1115.11 1111.816 1103.323 1098.423 1094.284 1090.846 1083.576 1079.429 1075.318 1069.341 1058.233 1054.369 1051.112 1045.64 1034.307 1030.32 1026.493 1021.571 1010.591 1005.267 1000.288 996.272 987.189 982.9198 978.5771 972.0505 956.5652 950.3492 944.9942 939.6809 928.4551 923.0386 917.4334 910.6382 899.9553 898.3143 897.1777 896.7902 898.6566 900.0088 900.8135 901.2774 900.1199 898.4237 896.049 888.5708 884.5341 880.5282 876.8489 870.3842 868.5952 867.2145 869.6171 879.4349 884.0161 888.3989 891.9455 897.1644 899.376 901.4577 902.5649 903.1169 902.6459 901.5101 899.5197 887.9785 886.5048 884.2834 882.9407 883.9838 884.4049 885.1208 885.4385 884.3397 883.8188 883.3416 882.9328 882.4945 883.3416 885.2415 890.5986 893.2469 
1157.169 1151.793 1138.153 1132.263 1127.08 1122.714 1115.806 1112.578 1109.036 1099.976 1095.727 1090.938 1087.321 1080.882 1076.455 1071.635 1066.064 1056.573 1053.048 1049.635 1044.773 1034.338 1029.906 1026.36 1021.467 1011.238 1005.702 1000.929 996.272 987.7531 983.6464 979.5511 973.5638 958.4608 951.9433 946.6226 941.7036 930.6817 924.8198 918.3082 911.3243 899.3698 895.6894 892.4322 889.8326 889.3145 890.186 890.9831 891.9046 891.7969 890.1502 887.9035 881.1996 877.0919 873.7693 870.5103 863.3447 861.214 860.8514 861.8172 870.2488 875.5753 880.407 885.0493 892.3552 894.5363 895.9597 896.8192 897.0739 896.4667 895.1382 893.0626 887.9785 886.5048 875.5833 873.6777 873.6268 875.0466 877.0602 878.0591 877.5984 877.3382 877.0914 876.8293 876.3646 876.8614 878.4538 881.1453 887.4061 
1153.548 1147.941 1134.823 1129.295 1124.304 1120.173 1113.355 1109.698 1105.652 1101.147 1092.692 1088.304 1085.792 1077.669 1072.917 1067.278 1061.938 1053.671 1049.797 1046.439 1042.095 1032.773 1028.095 1024.085 1018.932 1009.18 1004.589 1000.279 995.8475 987.7531 983.2662 979.7078 974.2818 959.8896 953.335 948.1313 943.4816 932.9904 927.1908 920.5237 913.4861 900.6395 895.7229 891.1519 887.2098 883.9189 882.7003 881.7202 881.8055 880.6476 879.7233 877.7064 875.2127 869.9589 867.3596 864.496 856.9204 854.4326 855.0852 857.2496 863.2396 867.5538 872.3989 877.0364 886.181 889.9761 891.7139 892.3964 892.5684 891.5651 889.7866 887.2308 881.6975 878.5525 875.5833 866.5029 865.4568 866.3761 867.5782 868.5635 870.1879 870.8062 870.7097 870.2424 869.3527 869.4715 871.2244 874.3021 881.0834 
1149.418 1143.952 1132.154 1126.749 1122.261 1118.501 1111.453 1107.082 1102.357 1098.036 1090.159 1086.881 1083.596 1079.22 1068.465 1062.734 1057.886 1049.743 1045.963 1042.171 1038.37 1029.084 1024.642 1020.066 1015.441 1006.33 1002.158 998.5251 994.7556 987.2863 983.2662 978.4284 973.5453 961.0996 954.8495 949.6893 945.1899 935.1292 929.5178 923.3675 916.6752 902.1282 897.0269 892.0521 886.9636 879.783 876.1896 872.3447 870.0688 866.1078 865.4471 864.6334 863.7244 862.592 860.9073 858.6183 855.5102 850.7325 851.2332 852.8835 858.2035 861.7138 865.6041 869.7982 877.9915 881.2989 884.0403 885.6725 885.7877 884.4717 883.08 881.2333 874.2523 870.0411 867.8326 866.5029 860.0703 860.6995 861.4332 862.2515 863.7751 864.3658 864.2902 863.8003 862.773 863.051 864.6004 867.3898 874.4137 
1144.995 1139.98 1129.375 1124.424 1120.345 1116.852 1109.599 1104.335 1099.348 1095.281 1088.107 1085.865 1081.023 1075.115 1064.01 1058.777 1053.88 1049.301 1040.593 1036.975 1033.171 1024.263 1019.85 1014.769 1010.577 1002.892 999.3024 995.7803 992.3077 985.8988 982.1068 978.4284 973.5453 962.1668 956.4412 951.7036 947.1312 937.3199 931.7949 925.9409 919.877 904.6469 898.8832 893.3453 888.0634 878.0164 872.2258 866.765 862.7445 857.2257 854.677 854.3571 855.0699 855.5375 854.5611 853.0273 850.8625 847.398 847.4349 848.5627 850.6389 856.875 860.3398 863.6705 870.3823 873.1253 875.4749 876.8193 876.7698 876.3436 875.3126 871.8904 865.0338 862.7859 861.2049 860.2384 860.0703 856.1405 856.887 857.6071 858.1785 858.0645 857.7579 857.2493 856.4229 856.5869 858.2506 861.0157 867.5024 
1140.394 1136.148 1126.692 1122.361 1118.699 1115.152 1106.994 1100.91 1096.423 1092.943 1086.408 1082.52 1076.749 1070.614 1059.823 1054.464 1049.447 1044.272 1035.022 1031.303 1027.13 1022.974 1014.037 1010.002 1005.947 1002.056 995.5518 992.3737 989.2051 983.178 980.0372 976.6114 972.1719 962.1668 957.3855 953.1847 948.6458 939.3546 933.9507 928.3749 922.5869 908.8676 902.3043 895.6514 889.6375 878.4693 871.9348 866.2968 861.8513 854.2977 851.0255 849.6075 849.106 848.7335 848.087 846.6535 844.5509 842.1201 842.3501 843.6301 845.9139 851.903 855.2275 858.4587 861.423 865.6624 867.4315 868.8818 868.6214 867.6192 865.4904 863.1099 858.6865 856.6795 854.9045 854.2333 855.2701 856.1405 850.9063 851.9767 851.8868 851.1931 850.3536 849.4804 848.77 849.9398 852.1028 854.9108 861.1184 
1136.047 1132.502 1124.261 1120.47 1116.839 1113.722 1103.113 1097.649 1093.947 1090.845 1084.795 1078.449 1072.532 1066.873 1055.781 1050.24 1044.94 1039.705 1030.847 1026.675 1022.258 1017.641 1009.006 1004.958 1001.121 997.6706 991.7155 989.0123 986.1508 983.2161 977.1877 974.1883 970.2403 961.6155 957.3855 953.8027 949.6961 940.6919 935.7178 930.4056 924.8911 913.017 906.1741 898.7028 891.6915 880.0176 873.7583 867.7354 862.7421 854.0841 849.8541 846.7366 844.3188 841.6003 840.7753 839.188 836.6802 834.2479 835.7794 838.1149 840.8398 846.9062 850.2431 853.6574 856.4911 860.2347 861.7056 862.6439 862.7792 861.2475 859.4573 857.347 855.2542 850.6708 848.5074 847.4581 848.6871 849.8033 850.9063 851.9767 842.9725 842.5239 842.0272 841.5048 841.6168 843.1785 845.8957 849.0034 854.9725 
1131.953 1129.1 1122.412 1118.527 1114.869 1112.22 1098.86 1094.847 1092.018 1089.179 1081.482 1074.506 1068.924 1064.029 1052.644 1047.304 1041.436 1036.19 1027.601 1023.169 1017.602 1012.329 1003.957 1000.049 996.3629 993.0273 987.5648 985.1998 982.6766 980.0037 974.3748 971.2924 967.9515 964.435 957.3531 953.8027 950.2338 941.2371 936.6937 931.9848 927.04 915.9686 909.4602 902.1356 894.1777 881.864 875.8802 869.6253 864.2381 854.7648 850.0314 845.2476 841.0817 835.7284 833.1683 830.5262 827.9203 826.1601 828.5757 831.8644 835.1033 841.1343 844.2855 847.7454 850.9539 855.1148 856.5165 857.1877 857.1432 855.5916 853.9026 851.6696 849.2388 844.28 841.776 840.3738 840.4308 842.2007 842.9892 843.4095 842.9725 836.0067 835.6941 835.4542 835.991 837.5076 840.1989 843.4564 849.4315 
1127.925 1125.764 1120.086 1116.027 1112.561 1107.78 1095.634 1092.093 1088.883 1087.019 1077.512 1071.767 1066.58 1061.549 1050.265 1045.187 1039.951 1034.61 1024.183 1019.214 1013.636 1007.94 999.1025 995.0993 991.3021 988.1279 983.2562 981.1268 978.6832 976.262 971.0886 968.3652 965.6418 962.8173 956.6962 953.8765 950.2338 945.8212 937.4182 933.0368 928.4567 918.3934 912.6105 905.7746 896.9774 883.614 877.9266 871.6315 865.9315 856.0182 850.9711 845.2196 840.1807 831.838 828.1846 825.6627 823.7935 820.3526 821.5377 824.5563 828.3367 835.3271 837.9303 840.4642 843.3668 849.1938 851.4811 852.3275 852.0013 850.1875 848.2841 845.9236 843.4821 838.1062 835.5477 833.6253 832.6952 834.2817 835.5211 836.3228 836.5508 836.0067 830.389 829.975 830.1588 831.2736 833.9892 837.6385 844.6746 
1122.963 1121.379 1119.118 1112.569 1108.273 1102.233 1093.23 1089.578 1086.633 1084.888 1074.256 1069.222 1064.325 1059.337 1048.571 1043.63 1038.868 1033.078 1021.635 1016.346 1010.668 1004.293 994.587 990.3304 986.5921 983.5096 978.9384 976.6013 974.0295 971.456 966.826 964.6449 962.2623 959.7777 955.4367 953.2368 949.8425 945.6724 937.4182 933.3617 929.3375 925.0717 915.6247 908.2282 899.2928 891.3037 879.7681 873.6753 867.7747 857.7059 852.5145 846.4468 841.0212 831.2791 827.5061 824.1568 821.1354 816.0117 815.6623 816.9601 819.8864 827.8889 830.9792 833.764 836.4404 841.8 843.6066 844.8229 844.9967 843.7366 842.1704 839.9894 837.2949 831.1696 829.0302 827.5082 826.6228 827.6724 829.1697 830.4519 830.8929 830.6668 830.389 821.6533 821.2574 824.351 827.4637 830.9493 839.2645 
1116.776 1114.563 1112.885 1108.393 1103.042 1098.067 1094.306 1088.681 1086.078 1082.725 1072.254 1067.365 1062.589 1057.63 1047.73 1042.476 1037.415 1031.545 1020.08 1014.379 1007.856 1001.742 990.9502 987.1357 982.9739 978.866 973.0496 969.5564 966.4366 964.3827 961.0996 958.9349 956.6873 954.9957 951.9031 950.171 947.8403 944.5933 937.5159 933.3617 929.9673 926.0693 916.9056 909.7815 901.4562 893.5524 881.4619 875.6194 869.6284 864.186 854.3172 848.3677 842.6545 832.455 828.2658 824.5472 820.7718 814.8422 813.6356 813.3329 813.5967 817.7738 821.7928 825.5 828.7827 834.5259 836.6184 837.9692 838.2886 837.6029 836.3453 834.0565 831.1945 825.6281 823.2986 821.4501 820.7203 821.6982 822.5549 823.3127 823.7747 823.313 822.6422 821.6533 821.2574 818.0439 821.5835 825.211 828.7518 
1110.062 1108.181 1106.57 1102.548 1098.967 1095.196 1092.049 1087.529 1084.552 1080.296 1075.458 1065.885 1061.236 1056.495 1046.738 1041.35 1036.112 1030.517 1019.282 1013.278 1006.493 1000.468 988.4933 984.9401 979.7705 974.9846 965.454 961.4465 958.8461 956.7136 951.8896 950.8444 949.9005 949.0652 946.4252 945.0711 943.8126 941.9344 936.3727 933.1953 929.9673 925.6235 916.8842 910.572 903.1662 895.6028 883.1759 877.5366 871.5488 865.9468 856.0316 850.264 844.4071 838.8901 829.4501 825.4893 821.7097 814.2706 811.6616 810.2781 809.3086 809.7692 811.4568 814.7548 819.1516 826.7693 828.8467 829.7822 830.3335 830.9174 829.8414 827.7825 825.0994 819.9981 817.8058 815.9992 815.2546 815.7084 816.1413 816.6157 817.1279 816.4147 815.7089 815.036 814.8644 818.0439 816.8073 820.417 823.8654 
1105.574 1102.519 1100.29 1096.614 1094.319 1091.572 1089.062 1084.545 1081.397 1077.409 1073.28 1064.478 1059.999 1055.487 1050.815 1039.991 1034.895 1029.724 1019.174 1013.612 1007.499 1001.581 990.287 985.2417 979.9659 974.239 962.1554 957.7208 953.0643 949.8314 945.5485 943.3699 941.8299 940.8983 939.7331 939.4723 938.6965 937.5373 934.1699 931.7854 929.0994 925.6235 916.8842 910.8455 904.6346 897.3427 884.7583 879.4024 873.5657 867.7941 857.7328 852.2654 846.2469 840.498 830.6202 826.5809 822.7697 818.9931 811.364 808.5233 805.5571 803.2899 803.4667 805.7509 809.8296 818.4315 820.9573 822.5972 823.3011 823.5903 822.6227 820.3928 818.1131 814.7264 812.8981 811.3165 810.2483 810.0186 810.217 810.5071 810.6549 810.2306 809.7043 809.4335 809.777 813.4886 816.8073 815.8602 819.422 
1102.113 1098.451 1095.421 1090.615 1088.499 1086.672 1084.825 1080.13 1077.222 1074.184 1070.727 1063.108 1058.742 1054.175 1049.621 1038.938 1034.003 1029.097 1024.105 1014.013 1008.444 1002.926 997.3597 986.8146 981.2172 975.3905 963.7745 956.621 951.1377 947.0356 939.6963 937.0961 934.7299 932.9934 933.278 931.1211 930.8033 931.0831 930.3289 929.3079 926.8298 923.4982 915.8587 910.8455 905.4116 898.702 885.7941 880.976 875.3622 869.6142 859.3399 854.2731 848.1817 842.2017 831.9612 827.7319 823.8471 820.0843 812.2679 808.537 804.2456 800.5372 796.6723 797.0598 799.9684 809.4681 813.0002 815.1762 815.7849 815.7484 815.359 814.2127 812.8146 809.619 807.9692 806.1531 804.8101 804.4425 804.5731 804.701 804.9048 804.4276 804.0615 804.0627 804.5708 809.0627 812.2603 815.8602 814.6078 
1099.101 1094.986 1090.627 1084.857 1082.618 1080.467 1078.428 1075.137 1072.886 1070.249 1067.227 1061.069 1056.504 1052.01 1047.803 1038.288 1033.447 1028.562 1023.797 1014.359 1009.239 1003.96 998.6552 988.5831 982.8125 977.061 971.7943 958.8596 952.0695 946.4329 937.5161 933.6445 928.8005 925.8315 924.9445 922.4808 922.4852 923.4772 924.0374 923.6494 921.8522 919.1418 913.573 909.6315 905.4116 899.1626 886.3799 881.2756 876.2234 871.2028 860.7265 855.5828 849.7023 843.887 833.3167 828.9374 824.9435 821.1633 813.2029 808.9005 804.0419 798.4194 791.8951 791.1266 792.4713 795.8041 804.483 807.5627 809.3884 810.2319 810.0841 809.28 808.0496 804.5585 802.8253 800.9758 799.2876 797.2149 796.8549 796.7825 796.8953 797.1516 797.6143 798.275 799.3824 803.9083 807.11 810.6878 814.6078 
1099.101 1094.986 1086.579 1078.357 1075.428 1073.61 1072.094 1069.019 1067.63 1065.891 1063.382 1057.604 1053.664 1049.615 1045.67 1037.528 1032.879 1028.044 1023.508 1014.689 1009.929 1004.896 999.8369 990.1266 984.804 979.433 974.1884 961.9423 953.9209 947.5637 942.8238 933.5629 928.8608 925.618 916.9848 913.8906 913.7559 914.5613 915.4005 915.5769 915.482 914.4036 910.2214 907.8844 905.0468 899.1626 885.8392 880.7177 875.6997 870.5305 860.7708 855.7501 850.2129 844.5853 834.5049 830.2275 826.0455 822.0414 813.9509 809.6871 804.5799 797.7141 790.7815 790.228 790.3728 791.2385 796.9565 800.3309 802.3329 803.1404 803.235 802.6531 801.5033 799.8429 796.7313 795.2664 793.532 790.8162 790.3524 790.2394 790.2316 790.5896 791.3498 792.3352 793.4567 797.2289 800.4278 804.6323 808.459 
1095.208 1090.84 1086.579 1073.813 1070.182 1067.276 1064.966 1062.974 1061.942 1060.935 1059.001 1053.486 1050.71 1047.319 1043.73 1036.433 1031.991 1027.458 1023.225 1014.925 1010.478 1005.713 1000.907 991.5936 986.8375 982.0696 977.2001 965.1552 956.6583 949.9485 945.094 935.7291 930.8702 926.7401 921.4644 912.8687 910.6404 909.2712 908.5466 908.5269 908.395 908.3293 906.7603 904.9615 901.3596 896.4664 885.8392 877.4808 873.0861 868.8672 859.7885 855.6359 850.1888 844.6083 835.2655 830.9806 826.7348 822.5764 814.3698 810.3367 805.3403 797.8766 788.9478 788.5598 788.5583 789.0535 791.1202 792.6516 793.3508 793.2019 791.934 791.2651 790.9523 790.7806 790.4172 789.4218 788.2906 787.2739 785.7672 785.306 784.9511 784.2805 783.8976 784.3317 785.886 790.0586 791.8701 793.4758 797.8552 
1090.615 1086.719 1082.431 1073.813 1066.033 1062.361 1057.593 1052.341 1052.674 1052.922 1052.618 1049.317 1046.81 1043.966 1041.119 1034.784 1030.678 1026.752 1022.889 1015.054 1010.978 1006.435 1001.869 992.9253 988.4883 984.1276 979.8856 967.9781 959.9737 952.7087 947.2048 938.4474 933.4293 928.723 923.3665 913.4951 910.3732 906.8091 903.6025 901.639 901.3725 901.3995 901.2004 897.1552 893.2933 890.0411 881.6417 877.4808 873.0861 865.1463 857.4373 853.5571 849.0259 844.5183 835.5303 831.3069 827.1298 822.8776 814.5303 810.2607 805.1093 797.4861 786.8724 786.5032 786.2794 786.2114 787.0252 787.339 787.3433 787.0412 785.9714 785.1777 784.3812 783.7541 783.1642 782.954 782.7979 782.4846 781.3197 780.611 780.067 779.6144 778.8069 778.9999 779.7015 783.8406 786.0264 788.5272 792.2177 
1086.097 1082.461 1078.332 1074.092 1066.033 1056.516 1050.909 1045.13 1044.358 1044.552 1044.613 1043.084 1041.856 1039.932 1037.596 1031.814 1028.643 1025.378 1021.77 1014.828 1011.113 1006.823 1002.683 994.0692 989.8276 985.7164 981.7458 970.8973 963.2767 955.1828 949.1018 940.7913 936.0419 931.2052 926.0092 915.5114 911.0786 906.4468 902.2353 894.0923 890.3398 888.3893 887.3368 885.0042 883.1548 880.9957 878.801 872.2355 868.598 865.1463 854.4568 850.8134 847.3213 843.8337 835.2432 831.5359 827.1707 822.7243 814.3349 809.4518 803.7703 796.4419 785.3848 784.3884 783.8165 783.4104 783.1493 783.0275 782.8638 782.6057 781.154 779.9912 779.0048 778.3034 777.8096 777.8072 777.7791 777.5532 776.6004 776.1635 775.8523 775.6169 775.5583 775.9718 776.8121 778.0925 781.5784 784.0963 786.1345 
1081.234 1077.64 1074.108 1070.299 1062.252 1056.516 1045.98 1041.706 1036.646 1036.014 1035.357 1034.285 1033.44 1032.161 1030.642 1027.576 1025.299 1022.496 1019.357 1013.528 1010.343 1006.579 1002.934 994.8289 990.6961 986.7659 982.9922 973.7283 965.7866 957.5645 951.2729 942.8677 938.5966 933.7245 928.5834 917.887 913.1615 908.2075 903.378 893.4354 888.9372 884.8533 880.9884 875.4496 873.2501 871.2019 869.3214 865.99 863.6653 860.856 857.7844 847.6121 844.6259 841.2762 833.7272 830.1474 825.6196 821.0553 812.8039 808.2752 802.1995 795.2807 784.5011 782.0894 781.1274 780.7687 780.1035 779.7567 779.2941 778.7499 777.0635 776.083 775.0394 774.145 773.1992 772.9717 772.6852 772.3564 771.7144 771.5379 771.4639 771.537 772.2899 772.9667 774.0215 775.2479 778.0505 779.7316 781.7842 
1076.716 1073.201 1069.798 1065.901 1056.281 1050.6 1045.98 1041.706 1030.589 1027.324 1025.365 1024.445 1022.208 1020.918 1020.381 1019.743 1018.413 1016.628 1015.344 1010.956 1008.149 1005.319 1002.368 994.8766 991.061 987.3461 983.7963 976.0383 967.8059 959.8745 953.4683 944.7936 940.9943 936.2019 931.0451 920.866 916.2964 911.3221 906.5233 896.4955 891.3674 884.3697 878.5217 869.4725 865.8322 863.7806 862.554 859.73 858.1013 856.1789 853.7854 847.6121 840.5776 837.0237 833.4721 826.9608 822.6572 818.4945 810.0549 805.9861 800.2644 794.1785 783.8074 780.3273 779.0557 778.5059 777.3736 776.7431 775.9454 775.1 773.1442 772.0237 771.011 770.2108 769.3715 769.1027 768.6803 768.3802 768.2175 768.2598 768.3667 768.4963 769.5597 770.2725 771.2155 772.3731 775.4205 777.5311 780.3443 
1073.935 1069.793 1065.809 1061.478 1049.971 1045.93 1042.102 1038.081 1030.589 1022.387 1019.633 1016.88 1012.258 1010.724 1010.432 1010.775 1010.446 1009.815 1009.246 1008.328 1004.721 1002.816 1000.496 994.1204 990.9167 987.6079 984.0356 976.7186 969.5258 962.1246 955.489 946.598 942.8965 938.5945 933.5782 923.6176 919.2445 914.9341 910.3452 900.2963 894.4497 887.4901 880.5632 867.2014 863.5755 860.6031 857.8314 854.2297 852.5811 850.7838 848.6627 843.6301 840.5776 837.0237 829.0626 822.5807 818.9161 814.8641 810.4147 802.3729 797.7636 792.5496 782.6791 779.0879 777.3863 776.5004 774.7981 773.7703 772.6452 771.4042 769.7381 768.898 768.2419 767.8076 767.5241 767.4866 767.4326 767.3837 767.4042 767.4396 767.5144 767.6514 767.9438 768.2235 768.7059 769.6472 772.5026 775.8292 779.597 
1073.066 1067.913 1063.404 1057.148 1046.556 1042.882 1038.784 1034.714 1025.872 1022.387 1015.425 1011.414 1003.906 1002.434 1002.443 1002.804 1002.994 1002.975 1002.485 1001.787 1000.284 998.8464 996.5865 994.3082 989.6958 986.5363 982.821 975.8959 970.0657 963.8701 957.5325 948.2079 944.6069 940.9666 936.1578 925.9355 921.8315 918.0185 913.7571 904.0852 897.8581 891.3463 884.2946 869.0313 864.1599 858.7374 854.3824 849.2188 847.1 845.0045 843.0209 837.8854 834.6157 831.8951 829.0626 818.3298 814.6579 810.5558 806.4959 798.6888 794.5552 789.8254 784.9769 777.7809 775.5085 774.3813 773.5571 771.1247 769.907 768.8137 767.8176 767.4722 767.1321 766.8732 766.6809 766.6441 766.6506 766.6866 766.7529 766.8202 766.907 766.9859 767.2532 767.4823 767.7501 768.0045 769.1833 772.1696 777.706 
1072.641 1066.988 1061.373 1054.501 1045.263 1041.778 1037.589 1032.604 1022.942 1019.087 1015.425 1005.012 997.1702 995.0063 993.1671 992.7361 993.6024 993.8005 993.8985 993.8887 992.9877 992.1647 991.2027 990.0624 986.4205 983.2284 979.8004 976.6931 969.3823 964.8881 959.2409 949.6782 945.9404 942.4519 938.0349 927.9511 924.0192 920.4059 916.7033 906.6081 900.843 894.924 887.8802 872.4193 865.9821 859.2078 853.8138 845.5836 842.0062 839.4068 836.5776 830.2184 828.0859 826.1505 823.6836 818.3298 808.3657 805.3923 802.4365 795.5349 791.3854 786.6052 782.2896 776.3269 774.0529 772.4874 771.309 769.1872 768.3448 767.7034 767.2246 766.6646 766.4304 766.342 766.2201 766.1889 766.212 766.2817 766.4961 766.5192 766.5897 766.6834 766.8472 766.9675 767.0329 767.2115 767.8351 768.2508 771.8129 
1074.869 1067.722 1060.813 1053.559 1044.747 1041.245 1037.546 1031.787 1020.732 1015.838 1010.792 1005.012 997.1702 988.309 986.0098 984.2736 984.2324 984.8431 985.2289 985.4015 984.715 984.2428 983.8937 983.3948 980.2404 977.8771 975.5161 973.0144 967.2785 963.8293 959.1639 954.5406 946.5751 942.8221 938.8527 929.8474 925.9269 922.4157 919.2136 909.3929 903.3009 897.6193 891.2297 875.9776 869.1942 861.4434 854.7991 844.0547 839.9267 835.488 831.0977 825.2218 822.9636 820.6844 818.2946 811.9972 808.3657 800.6318 798.2603 791.8624 787.6323 783.3528 779.9111 774.7551 772.6678 770.6803 769.3749 768.0326 767.449 766.9528 766.5695 766.1741 766.0052 765.9481 765.9761 766.0165 766.1044 766.203 766.462 766.537 766.576 766.5596 766.7109 766.7609 766.8446 766.8893 767.1268 767.5385 767.654 
1076.7 1069.359 1062.362 1054.534 1045.003 1041.806 1038.625 1032.766 1018.439 1012.724 1006.166 1000.2 991.4731 988.309 979.1519 976.0821 976.0908 976.6493 977.031 977.0263 976.4613 976.1653 975.8567 975.6082 973.9301 972.2399 970.5448 968.5538 964.0474 960.7807 956.9967 953.2964 946.1993 942.8757 939.3415 935.3467 927.5554 923.9557 920.395 916.3978 905.4144 899.5998 893.5345 879.0244 872.5255 865.3535 857.5823 845.276 840.1873 834.4427 829.371 820.8811 818.2498 815.4703 812.1915 805.7589 802.9771 800.6318 794.2121 787.6902 783.7664 780.6288 777.9897 773.1207 770.913 769.2282 768.2191 767.1696 766.7126 766.3952 766.1064 765.7324 765.7299 765.8143 765.9955 766.4644 766.7551 766.9969 767.2211 767.5012 767.7311 767.7312 767.1786 766.7928 766.8121 766.9038 766.9041 767.1011 767.4957 
1085.514 1070.675 1064.007 1055.899 1045.533 1042.408 1039.231 1033.319 1017.987 1010.634 1003.292 997.3393 987.495 983.9252 979.1519 973.4019 970.7411 969.8538 969.5318 969.345 968.8292 968.4908 968.1504 967.8353 966.9866 966.5142 965.5035 963.7578 959.8047 956.9024 953.8127 950.7728 944.9293 942.1279 939.0935 935.5198 928.3052 924.6151 920.8936 916.9943 906.6235 900.8286 894.7196 888.2521 875.3084 868.544 860.4058 846.9996 841.5799 835.3007 829.2172 817.2388 813.3542 809.4406 805.9162 800.4971 798.1721 796.1712 794.2121 787.6902 780.7996 778.4865 776.1138 771.4671 769.4019 768.2095 767.4573 766.3981 766.133 765.8268 765.5911 765.6873 765.9366 766.1903 766.5469 767.417 767.7945 768.2325 769.1287 771.0536 771.8922 772.434 772.1034 768.4808 767.3051 766.9159 767.0313 767.0795 767.1114 
1086.175 1071.81 1065.107 1057.036 1050.026 1042.807 1039.754 1033.839 1018.1 1010.127 1001.99 995.847 985.8935 981.4311 976.6888 973.4019 964.9185 963.9343 963.2171 962.6328 961.7593 961.4274 961.159 960.8931 960.3831 960.0173 959.4488 958.4419 954.5395 952.6689 950.2552 947.7372 942.7648 940.1111 937.5004 934.5491 928.4161 924.7197 920.8279 917.2769 907.2966 901.7059 895.6321 889.5544 877.8655 870.5308 862.7349 855.4922 843.165 836.9345 830.3615 815.8752 810.3532 805.7921 801.7311 794.7778 793.1888 791.8827 789.6928 783.4829 780.7996 776.7584 774.5767 770.3016 768.6254 767.6074 766.8622 765.8777 765.5119 765.3828 765.4675 765.9211 766.2639 766.7253 767.2991 768.4182 769.5198 771.1906 773.5942 777.332 777.9686 778.2218 778.1179 774.8508 771.606 768.8327 767.3241 767.0839 767.1771 
1086.518 1072.819 1066.084 1058.018 1050.835 1043.099 1039.756 1033.974 1026.352 1010.41 1002.393 995.733 985.3636 980.6687 975.7656 972.1446 964.9185 963.9343 956.2869 953.9284 953.7961 954.0897 954.2607 954.337 954.4073 954.1329 953.199 952.2788 949.2128 947.7324 945.9097 943.9515 939.7375 937.1803 934.9282 932.7258 927.3158 923.4213 919.0984 915.9112 907.3043 902.1982 896.4437 890.6552 879.2948 872.2848 865.087 858.0646 845.1006 838.7895 832.2885 824.5838 808.7427 803.5148 798.1674 791.363 789.3206 787.6175 785.4275 780.4432 778.6653 776.7584 773.3241 769.5281 768.2052 767.2706 766.5001 765.4702 765.2183 765.3347 765.6296 766.2106 766.7405 767.4175 767.9445 770.6407 773.8801 777.336 780.6599 784.7341 785.2928 785.399 785.2241 782.837 780.1813 776.1885 771.6172 767.2614 767.1522 
1085.755 1073.08 1065.933 1058.293 1051.506 1043.215 1039.72 1034.022 1026.57 1011.003 1003.471 996.331 990.1437 980.8653 975.7506 970.4247 965.7122 959.9406 956.2869 949.1229 946.2333 944.2684 942.8885 942.3517 942.8818 943.109 943.0588 942.9728 942.4938 941.8776 940.7258 939.2703 935.1061 932.976 930.9863 929.1367 923.1167 919.2687 915.6834 912.774 906.102 901.5798 896.5876 891.4023 880.1609 873.7762 867.1064 860.3896 847.1088 840.5178 833.9888 826.153 809.4271 803.2291 797.2587 792.6842 787.4826 784.6891 782.1468 778.765 777.1185 775.2617 773.3241 768.8746 767.8309 766.8776 766.1226 765.0806 765.2303 765.4589 765.728 766.6196 767.2966 768.0327 768.8458 774.4808 778.9788 783.5223 787.9539 792.1839 792.9346 793.1296 792.4086 789.7479 787.5786 784.3668 780.0717 770.0601 767.7537 
1083.99 1072.906 1065.637 1058.498 1052.084 1043.418 1039.635 1033.969 1026.741 1011.49 1004.503 998.0565 991.6342 981.3455 976.451 970.8758 965.1998 956.42 951.9036 949.1229 943.693 937.4638 935.7072 934.4179 934.0865 934.4706 934.8357 935.0182 935.0507 934.4551 933.3304 931.9921 928.7565 927.0058 924.9432 922.506 916.8016 914.093 912.0217 909.9054 904.506 900.5558 895.9407 891.1902 880.867 875.107 868.8462 862.4857 849.1678 842.434 835.4666 827.564 810.9359 803.9274 797.1991 792.4341 786.4297 783.4284 780.943 779.0651 775.9789 774.1863 772.4716 770.6427 767.8309 766.5909 765.8761 764.9297 765.2377 765.6152 765.9633 767.0879 767.8323 768.3224 770.3091 779.0637 783.6126 788.9702 793.6737 797.6505 798.1715 798.3451 797.8297 795.6691 793.6215 791.0847 787.9171 778.3956 772.4655 
1082.39 1071.787 1065.02 1058.515 1052.531 1043.635 1039.628 1033.976 1026.935 1011.861 1005.066 998.5175 992.3635 981.8849 977.0042 971.0939 965.0638 954.8271 950.4549 947.1389 943.693 933.7581 930.0552 927.8929 927.513 928.6857 929.2072 929.2361 928.1449 926.4777 924.5876 922.8463 919.8419 918.8299 917.0096 914.8318 911.1131 909.849 908.2621 906.3657 901.6074 898.2649 894.2327 890.0962 881.3892 876.2332 870.3619 864.0332 850.9325 844.1985 836.8178 828.8989 812.7733 805.3644 798.3061 793.0496 786.2484 783.1559 780.6804 778.6879 775.2852 773.4815 771.7606 770.0989 767.5007 766.5909 765.6431 765.1016 765.3361 765.7534 766.1733 767.3364 768.1071 769.1962 773.5784 782.2607 787.6509 792.9562 796.7758 801.352 802.7466 802.8831 802.5414 800.3849 798.8364 797.0819 794.8666 787.9703 782.6193 
1080.104 1069.928 1063.854 1058.251 1052.95 1043.894 1039.629 1033.76 1026.943 1012.837 1005.683 999.1704 993.0536 982.5478 977.5001 971.7041 965.8091 955.082 949.8368 945.0247 940.7285 933.7581 926.4777 924.0283 922.9197 921.2513 920.6532 919.7246 918.9199 916.5593 915.0152 913.6408 911.205 910.3931 909.2839 908.3334 906.5739 905.6321 904.0942 902.1359 897.4581 894.7148 891.3403 888.1564 881.244 876.7929 871.4429 865.297 852.115 845.4798 837.946 830.0968 814.5621 806.8625 799.6341 794.0507 786.4662 782.9724 780.4597 778.513 774.822 773.0025 771.2146 769.5958 767.2593 766.368 765.6431 764.9647 765.3712 765.6907 766.1923 766.8978 768.4235 770.8304 776.2784 784.9996 789.9363 794.7731 798.7323 804.5901 806.6143 807.1569 807.0974 804.8838 803.1935 801.5207 799.8571 795.9218 792.1035 
1076.725 1067.882 1062.509 1057.812 1053.18 1044.009 1039.44 1032.882 1025.756 1012.535 1006.003 999.8372 993.9429 983.2252 977.9882 972.4045 966.6962 956.1581 951.0473 945.7637 940.4565 930.6206 926.4777 924.0283 919.1229 914.4565 912.9958 911.1736 908.8137 906.282 906.0096 905.1649 904.0419 902.2383 901.3509 900.5375 899.0849 898.2639 897.1238 895.6204 892.4254 890.5446 887.9893 885.4724 879.7703 875.911 871.3632 865.8355 852.2997 845.7485 838.6298 831.1575 816.1711 808.0918 801.2428 795.6856 787.1104 783.3735 780.6215 778.5184 774.4618 772.5462 770.6663 769.1083 766.9261 766.0291 765.361 764.9647 765.2977 765.8079 766.396 767.158 768.8527 772.4777 777.9363 782.9767 791.7443 796.3779 800.9448 807.5045 809.7303 811.1652 811.55 809.5126 807.7357 805.962 804.1844 800.58 798.6715 
1073.197 1065.74 1061.669 1057.426 1053.315 1044.395 1039.176 1033.355 1026.762 1012.809 1006.489 1000.534 994.7579 984.1135 978.9583 973.3997 967.5654 957.1772 952.4102 946.7884 941.1316 930.5126 925.9942 922.3356 919.1229 910.4175 906.9908 904.0772 901.2379 896.367 893.9768 893.0084 892.5942 891.3498 890.8168 890.267 889.7354 888.626 888.1058 887.358 886.5833 884.9798 883.0705 881.486 877.0767 873.5822 869.814 865.1516 852.4072 846.0791 839.3484 832.0868 817.5831 809.651 802.9606 797.288 788.0432 783.9689 780.9025 778.5134 774.1831 772.1111 770.1082 768.6248 766.6898 765.8806 765.1645 764.8329 765.2977 765.9357 766.5966 767.3613 769.9216 774.3304 778.9105 783.5672 793.1967 798.4001 803.525 807.4507 813.124 815.5369 816.4259 814.5344 812.9731 811.0289 808.9836 805.0913 803.2577 
1069.41 1066.871 1060.422 1056.589 1052.933 1045.093 1040.721 1035.138 1028.329 1013.052 1006.96 1001.234 995.5253 984.9033 979.8253 974.3696 968.3867 958.1673 953.4094 947.7743 941.9332 931.5294 926.9587 922.8166 918.803 910.4175 904.4838 899.4177 894.7523 888.6837 885.9079 883.7507 882.0527 880.8073 880.5885 880.2426 879.9109 879.3345 879.1309 878.8809 878.6229 878.0423 876.8705 875.8494 874.4933 869.2425 866.2924 862.6741 852.3201 846.2839 839.8915 832.9404 819.1021 811.303 804.379 798.7623 789.2162 784.5793 781.1348 778.5971 773.9263 771.8391 769.7766 768.3207 766.4572 765.6554 764.9289 764.7057 765.398 765.9357 766.5966 767.4607 771.3391 776.0172 780.1177 784.5804 794.775 800.2888 805.3606 809.4905 816.4316 819.2532 820.6646 820.7285 818.3925 816.3401 814.3066 812.3024 808.2022 
1065.682 1063.659 1058.149 1054.891 1051.489 1048.112 1040.793 1035.962 1029.502 1013.363 1007.323 1001.775 996.2044 985.7863 980.7837 975.4913 969.5923 959.1683 954.4702 949.2073 943.4915 933.2095 928.4973 924.1072 919.8063 910.1956 904.4838 899.419 893.7957 883.2593 879.5158 877.2144 875.4317 871.6034 870.0745 869.1422 868.9319 869.3187 869.5083 869.7549 869.9562 870.2164 869.9698 869.0942 867.8972 864.4864 862.1901 859.5099 856.0599 846.0728 840.2339 833.6641 820.4442 812.999 805.7463 800.0615 790.3276 785.2565 781.3976 778.5997 773.8342 771.5996 769.6544 768.2631 766.2238 765.4219 764.6909 764.5952 765.4261 766.0447 766.7286 767.4607 772.5382 777.5085 781.3141 785.7742 796.5694 802.0939 807.0507 811.4476 819.1159 822.341 825.0438 826.4346 824.6908 822.3644 820.0381 817.7645 813.8867 
1061.405 1059.831 1054.539 1051.957 1049.198 1046.177 1040.31 1036.018 1029.254 1021.142 1007.412 1001.907 996.5596 991.4312 981.6984 976.6931 970.9301 960.1476 955.4517 950.5265 945.1746 934.9377 930.217 925.6843 921.295 911.4183 905.0809 899.419 893.7957 881.9993 876.5956 873.425 870.7598 864.7007 861.8661 860.6235 860.5494 861.0851 861.3791 861.696 862.0072 862.5894 862.768 862.4775 861.8213 860.2466 858.5164 856.3198 853.3782 844.3953 839.5208 833.8358 827.7618 814.7277 807.0007 801.0071 791.2861 785.9639 781.676 778.6607 773.644 771.4263 769.4995 768.0707 765.9896 765.1909 764.454 764.4871 765.5339 766.0806 766.8712 767.6945 772.5382 778.9136 782.485 787.0903 798.2984 803.925 808.6553 813.0282 821.4824 825.6118 828.982 831.0357 830.5554 828.7099 826.4811 824.0479 819.8881 
1055.805 1054.635 1050.37 1048.393 1046.308 1043.819 1038.594 1033.742 1027.45 1020.257 1007.119 1001.487 996.5222 991.9637 982.9916 978.7605 972.9312 966.5259 956.5303 951.8214 946.726 936.8481 931.9713 927.3218 922.9368 913.5068 907.1782 901.0307 894.8036 881.9993 876.9139 871.9252 867.6708 858.8052 854.881 854.0724 854.45 854.8498 854.9531 855.1485 855.3907 855.9436 856.1646 856.3688 856.2579 855.1366 854.0659 851.9552 849.0344 841.8486 837.6489 833.1747 827.9578 816.031 808.1569 801.9915 797.2905 786.5537 781.9517 778.6943 775.9863 771.1198 769.223 767.8259 765.7521 764.9617 764.3796 764.5224 765.4675 766.1708 767.0818 767.8755 773.807 778.9136 783.6849 788.6683 800.1504 805.4257 810.3001 814.7503 824.3522 828.7531 831.9896 834.098 834.8811 833.7838 832.2081 830.3124 826.7307 
1050.08 1049.239 1046.102 1044.381 1042.651 1040.693 1035.309 1029.624 1023.912 1017.862 1006.256 1001.064 996.5241 992.288 983.9474 979.7361 974.3138 967.9965 957.6219 952.9533 948.1164 943.3484 933.7938 929.0842 924.6049 915.3073 909.5953 903.7449 897.457 883.3034 876.9139 872.7722 867.5795 857.246 853.3287 851.7721 850.4094 848.1017 847.9615 848.0278 848.1063 848.2664 848.3174 848.3757 848.2956 847.468 846.6439 845.1167 843.3341 838.9268 835.504 831.6281 826.8182 815.6939 808.9388 803.0358 797.9146 786.8449 781.9644 778.5397 775.7127 770.5355 768.7974 767.556 766.5019 764.8312 764.274 764.4225 765.5851 766.3007 767.2848 768.1013 775.0959 780.2546 783.6849 788.6683 801.866 807.0811 812.0737 816.9173 827.1277 831.4911 835.2987 837.7473 838.7354 838.2941 837.17 835.8106 833.1175 
1043.672 1043.067 1041.311 1039.879 1038.753 1037.211 1030.326 1025.006 1019.786 1014.714 1004.965 1000.625 996.366 992.3824 984.3376 980.0018 975.1592 969.4844 958.9024 953.9703 949.301 944.7913 935.4971 930.8199 926.2189 921.6432 911.7704 906.3055 900.1926 885.8218 878.4374 872.7722 869.3533 858.9189 854.0007 849.9877 846.2044 841.6709 841.5418 841.28 840.9738 840.5723 840.4166 840.2189 840.0407 839.7169 839.2022 838.4014 837.6542 834.6445 832.4841 829.4617 825.1069 814.861 809.4628 803.8513 797.9909 786.4501 781.6221 778.2411 775.3917 770.0461 768.5047 767.3418 766.3092 764.7123 764.238 764.4459 765.0114 766.5078 767.4207 768.4941 776.4456 780.8076 784.7804 790.1436 801.866 808.8022 813.8424 819.0834 830.0106 834.8426 839.0746 841.8958 843.1785 843.1075 842.2621 840.9442 838.522 
1036.908 1036.517 1035.972 1035.024 1033.896 1032.277 1025.758 1021.472 1016.71 1012.158 1003.743 999.8168 995.7451 991.8338 984.3057 980.1436 975.7046 970.8022 960.6539 955.2019 950.326 945.9925 937.1591 932.1372 927.3519 922.6111 912.9542 908.2668 902.8981 896.5688 880.1138 874.2179 869.3533 861.3293 855.9604 850.4059 844.887 838.9964 835.9656 833.7954 833.218 833.3779 833.407 833.4666 833.5035 833.5277 833.4647 832.9153 832.3174 830.0725 828.3978 825.6431 821.9968 813.819 809.2223 803.939 797.9493 785.9561 781.2599 777.9606 775.1063 770.0291 768.438 767.2192 766.175 764.58 764.1249 764.4128 765.0718 766.6392 767.6779 769.1755 772.7704 780.7825 785.8941 792.0172 803.6495 808.8022 815.1777 820.7119 832.9173 839.3204 843.1205 845.7369 848.563 849.1972 849.1218 848.1332 844.8827 
1029.653 1029.794 1029.72 1029.173 1028.1 1026.757 1021.262 1017.549 1013.494 1009.552 1001.747 998.0995 994.4528 990.7974 983.5075 979.7502 975.7443 971.2208 961.9365 956.2267 951.1715 946.6652 938.0991 933.2462 928.4866 923.6466 914.3568 909.9118 904.9683 898.6215 882.1691 876.0451 871.2065 866.4523 855.9604 852.7766 847.248 841.7668 830.9071 828.8064 828.2443 827.8498 827.5685 827.3654 827.2687 827.041 826.8441 826.3953 825.7747 824.0126 822.7411 820.828 818.0977 811.6204 807.7083 802.7427 797.1142 785.3195 780.8997 777.6694 774.8793 770.088 768.514 767.166 765.9904 764.3681 764.0769 764.4401 765.1311 766.8668 767.8879 769.9085 774.1475 781.2858 787.4296 794.0479 800.0433 810.2604 815.1777 821.8826 835.2831 842.1339 846.6754 849.6649 853.8872 855.2313 856.1303 855.8568 852.3069 
1022 1022.622 1023.136 1022.931 1022.103 1020.815 1015.805 1013.129 1009.911 1006.367 999.23 995.6713 992.2674 988.996 981.8586 978.458 974.6382 970.1262 960.9207 955.7675 950.9984 946.3898 937.7811 933.2319 929.1036 924.8815 916.3438 911.6173 906.4578 900.1619 884.2715 877.6273 872.8041 868.5132 858.291 852.7766 849.6441 843.9273 832.0783 828.6033 826.4354 824.4268 821.7266 820.8134 820.3277 820.0448 819.6112 819.0853 818.5405 817.3892 816.6115 815.6471 813.8055 808.543 805.264 800.1503 794.7668 784.0503 780.3117 777.2216 774.4947 770.062 768.4628 767.0491 765.855 764.2545 763.9738 764.4761 765.3039 767.1954 768.2161 770.8027 775.6506 781.9319 789.2571 796.1326 801.7468 811.6356 816.2341 821.8826 830.2177 844.4727 849.7448 853.5156 856.616 862.7234 864.0407 863.1401 859.3633 
1014.169 1015.026 1015.706 1016.124 1015.755 1014.515 1010.681 1008.618 1005.88 1002.679 995.9456 992.2407 988.8649 985.5139 978.5581 975.4578 971.6923 967.3708 958.6057 954.1086 949.3459 944.6176 937.0586 932.8829 929.0823 925.196 917.2404 912.6353 907.4744 901.2504 886.351 879.1041 874.1569 870.3904 860.3867 855.1708 849.6441 846.2173 834.4147 828.6066 824.527 820.931 816.6671 815.6427 814.7957 814.1905 813.1735 812.7311 812.331 811.509 810.9477 810.0137 808.723 804.3774 801.1332 796.5204 791.3007 781.9913 779.1132 776.3808 773.8652 769.7636 768.2717 766.891 765.7017 764.1295 763.9633 764.4999 765.4113 767.5418 768.7745 772.152 777.2836 783.663 791.1614 798.0488 803.5753 812.9218 817.5469 823.2821 830.2177 844.4727 852.897 857.4447 861.4432 868.6074 870.5944 870.3853 868.7322 
1006.775 1007.393 1008.021 1008.635 1008.533 1008 1006.949 1003.668 1001.9 998.993 995.4163 988.398 984.709 980.7807 973.9949 970.7458 967.0165 962.9354 954.3607 950.7822 945.8643 941.0734 934.3251 931.0773 927.7148 924.1304 916.663 912.2579 906.8619 901.1248 888.3075 880.4578 875.4468 871.4155 862.0107 857.1337 851.7288 846.2173 836.4438 831.3124 824.8984 819.1467 813.8316 811.3103 809.2507 808.2382 807.7836 807.4048 806.7208 805.8766 804.4014 803.1993 801.7375 797.7545 795.2405 791.7511 787.2592 780.2243 777.7322 775.2531 773.0268 769.4175 767.99 766.6148 765.4484 763.901 763.9494 764.6223 765.611 768.078 770.1658 773.9141 778.3974 788.5782 793.7875 799.6873 805.2748 814.392 819.1027 824.8392 832.255 847.1829 852.897 860.5798 864.9449 874.7977 877.4265 878.2361 877.7208 
999.8979 1000.191 1000.504 1001.104 1001.271 1001.463 1001.095 998.4684 996.9248 994.2621 991.0347 984.0767 979.962 975.985 972.4576 965.6915 961.3543 956.6522 948.9651 945.3285 940.8401 937.05 931.1068 928.4587 925.5906 922.2739 914.8811 910.8442 905.952 900.3873 888.8271 882.8381 877.2988 872.12 862.7519 858.1486 853.1129 847.4308 836.4438 831.3124 827.051 821.0877 810.8159 806.9141 804.4545 802.8112 798.4986 797.215 796.7867 796.4663 795.4849 794.7178 793.5865 792.1372 788.7549 785.4355 782.4255 780.3264 776.2578 774.0059 772.1702 768.9772 767.6027 766.2516 765.149 763.6588 764.0237 764.8366 765.9569 768.7333 771.485 775.4196 779.8819 790.1008 795.5643 801.631 806.9925 816.0837 820.9797 826.4738 834.497 850.3104 855.9156 860.5798 868.4154 880.0344 882.6218 883.7676 884.037 
992.7641 992.9259 993.1108 993.5543 993.7251 993.9322 993.9537 992.5558 991.215 989.1509 986.3662 979.0699 975.2628 971.6505 968.2133 959.933 954.6741 950.4019 947.2942 940.973 937.2864 933.5398 927.4749 924.8474 922.0974 919.3332 912.7729 908.0885 903.7218 898.392 887.3642 882.2007 877.2117 872.2941 863.0462 858.4753 853.8193 848.2397 837.5627 832.7599 827.051 823.0034 811.3309 806.3915 802.4359 797.8992 792.0436 790.9089 790.3054 789.8099 788.5042 787.7972 786.8472 785.3992 782.572 780.7183 779.2219 777.947 774.4976 772.835 771.3104 769.7823 767.0969 765.8461 764.8216 763.6168 764.1314 765.0718 766.3248 769.574 772.8469 776.9062 781.3495 791.7665 797.4689 803.3726 808.5333 817.9874 823.0676 828.8225 836.9008 853.912 858.5476 862.8735 868.4154 883.1818 886.4698 888.5551 889.3774 
986.103 986.1592 986.27 986.6487 986.8562 987.0431 987.2138 986.8264 985.8523 984.1306 981.4531 974.4256 970.8437 967.4086 963.4467 953.376 949.1346 945.9252 943.2504 937.1063 933.1713 929.5229 926.4592 921.1458 918.4211 915.5288 907.8334 903.4244 898.6583 893.4281 884.1763 879.3749 875.4966 871.2702 862.0207 857.0055 852.5175 847.5154 837.8818 833.7142 828.817 823.0034 812.4519 807.3028 801.8118 796.3552 790.3694 788.6485 786.9343 785.6769 783.7139 782.7267 781.8523 780.8803 779.246 778.3775 777.265 775.9732 772.9661 771.7114 770.3515 768.9751 766.5463 765.3893 764.5436 763.9037 764.2753 765.4326 766.8068 770.853 774.2284 778.2675 782.8185 793.5838 799.476 805.1168 810.1593 819.5517 825.2794 832.166 840.6944 856.1403 860.5464 864.5609 871.4066 883.1818 886.4698 893.5737 895.2529 
979.4261 979.2327 979.2538 980.263 980.7025 981.1757 981.5819 981.7628 980.9724 979.2643 976.7742 970.0605 966.4841 962.3249 957.4063 948.2457 944.875 941.9363 938.9984 932.261 928.5115 925.2422 922.4888 917.4113 914.1658 910.1871 905.7267 896.9384 891.6482 887.1926 879.7441 876.2934 872.5027 868.8227 859.5568 854.6485 850.0683 845.8006 837.3371 833.2971 828.9416 823.6432 812.4519 808.1912 802.5354 796.6801 788.3469 786.1014 783.2321 781.6135 780.5446 779.834 779.203 778.5985 777.1576 776.3416 775.3963 774.2688 771.8713 770.7056 769.4089 768.197 765.9629 764.9775 764.1621 763.6306 764.5546 765.8039 767.2175 769.1888 775.7147 779.607 784.2834 795.0266 801.3505 806.9086 811.8531 821.9348 828.0171 835.4043 844.593 858.2032 862.205 867.2913 874.9618 887.5623 891.055 893.5737 901.7447 
973.8224 973.3265 973.0221 973.8633 974.6312 975.4119 976.1476 977.3855 976.4279 974.6371 971.9379 965.4935 961.1999 956.3057 951.5043 943.664 940.5056 937.4609 934.2126 927.2694 923.9547 920.9202 918.11 911.6701 906.7704 902.2117 897.907 889.0641 884.5036 879.9576 876.4216 870.6074 867.5718 864.261 859.8976 851.4847 847.2286 843.368 835.3867 831.7545 827.2722 822.202 812.6351 808.1912 802.5354 796.8124 786.7339 783.7012 781.3107 779.9702 778.7392 778.0999 777.3757 776.7598 775.2775 774.5546 773.7976 772.9227 770.8099 769.6654 768.5611 767.4866 765.3596 764.506 763.7117 763.41 765.1231 766.4557 767.7113 769.7797 776.932 780.6902 785.6837 791.333 803.421 808.6821 813.5374 824.3211 830.6221 838.6423 847.9789 859.7175 863.7402 870.4093 878.7679 892.1997 895.8901 899.1757 901.7447 
973.8224 966.9059 966.1764 966.3277 967.2841 968.2641 969.1716 970.4318 969.8977 968.3844 966.3136 959.7365 955.1443 950.5315 946.0956 938.902 935.8501 932.764 929.4409 922.3803 919.078 915.6614 911.8267 901.8409 897.4031 892.5096 888.1221 880.4395 876.6666 873.2404 870.0005 864.0649 860.8793 857.2834 853.5456 846.4036 843.098 839.8335 836.1919 828.7844 824.1205 819.2429 810.7546 806.5886 802.0249 796.8124 785.3555 781.8883 780.162 779.1667 777.4807 776.5972 775.8532 775.1717 773.7217 773.0621 772.4885 771.8068 769.823 768.8064 767.7899 766.7644 764.772 764.0358 763.3928 763.4983 766.1254 767.5248 768.9211 771.2712 778.3225 782.2994 787.454 793.2095 805.4558 810.4625 815.2413 820.8323 833.8314 841.2693 849.7943 856.6935 865.4901 873.1018 881.8488 895.4869 900.0986 903.2989 905.5929 
969.0409 966.9059 961.0262 960.2351 960.6763 961.3789 962.1681 963.5895 963.3976 962.0024 959.8525 953.4612 949.1892 944.3299 940.3218 934.1636 931.1333 927.9836 924.1934 916.4822 912.6413 908.1201 902.8999 893.3174 888.5848 884.3282 880.1161 872.5895 869.2368 866.0903 862.9218 856.4735 853.5192 850.6252 847.5983 841.5818 838.3329 834.7278 831.3212 824.5612 820.3503 816.0995 811.9733 803.8768 799.3877 794.9746 785.3555 780.7457 779.1774 778.1049 776.3404 775.4669 774.7016 773.7897 772.3516 771.9189 771.3832 770.6715 768.8886 768.0024 767.0515 766.0051 764.2355 763.6254 763.1805 763.8692 767.6653 769.4613 771.5898 774.4153 780.3527 784.4069 789.3047 795.0576 807.0183 812.2458 817.3621 823.3335 836.8996 844.2375 851.7929 857.7877 866.829 875.4232 885.0058 892.7025 903.1648 906.2368 908.3312 
965.201 962.5012 961.0262 960.3333 954.3957 954.9908 955.6057 956.5583 956.3651 955.6276 953.6626 946.6703 942.4945 938.6154 935.3732 929.4269 925.837 921.35 917.1386 909.0279 904.4441 899.4768 894.596 884.9418 880.6237 876.4896 872.457 864.5725 861.6503 858.617 855.2488 849.5549 846.7451 843.8609 841.2032 836.0333 832.8165 829.4645 826.2436 819.4941 816.1107 812.2958 808.608 799.733 795.1702 791.5085 787.5939 780.7457 778.0867 776.8943 775.1074 774.335 773.5642 772.6375 771.2435 770.7571 770.0984 769.4681 767.9521 767.0884 766.1448 765.2433 763.7599 763.2469 763.3289 764.7841 769.788 772.5704 775.9158 778.9292 785.0708 788.9284 792.5837 797.5859 809.1768 814.3735 819.898 826.0142 839.6722 846.9052 853.5457 858.7429 869.1265 878.3776 887.7239 894.9036 904.5204 908.1368 910.7892 
964.1735 960.5369 956.6473 954.1414 954.3957 947.9417 948.5803 949.3974 949.7407 948.9739 947.1284 944.0876 936.8946 933.7411 930.8513 923.6241 918.8413 914.0926 909.5632 901.3798 896.9365 891.7099 886.3564 876.4506 872.3956 868.0963 864.1016 857.5533 854.2196 851.3519 848.6115 843.1014 840.5623 838.0913 835.5772 830.0568 827.1423 823.6992 820.1819 813.8907 810.1231 807.0436 803.3188 794.0269 790.4922 787.1467 783.8264 779.5164 778.0867 775.6625 774.6891 773.0869 772.3804 771.5021 770.65 769.3986 768.817 768.2416 766.9438 766.1245 765.2573 764.5389 763.2206 763.049 764.2672 766.3126 772.3196 776.3822 780.7432 784.8267 792.7504 795.6417 798.765 802.7467 813.1036 818.0177 823.78 829.6843 842.3148 849.1135 854.997 859.5315 872.6303 882.0599 889.8908 896.1281 906.1086 910.2971 913.3967 
962.7009 957.9881 953.519 950.1895 947.9407 947.9417 940.723 942.2408 942.9077 941.8232 940.7178 938.5139 932.0569 929.0219 925.8574 921.7447 912.4125 907.9156 903.3028 894.9337 889.4449 883.4125 877.8207 869.0248 864.3176 860.1904 856.5298 850.5111 847.7347 845.0226 842.2079 837.2535 834.9653 832.5645 830.0531 823.646 820.1334 816.8882 813.2611 805.0953 802.3262 798.6497 794.7211 788.3533 785.1877 782.4277 780.7561 778.2878 776.9207 775.6625 774.6891 771.98 771.2192 770.3721 769.5308 768.3458 767.8307 767.2232 766.5577 765.2236 764.55 763.8995 762.8608 763.8737 766.1612 768.7357 775.9169 780.4897 785.9509 791.5855 800.1439 803.2454 807.0751 811.0287 819.9998 824.2186 829.1125 833.9459 844.1648 850.7942 856.4128 860.5055 878.3437 885.3229 891.3788 897.3666 908.3428 913.4039 916.8679 
961.4278 956.9219 952.6981 948.125 940.2017 939.6522 940.723 931.6212 934.8448 934.2968 933.5571 932.2806 927.3822 924.4937 921.1694 916.8718 907.0973 902.5148 898.0877 893.0431 880.2928 874.6811 870.0573 861.2596 856.7452 852.8205 849.7075 844.1182 841.2655 838.6171 836.02 831.2849 828.9545 826.343 823.0609 815.6104 812.0179 807.7202 804.0167 797.5859 793.6726 790.5706 787.7228 782.2859 780.652 779.6343 778.7363 776.6133 775.5028 774.4969 773.5942 771.98 770.3521 769.4149 768.888 768.345 767.6971 766.7114 765.7699 764.453 763.8264 763.1666 762.8359 766.269 769.1255 772.3113 780.3199 785.7208 792.0668 798.275 806.9444 810.7255 815.4478 819.9301 827.7285 831.7296 835.3443 838.7497 847.4464 853.0782 858.3821 863.1434 879.4816 886.5511 892.7211 898.7242 911.2162 916.0768 919.5676 
960.0715 955.8214 951.6417 946.6735 937.0829 933.2432 930.936 931.6212 926.0687 926.7957 927.0624 926.6665 923.0066 920.4086 917.483 912.6601 901.6587 896.8586 891.6134 885.0366 872.5542 867.7859 862.6506 857.807 850.0707 846.9094 843.9504 837.7703 834.6933 831.8911 829.3411 824.6322 821.7436 818.0664 814.4417 806.3062 802.7138 799.6935 796.6484 790.1185 786.8479 783.7866 781.5305 779.4463 778.5009 777.566 776.7153 774.8399 774.0517 773.2751 772.5328 771.1247 770.3521 768.7786 768.58 768.4903 767.868 766.4539 765.0831 763.7137 763.0979 762.5588 763.6849 769.5765 772.7338 776.3974 780.5279 791.5 797.4918 803.8362 813.556 817.7492 821.9834 826.0929 835.0317 839.2892 843.5602 847.1191 854.8235 858.2181 862.1138 866.5974 881.1324 887.8667 894.1097 900.1182 915.0133 918.5448 921.5887 
959.0404 955.1348 950.8599 945.8888 934.7906 928.7489 925.1912 924.3224 926.0687 926.7957 920.2888 920.654 919.0518 916.8957 912.7156 906.8202 895.4754 890.4213 884.0405 877.2659 866.7164 860.6791 855.2673 851.0804 844.7225 841.3033 837.6813 834.2766 828.0187 825.4356 823.0188 820.2206 813.5457 809.6769 805.4824 798.4519 795.3674 792.4553 789.2325 782.5463 780.5194 779.5939 778.9243 777.2916 776.3973 775.6188 774.8725 773.3601 772.6744 771.9893 771.292 769.9879 769.2634 768.7786 768.2327 768.3057 767.4857 765.7036 764.1898 762.8298 762.454 763.367 766.0037 773.0734 776.5887 780.5467 785.6531 796.2817 801.1364 806.9084 813.1317 822.9047 827.1922 832.0417 843.0443 848.5925 853.353 857.0422 863.2454 866.3361 868.8071 872.3531 882.9387 889.155 895.7497 902.0912 914.6867 919.0291 922.6894 
957.6779 953.7419 949.4293 944.8552 933.0314 927.2283 922.296 918.2652 918.1674 919.55 920.2888 915.6204 914.9913 911.7147 906.673 900.9485 889.8373 884.1065 877.6277 871.4077 859.505 854.012 849.6602 845.9139 838.4183 834.2445 830.5578 827.4955 821.7599 819.098 816.1422 812.7742 804.553 800.7126 797.2965 794.0497 787.6777 784.4523 781.4296 779.1213 778.4279 777.6211 776.8476 775.2675 774.5969 773.932 773.2577 771.7978 771.1915 770.5309 769.8067 768.8453 768.5116 768.2951 768.2327 768.3057 765.8555 764.4951 763.2737 762.4633 763.331 765.429 768.4672 776.1534 780.0336 785.1061 790.8387 800.856 804.8134 809.9386 816.0525 827.517 832.8515 839.8108 846.8342 857.9725 861.2539 864.2859 867.7289 873.8407 877.0828 880.5903 887.8656 891.6502 898.0273 904.0261 914.6727 919.2517 923.5659 
956.2939 952.1892 947.7684 943.0326 931.293 925.2787 919.4416 914.1848 908.6039 910.8962 913.5942 915.6204 906.5456 905.0564 901.081 895.8204 884.8426 878.9288 871.3079 864.6714 853.4675 849.0778 845.2983 841.0398 831.5634 827.7569 824.5645 821.4988 815.0195 811.5703 807.9228 803.8691 796.2374 792.6099 789.6664 786.8701 780.8919 779.6302 778.8749 778.0244 776.4087 775.6652 774.9626 773.6158 772.944 772.3397 771.6893 770.3131 769.6346 769.0731 768.6345 768.1077 767.9537 767.9658 767.9215 766.9107 765.8555 762.9209 762.3892 764.0662 765.5742 767.3513 770.6177 779.4705 783.9894 789.4601 795.3848 805.7684 809.6042 813.4583 818.9042 832.0491 838.949 848.353 855.8299 863.3813 867.0093 870.9888 874.8731 881.8504 885.759 890.6487 894.5448 899.9689 902.9907 906.6254 914.7928 919.6085 924.6458 
958.9709 950.6013 946.0835 941.4449 929.518 923.1926 916.8501 909.818 900.6226 900.9709 902.3297 903.8868 906.5456 897.0156 895.0743 890.9652 879.4211 872.5822 865.6246 859.3723 849.4203 844.6835 840.4929 835.6651 826.4344 822.874 819.6052 816.0452 808.1298 803.0732 798.7852 795.02 788.8805 785.8503 783.3956 781.2545 778.8557 777.9351 777.0217 776.1633 774.6994 774.0359 773.3526 772.6605 771.3889 770.7628 770.1086 768.789 768.3531 767.975 767.6948 767.5214 767.4657 766.9775 766.3369 764.7557 763.7717 762.9209 764.0668 767.6744 768.9108 770.6945 774.1549 783.0069 788.2016 793.8256 799.9274 810.2038 814.2462 817.7914 822.4645 837.3959 846.2121 854.5686 860.3395 868.4429 873.2018 878.1508 882.7146 891.307 895.6418 899.7801 903.413 908.0076 909.0025 910.7735 912.6744 920.0425 925.4705 
957.3202 948.7848 944.2702 939.4824 934.0035 921.2635 914.4453 906.9356 900.8309 894.6212 894.9766 896.1364 897.7952 897.0156 895.0743 884.1571 873.3586 867.0538 861.0344 855.5042 846.088 841.2028 835.7889 830.7458 822.4902 818.5772 814.8745 811.2532 799.8011 794.9908 791.3963 788.7357 783.5613 780.973 779.671 778.9127 777.0136 776.1321 775.3491 774.5822 773.2034 772.5814 771.9212 771.2629 769.9216 769.075 768.4375 767.9835 767.2112 767.0423 766.8922 766.5271 765.5628 764.944 764.1392 762.6536 762.5112 762.7056 764.0668 772.472 774.5015 776.4261 778.4562 786.9688 792.0494 798.7594 804.9617 814.8906 819.2062 823.3243 827.6324 841.8697 852.2115 858.9285 863.8878 874.8093 880.1569 885.0226 890.1527 899.4343 903.9389 907.4855 909.9411 913.3708 914.5067 915.7034 916.4227 921.8456 926.0535 
955.1066 946.5909 942.1328 937.2646 931.9484 919.2036 912.1466 905.2393 898.8524 889.3515 888.2477 888.4412 889.1212 889.7293 888.2596 884.1571 868.186 862.9239 857.3947 852.3137 842.6127 837.0613 831.3102 826.7151 818.8194 814.8393 810.8084 805.4985 792.756 789.4265 787.1422 784.7592 780.5153 779.3237 778.2382 777.2009 775.3697 774.5746 773.8203 773.076 771.8325 771.1488 770.4988 769.799 768.3347 767.6523 767.0701 766.6818 766.0053 765.4645 764.9878 764.437 763.1795 762.4787 762.2237 762.287 764.4347 767.2578 769.2887 772.472 780.4218 782.0674 783.9279 791.0456 796.3371 802.9788 809.1011 819.2856 824.3865 829.0498 834.1555 846.5172 855.3639 862.4245 869.0483 881.6727 886.9659 892.5008 897.737 906.3843 910.0512 913.2998 915.9892 919.5872 921.2139 922.1978 922.9169 925.2518 927.5677 
952.3032 943.9713 939.6205 934.2795 928.8254 917.0004 909.6131 902.6047 896.1445 884.9435 879.9496 878.5646 879.8148 881.6113 881.2034 878.3258 873.4998 859.6619 854.7647 849.6576 838.8093 832.179 827.4397 823.5696 815.4432 810.8713 806.6042 801.5485 789.1142 786.2151 783.6994 781.5892 778.9447 777.7878 776.6624 775.658 773.9246 773.0969 772.3729 771.7346 770.3893 769.665 768.8513 768.0839 766.6591 765.9627 765.4552 765.0627 764.0576 763.3751 762.7826 762.1716 761.8163 762.327 763.2221 764.5727 768.6147 771.3303 774.0475 776.6185 780.4218 782.0674 790.2944 794.1595 800.6361 806.6551 812.3599 824.7959 830.3185 835.8193 841.1662 852.4108 859.2223 866.2706 873.8061 887.5018 893.5988 899.6881 904.7488 912.6807 916.3345 919.4258 922.1815 927.0009 928.9169 929.5057 929.7281 930.5967 932.2771 
949.0248 941.2534 936.5515 930.9033 925.6557 914.9374 906.3978 898.9764 892.7142 879.6136 874.4879 871.5187 871.2906 873.3302 873.0056 871.6124 868.6612 859.6619 851.5502 846.3669 840.428 828.7531 824.4219 820.7004 811.2275 806.543 802.3966 798.0118 786.8931 783.0452 780.9471 779.7145 777.394 776.3066 775.2484 774.2572 772.513 771.7524 771.0298 770.3188 768.7728 767.8085 766.8575 766.0565 764.9665 764.3065 763.781 763.2279 761.9854 761.4671 761.4524 762.1 764.4106 765.7711 767.0747 768.3506 773.1782 776.1821 779.1909 782.1025 786.6755 788.5986 790.2944 799.2723 804.3798 809.8785 815.5673 831.1572 837.2297 842.5615 847.8193 858.392 864.0222 871.0848 878.4974 892.7825 899.6962 905.4801 910.1758 918.6904 922.8147 925.759 928.2185 932.3816 933.5752 934.5547 935.499 937.5786 938.3176 
945.8309 938.3091 933.0513 927.8705 923.2387 912.6544 903.3774 895.407 888.5265 874.0728 867.265 863.3714 862.3147 864.2659 864.9966 865.0135 863.2803 855.6846 851.5502 846.3669 836.2051 825.7115 821.4334 816.9774 811.5778 802.6464 799.2926 793.9435 787.502 780.3949 779.1763 778.0403 775.9868 774.9454 773.8698 772.9099 771.2127 770.3744 769.5114 768.6485 766.4525 765.4604 764.6601 764.1044 763.1961 762.621 762.0761 761.5656 761.7419 763.0388 764.5062 766.0251 768.9825 770.1158 771.5961 773.3879 778.3548 781.3105 784.5363 787.7836 793.1707 795.1374 797.0999 799.2723 811.7609 814.5599 820.9781 829.2569 842.7572 848.6196 854.0478 865.1299 870.4481 876.1442 883.4538 898.6447 905.2446 910.7092 915.4164 924.8989 929.065 931.8079 933.8429 937.0942 938.4649 939.9525 941.3333 943.5096 944.2518 
942.8181 934.7434 929.6755 925.1054 921.2155 908.7778 899.2264 891.4838 884.9322 869.04 861.7565 855.9259 852.9237 854.4061 856.0707 856.8032 856.5128 851.7473 847.6179 842.6155 836.2051 823.1079 819.6868 813.2858 806.9677 800.1302 796.4191 791.666 785.8342 778.675 777.3295 776.5176 775.7887 773.7654 772.7393 771.8218 769.9119 768.8939 767.8138 766.6499 764.242 763.6316 763.1346 762.5983 761.5333 761.2944 761.3972 762.0021 764.8148 766.8624 769.0088 770.7831 774.2058 776.1013 777.8895 779.4034 784.1858 787.9495 791.4427 794.3238 800.2866 803.6828 805.7521 807.4409 811.7609 823.7205 828.5632 835.1412 848.6196 854.8025 860.9991 866.7705 877.2854 882.7001 889.4205 896.5204 910.9649 916.5139 921.5386 930.8344 934.6333 937.7363 939.8881 943.1342 945.2652 946.8053 947.9165 949.602 950.3885 
939.7982 931.4657 926.8563 922.5405 918.5323 903.2485 894.3446 887.5491 881.6599 865.3164 857.116 852.0651 849.3102 848.7311 849.7328 850.4869 850.4624 846.7844 843.5986 838.0244 831.837 823.1079 814.8493 808.3639 803.371 798.1943 794.3685 790.334 786.1971 779.2745 777.4263 776.1879 774.8892 772.5103 771.5901 770.5635 769.4667 767.2396 766.0468 764.8716 763.0263 762.3583 761.7233 761.2122 761.1403 761.8549 762.976 764.7198 768.8259 770.8116 773.1085 775.6644 780.7411 782.5869 784.6103 787.4902 793.7374 795.54 797.7343 800.5441 807.2291 811.2065 814.1435 816.1479 820.6351 823.7205 828.5632 843.1611 854.1789 861.0976 867.6661 873.4461 884.2478 889.9019 897.2081 904.0871 916.829 923.0066 928.128 932.8378 940.6404 943.796 946.2783 950.3651 952.7133 954.0164 954.521 955.1866 955.4946 
935.4805 928.5272 923.9069 919.4626 914.7344 898.8561 890.2326 884.2049 878.0049 861.4555 854.1861 848.3929 844.1182 843.3042 844.0316 844.666 844.6489 842.2318 837.9363 832.6823 827.7701 819.9255 814.8493 803.8993 801.6708 795.7008 792.4528 789.0379 785.6348 779.8219 777.696 775.8682 774.2219 771.5512 770.1304 768.9305 767.8117 765.3235 764.2786 763.4294 762.6273 761.1147 760.7319 761.0392 763.3331 764.5813 766.0655 768.1504 772.5149 774.9268 777.5413 780.4813 786.5799 789.7217 793.0882 796.2357 800.8405 802.5035 804.2283 806.9877 815.8322 819.3215 822.1884 824.8206 830.1729 833.8162 838.3482 843.1611 860.114 866.6854 873.4232 879.7537 891.8113 899.5538 905.7216 910.6819 923.2501 929.251 934.3938 939.015 946.3719 949.5073 952.5376 955.1995 958.7291 959.4579 959.8537 960.1932 960.4295 
929.8002 927.4363 919.8433 915.2129 909.4841 901.5867 886.6005 881.4935 874.3657 857.6316 850.5754 843.9833 839.5423 837.1342 838.0271 838.766 838.9058 835.2463 831.0349 827.2399 823.7638 815.228 807.5817 803.8993 799.27 793.3289 790.3263 787.3253 784.3815 779.1896 777.0056 775.1693 773.312 770.2382 768.6309 767.2263 766.0107 763.599 762.7553 762.1196 761.2971 760.7723 762.216 763.9852 765.5593 767.8051 769.0596 771.1033 773.6307 778.9317 781.704 785.0073 792.4113 796.0841 799.5944 802.7284 807.6999 809.4669 811.1641 814.6696 822.8011 826.5435 830.0933 833.5542 841.0095 843.4926 846.2757 849.4662 860.114 872.2874 878.867 886.064 902.131 907.0428 911.2253 915.8179 927.7321 933.8227 939.0017 943.6158 951.9285 955.6309 959.2751 962.3684 966.3243 966.998 966.9266 966.6805 966.4472 
923.4954 921.3274 914.4914 909.4745 903.1469 895.6046 883.3794 878.1995 870.6047 862.0707 846.6656 840.6416 835.0366 829.7055 831.0427 832.4715 832.7713 829.4501 826.0889 822.7568 820.0964 807.8615 804.7106 802.0681 799.27 793.3289 787.8069 785.0609 782.4686 777.8848 776.0263 773.7966 771.5109 768.5174 767.0807 765.6095 764.2799 762.3363 761.5978 760.6506 760.2918 764.2512 767.2598 769.3188 770.6043 772.5922 773.4926 775.0065 777.1971 782.7336 785.9897 789.7513 793.6764 801.6595 805.9467 809.0686 814.5042 817.5811 818.8534 820.7404 828.4257 832.9978 838.5735 842.6481 847.3069 849.613 852.205 855.3307 865.986 872.2874 884.8122 893.5574 907.0996 911.1715 915.1692 919.985 931.449 937.3967 942.7487 947.4089 956.959 961.2134 966.0459 970.186 974.9369 976.1245 975.9888 975.3364 974.2711 
916.6727 914.2627 907.9448 903.1656 896.6552 890.2222 880.2336 872.9191 865.5027 858.5107 843.1397 836.6461 830.9468 826.7622 824.9691 826.0298 826.642 823.7335 820.8693 817.931 813.491 805.2123 802.3532 799.5139 796.5298 790.6438 787.8069 782.4647 780.09 775.8833 773.9802 771.811 769.7366 766.5685 765.3029 763.9661 762.8217 761.1237 760.2094 760.4687 762.8694 770.2083 773.7144 776.3309 777.8026 779.0321 779.42 779.6444 780.5706 786.2969 789.7859 793.5453 797.898 806.6478 810.5995 814.1761 817.3336 823.6676 826.3043 827.8657 834.8863 841.3467 844.9812 847.6094 852.3669 855.2159 859.86 863.8831 871.5857 877.1639 884.8122 898.9746 910.8079 914.731 919.0551 923.5139 935.4472 941.1285 946.358 951.3035 962.449 967.4735 972.8782 977.2751 982.3458 983.3212 983.6294 983.2945 981.9406 
908.072 905.9148 900.06 896.1649 890.8457 885.489 875.8438 867.6136 860.8848 854.5844 840.0354 833.7153 827.9803 822.5503 818.4443 818.7458 819.0283 818.8055 815.5163 811.8637 807.4861 802.831 799.5338 796.587 793.3992 787.5516 784.963 782.4647 777.5468 773.494 771.4684 769.5521 767.8856 764.8526 763.4615 762.4182 761.5806 760.025 760.9869 764.5652 768.8904 776.644 779.9922 782.6741 784.2087 784.7921 784.8 784.9353 785.3567 789.3347 792.3037 796.6094 801.6406 811.118 815.6629 819.3304 822.6592 830.4521 832.9302 834.7116 837.3265 845.7687 849.4371 852.3217 859.2428 865.1533 869.4886 873.0831 880.0919 884.657 890.862 898.9746 910.8079 918.8072 922.725 927.1179 939.4221 945.0307 950.1198 955.3579 967.1405 973.3135 978.5949 982.8127 988.4326 989.2346 989.7886 989.8486 988.8542 
899.6956 898.2143 893.4777 889.5553 885.3917 880.8061 869.4286 863.2448 857.5051 850.5925 837.0107 831.3418 824.3609 817.423 810.0477 810.5711 811.3134 811.5592 809.6736 806.4788 804.1674 802.0446 795.6804 792.0238 788.9579 786.3986 781.6804 779.6729 777.5468 770.7997 769.0474 767.4881 766.0845 763.377 762.1937 761.3387 760.437 761.6588 765.9769 770.3637 774.7672 782.2336 784.7188 786.7388 788.3133 790.5449 790.6637 790.8967 791.2582 792.0101 794.4711 799.1836 804.4094 815.0511 819.5713 823.5459 827.5995 834.7617 837.9896 840.9751 843.7507 851.26 854.559 858.3373 862.979 872.7076 877.3437 881.1782 889.0123 893.5513 899.6806 905.7089 915.1234 918.8072 926.7419 931.7503 943.6501 949.2825 954.1561 959.0776 972.7241 978.5655 983.7261 987.7142 993.3141 994.7481 995.3295 995.5803 995.8253 
893.6995 891.9824 885.9324 882.7487 879.3232 874.8727 864.1876 858.8273 853.1865 846.3344 834.3203 828.9077 821.3936 812.9664 802.1965 802.1826 802.8386 803.2795 803.8344 802.2703 798.801 795.4539 789.3785 786.5693 784.0815 781.922 778.5576 776.9595 774.9359 772.7604 769.0474 765.6199 764.3667 762.0145 761.1783 760.3948 759.6155 767.2755 771.183 774.9764 779.0576 785.8494 788.3368 790.606 792.4423 795.8671 796.3714 796.4427 796.5142 796.7906 798.7648 801.9929 806.3204 817.271 822.083 826.7002 830.955 839.2943 842.9647 845.8576 849.1451 857.6981 861.8828 866.0436 870.5406 879.8539 884.4291 888.6634 893.0869 903.1894 907.5929 912.0367 916.1901 923.0912 926.7419 937.3539 949.2476 953.8592 958.3102 963.1303 978.0944 984.7996 989.0556 992.2791 998.3394 1000.441 1001.364 1002.11 1003.957 
884.2646 882.887 877.2371 875.0029 872.0139 867.9564 858.9023 854.0148 848.127 842.0125 831.2844 825.1246 817.8796 810.3589 798.1203 795.292 794.9998 796.1562 796.2324 794.3972 792.6934 790.3284 782.2851 780.4365 778.877 777.1729 775.3547 774.3209 772.3956 770.2247 767.0516 765.6199 762.8953 761.7741 760.2219 759.0899 762.5538 771.8149 775.093 778.5972 782.1581 788.9348 791.7624 794.5221 797.3054 801.3222 802.4675 802.6312 802.5739 802.791 803.1551 804.4754 808.0077 817.8813 823.4351 828.8038 833.4609 842.0633 845.9635 849.6968 853.3244 863.7658 868.1456 872.2644 876.881 886.016 890.469 895.8502 901.3256 909.5388 913.5193 917.3403 921.0777 927.8439 932.4398 937.3539 949.925 958.4189 962.2843 967.9302 981.8153 988.2421 992.6927 996.5092 1003.158 1006.354 1009.2 1011.052 1013.732 
873.2893 872.8225 869.7579 867.5413 864.4769 860.7474 853.2256 848.7551 843.1957 837.72 827.2964 820.7816 814.4319 808.5204 794.2982 791.3616 790.7838 791.343 791.3468 789.9685 787.9905 785.6554 779.8483 776.6481 773.6409 771.9283 772.5013 772.0297 770.2166 768.1733 765.3287 764.2 762.8953 761.0264 759.5556 762.0336 767.2507 772.0784 778.1011 781.4094 784.9421 791.9273 795.6681 799.784 803.2476 807.1592 808.4821 809.0351 809.1612 809.4591 809.6535 810.0504 811.8972 818.6863 824.4371 829.9729 835.1498 843.883 848.0135 852.4739 856.9069 867.4415 872.04 876.2051 880.9376 891.4568 896.8271 902.2913 906.966 914.6914 918.6173 922.8468 926.7258 934.6666 939.2217 944.5402 949.925 958.4189 967.486 973.3193 979.6086 990.8389 995.4611 999.7238 1007.965 1011.699 1016.122 1020.345 1023.968 
863.7652 863.3968 862.5074 858.8129 856.7499 853.7795 847.3871 843.5016 838.437 833.1583 823.0992 817.5652 811.7603 805.6213 792.8984 790.2916 788.9473 788.3496 787.3178 786.1154 784.5168 782.4326 775.9418 772.3188 769.3915 768.1858 769.2148 768.9928 767.9673 766.4957 764.0162 763.0747 762.0526 761.0264 761.3075 767.1808 771.6902 774.7244 780.59 784.1256 787.8412 791.3848 800.351 804.9803 808.3354 812.9865 814.8769 815.7272 816.2928 817.6968 818.3262 818.5594 818.3063 821.4818 826.0404 831.2267 836.7947 845.7419 849.8243 853.9874 858.772 868.9872 874.3553 879.4094 884.9979 896.093 902.0005 907.0769 911.4838 919.7748 924.7896 929.0057 932.7935 941.0919 946.1346 951.1045 955.6211 962.9011 967.486 978.5741 983.457 993.7813 998.4519 1003.291 1008.48 1017.802 1022.349 1026.919 1032.271 
854.9332 854.2912 853.4977 850.8365 849.536 847.8391 845.376 838.0758 833.0973 828.1476 818.9943 814.3636 809.1659 802.8347 791.6277 788.8701 786.9738 785.7723 784.3521 783.2861 781.6644 779.1765 772.0579 768.9872 767.5361 766.978 766.6762 766.4268 765.8176 764.7944 762.7383 761.8097 760.9153 759.9907 761.3075 767.1808 774.2883 777.1105 783.3624 787.1384 790.7178 794.7663 804.5553 808.8337 812.3137 815.1949 820.1144 821.536 822.7943 824.1513 825.3373 825.3745 825.2361 826.4337 828.5452 832.6349 837.8847 846.8608 850.7052 854.8976 859.5831 870.0378 876.4579 882.8411 888.9704 899.752 904.9556 910.4133 915.6533 925.1898 929.5893 933.963 938.255 947.4153 952.1417 956.8846 961.1644 969.2316 974.0622 978.5741 986.7667 996.9969 1001.998 1007.671 1013.015 1022.781 1027.884 1032.866 1036.524 
847.9296 847.4537 846.9766 844.9026 843.3362 841.4538 838.6232 831.581 827.7621 823.4971 819.0905 810.4265 806.037 800.0326 789.5366 785.6586 783.7376 782.9995 781.8888 780.5121 778.4193 775.524 769.0279 767.733 766.7402 765.8276 765.0028 764.3329 763.7059 763.0779 761.5724 760.7144 759.905 759.2101 767.7427 771.3549 774.2883 779.3677 786.3918 790.274 794.2426 798.8762 807.9619 812.0829 815.9583 819.1205 824.0907 826.3803 828.5085 830.3059 831.6266 831.7278 831.8192 831.8443 832.8911 835.3445 839.0262 847.3421 851.2888 855.6904 860.6412 871.6913 878.3629 885.5593 892.0984 902.9346 908.3649 913.7684 919.3941 929.7431 934.0687 938.2272 942.6677 952.7636 957.8389 962.5292 966.9413 975.6881 979.3678 982.9996 986.7667 1000.675 1005.997 1011.346 1016.241 1025.466 1033.435 1038.35 1041.104 
841.306 840.7439 839.9484 836.8438 835.0702 833.1105 830.3626 824.5647 821.808 818.7991 814.8309 805.9517 801.3815 796.0676 790.7511 781.664 780.1966 779.7817 778.5369 776.902 774.5579 771.9038 767.7424 766.6018 765.6456 764.8615 763.6624 762.999 762.5051 762.0433 760.5295 759.7966 758.749 761.2163 770.9131 773.9747 776.6345 779.3677 789.6559 793.6675 798.1653 802.8745 811.0243 814.8858 818.6746 822.1287 828.1626 830.5953 833.1747 835.4026 837.4354 837.6451 837.7147 837.8768 838.8642 839.6481 840.8284 843.5977 851.8878 856.7186 862.4709 874.2419 880.6823 888.0373 894.7319 905.9651 911.9659 917.5472 923.2247 933.1478 937.9846 942.205 946.3522 957.2802 963.3157 968.1904 972.8046 980.0884 983.5328 986.9769 991.2092 1000.675 1005.997 1014.254 1019.076 1030.425 1037.531 1041.914 1044.942 
831.6083 831.2499 830.5343 827.9595 826.4218 824.7245 822.5513 817.6191 815.3184 812.9314 809.6367 800.9768 796.2217 791.2855 786.3691 778.9475 777.1116 776.1694 775.5079 773.093 771.3751 769.4348 767.7784 765.546 764.5887 763.8247 762.5032 762.1259 761.6271 760.9669 759.601 758.9917 760.737 765.7394 773.5984 776.2392 778.8858 781.9869 789.6559 797.6331 802.4995 806.6669 813.6546 817.0695 820.9257 824.6687 831.6045 834.9895 838.4695 840.9169 842.879 843.3253 843.6783 843.9679 844.1865 844.2326 844.3802 846.002 852.6888 858.3373 864.7014 870.7198 883.3038 890.3813 897.394 908.836 914.6232 920.9007 926.4156 936.0245 940.4672 944.8837 949.1284 962.6083 968.3003 974.0792 977.9924 983.9127 987.5295 991.6479 996.5839 1004.886 1009.343 1014.254 1023.223 1035.123 1040.272 1044.28 1047.718 
823.3385 822.9596 822.1271 820.1235 818.9962 817.6606 815.7777 811.3538 808.9606 806.4096 803.4677 795.8936 791.4714 786.452 782.0708 775.7931 773.7236 772.572 771.894 770.2123 768.7963 767.6065 766.5571 764.3794 763.5016 762.8281 762.2783 761.1921 760.5916 759.9739 758.9853 760.4537 766.2139 770.8118 775.9044 778.3928 781.2277 784.929 793.2543 797.6331 806.2398 809.7241 815.8797 819.4778 823.6199 827.3782 835.8458 839.9159 842.8588 844.9337 847.838 849.0038 849.9396 850.3861 849.9727 849.7205 849.677 850.25 854.3243 860.6601 867.2167 872.9496 886.0859 893.2382 900.1187 905.9935 916.4223 923.9197 929.5092 933.7396 942.8731 947.4007 952.6483 966.1438 971.6727 976.3712 980.3286 986.9915 991.2693 996.5236 1001.19 1008.257 1011.813 1017.552 1023.223 1037.792 1042.465 1046.691 1049.911 
816.5203 816.1297 815.2808 813.165 812.0135 810.7747 809.269 805.4406 802.8236 800.2345 797.3229 790.0442 785.5186 781.351 777.9072 771.3876 769.6898 769.0862 768.7733 767.7754 766.9276 765.9808 765.0005 763.1662 762.4248 761.8453 761.3187 760.1548 759.6993 759.1068 758.8193 766.1462 770.3384 773.3557 778.2072 780.6225 784.2339 788.4953 797.5049 802.412 806.2398 809.7241 819.3475 822.9946 826.7925 831.1469 841.2088 843.9991 846.3109 848.5034 852.742 854.2397 855.4202 856.1201 855.8345 855.3522 854.8415 854.5705 857.4888 863.2379 869.2762 874.7969 888.9976 896.1616 902.45 907.8275 918.847 926.0633 931.3395 935.2293 944.8115 950.3128 956.8585 963.457 974.0663 978.5676 982.6305 990.2175 995.5388 1000.455 1004.4 1011.332 1016.132 1022.478 1028.007 1037.792 1044.785 1048.767 1051.861 
809.8256 809.2691 808.3957 807.0706 805.6006 804.0242 802.3724 798.3151 796.2332 793.972 791.0147 783.9277 780.1125 776.7914 773.7236 768.3538 767.2289 766.7831 766.524 765.673 764.9934 764.2258 763.3822 761.8486 761.2956 760.7684 760.1949 759.2227 758.7963 758.488 761.0143 770.6634 773.6099 776.0775 778.4605 784.3373 788.7114 793.0828 803.1448 807.076 810.3758 813.4118 819.3475 827.0881 830.8902 836.1948 844.9066 847.3474 849.5295 851.7997 856.5738 858.4593 860.1477 861.3134 861.6036 861.0895 860.6855 860.4821 862.2252 865.8331 870.927 876.6507 891.8479 899.2708 904.9475 909.7631 920.5022 926.507 931.8419 936.3738 947.1831 953.2538 960.149 966.4863 976.2653 980.8341 985.1816 989.4431 999.6754 1003.632 1007.041 1014.595 1020.823 1026.631 1031.309 1040.069 1044.785 1050.942 1053.577 
803.5267 802.7918 801.7763 799.3511 797.8154 796.3275 794.8882 790.8036 788.6923 786.3787 783.7656 778.299 775.2791 772.1688 769.7691 766.9778 765.8638 765.0751 764.5816 763.6833 763.1193 762.507 761.8652 760.6214 760.0311 759.5259 759.1422 758.4327 758.6543 762.1296 767.075 774.0554 776.6706 778.9509 781.5322 789.4434 793.9093 799.175 804.2087 811.3784 814.3468 817.2422 823.593 827.0881 835.796 840.4639 847.3188 849.8091 852.1285 854.715 860.4561 863.0177 865.1372 866.5765 867.5305 867.2997 867.02 866.8301 867.809 869.7866 873.714 879.4714 894.654 901.9852 907.1539 911.4866 922.1234 927.4692 932.9093 937.9698 949.8762 956.2824 962.4979 968.3972 978.5153 983.4825 988.2128 992.9377 1002.16 1006.012 1009.628 1013.615 1024.43 1029.995 1034.674 1043.115 1047.606 1050.942 1053.577 
803.5267 795.5765 794.5856 793.4749 790.5366 788.8956 787.0865 783.2349 781.387 779.3282 777.0874 772.4455 770.3215 768.4277 767.1028 765.1624 764.2322 763.5023 762.953 761.9639 761.472 760.9622 760.3492 759.2286 758.8635 758.6821 758.3568 759.4031 763.6086 768.7569 772.6741 777.8634 780.1212 782.8847 786.3724 794.9016 800.431 805.4502 809.4177 815.3232 818.3406 821.5646 824.696 831.3922 835.796 843.8021 847.1243 852.2657 854.9509 858.0823 864.4446 867.081 869.6114 871.7564 874.0403 874.6913 874.5255 874.1743 874.1682 875.1975 877.9232 883.1077 897.7308 904.0106 908.808 913.0707 924.1928 929.6868 935.1135 940.4402 952.4393 958.9466 965.0121 970.7305 980.9087 985.7431 990.7586 995.9597 1004.697 1008.533 1012.426 1016.907 1027.978 1034.105 1038.663 1042.338 1049.912 1052.943 1055.74 
796.8593 795.5765 788.3021 786.7567 783.2531 781.8475 780.263 778.5208 774.9714 772.9495 771.033 768.056 767.0049 765.971 764.9541 763.2459 762.5338 761.978 761.4417 760.4835 759.9869 759.4739 758.9232 758.2975 758.175 757.8168 758.2953 766.3602 771.3203 774.6191 777.2271 782.2747 785.2013 788.9061 792.5031 801.9107 806.7526 810.8008 814.1599 820.0518 823.3919 826.6823 829.524 836.1757 840.0966 843.8021 847.1243 855.3743 858.5064 862.0482 865.4814 871.4481 874.2137 876.8537 880.5015 881.451 881.5367 881.2543 880.4031 880.73 882.7226 886.6644 900.3749 905.8508 910.2757 914.8218 926.5994 932.0682 937.4949 942.9626 954.7032 961.3716 967.4936 973.0948 983.1655 987.9047 993.4681 998.8043 1007.073 1010.964 1015.222 1019.996 1032.076 1037.851 1041.939 1045.378 1052.118 1055.134 1057.931 
791.28 789.8745 788.3021 780.8215 777.4666 775.8978 774.3693 772.701 769.6583 768.2549 766.9318 765.7683 764.0338 763.1035 762.3419 761.4294 760.9266 760.4772 759.9974 758.9623 758.5581 758.2036 758.0461 757.5142 757.8446 759.8754 764.2629 774.0719 777.079 779.7617 782.4199 788.5585 792.2526 795.6932 799.3995 808.3365 812.5665 816.2662 819.5558 826.1146 829.1863 832.1576 835.1815 841.3304 844.4523 847.6134 850.4637 855.3743 862.3937 865.7338 869.3153 876.105 878.994 882.3846 885.5826 888.5027 888.3017 887.5639 886.1844 885.9661 887.0789 889.9438 902.4589 907.3028 911.6595 916.7402 928.9306 934.5185 939.795 945.2605 957.4406 963.8161 969.8416 975.3156 985.3812 990.5247 996.5427 1001.692 1009.431 1013.278 1017.946 1022.879 1033.177 1038.253 1043.226 1047.56 1054.376 1057.379 1060.18 
786.7206 783.8069 782.0977 780.8215 771.7499 770.2349 769.1707 768.1896 765.9941 764.8477 763.7557 762.6446 760.6172 759.7045 759.6676 759.934 759.3141 758.7637 758.3546 757.7802 757.6923 757.6336 757.0594 760.7557 763.5919 769.548 774.1199 779.7029 782.6091 785.5076 788.4805 795.3842 798.9598 802.6342 806.1924 814.8394 818.6382 822.1775 825.7458 832.2518 835.2863 838.2791 841.1381 847.0529 849.969 852.1323 854.1532 859.2929 862.3937 869.4589 873.556 881.0647 884.9047 888.6834 891.7653 894.9121 895.5028 895.2229 894.1999 891.8333 891.8563 894.1641 903.8771 908.6609 913.0659 918.8097 931.1707 936.9693 942.2849 947.4764 960.6257 966.5184 972.1064 977.4086 987.6516 993.2949 999.0398 1003.881 1011.728 1016.019 1020.811 1025.612 1035.542 1040.697 1045.885 1050.137 1056.951 1059.987 1062.305 
783.7516 780.3695 777.7784 775.5993 771.7499 770.2349 765.9138 764.9891 762.9211 761.8513 760.7825 759.7134 757.4561 757.1563 757.8422 758.2541 757.6005 757.3776 757.2906 757.25 756.6937 756.9496 760.1791 765.2242 774.4061 777.1758 779.8176 785.7422 788.889 792.0089 795.0618 802.329 806.4459 809.8875 813.6701 821.6179 825.3549 829.1552 832.6465 839.205 842.0481 845.0172 848.516 854.1869 855.6374 856.9843 858.6011 863.0252 865.8093 869.4589 877.9987 885.7296 889.8806 893.6888 896.9652 901.3453 902.5275 903.1913 902.7709 900.1122 899.3475 899.7938 901.7615 910.0341 914.6918 921.2751 927.9654 938.8105 944.2351 949.6292 964.134 969.2365 974.3032 979.5148 990.0045 995.8947 1001.164 1005.798 1014.036 1018.688 1023.461 1028.143 1037.703 1043.266 1048.398 1052.533 1059.413 1062.129 1063.956 
781.9485 778.285 774.4696 770.9934 767.7263 766.8096 765.9138 762.2701 760.1438 759.0537 757.8441 757.0782 756.6612 756.6559 756.9055 757.0525 756.9371 756.8275 756.7284 757.0941 762.6694 764.9734 770.0869 774.9696 779.9783 782.8853 786.066 789.2993 795.55 798.8439 802.3184 809.3024 812.9111 817.0543 821.0297 828.6794 832.4437 836.7745 840.7418 847.1046 851.0579 854.3881 856.3641 858.9935 860.2416 861.5521 862.9185 866.4127 869.8436 874.0251 877.9987 889.5838 893.5778 897.8162 901.5305 906.3791 908.1647 909.7118 910.0375 908.1002 907.059 906.2186 906.5464 911.9777 916.8168 923.7761 930.306 940.2955 945.9875 952.3424 959.6656 971.4246 976.1412 981.5649 992.5497 998.2578 1003.321 1008.029 1016.803 1021.515 1025.916 1030.272 1039.966 1046.057 1050.903 1054.752 1061.666 1063.591 1065.147 
