NCOLS 41
NROWS 57
XLLCORNER 277397.98
YLLCORNER 3856881.5
CELLSIZE 10
NODATA_VALUE -9999
1147.783 1141.73 1136.919 1132.004 1126.276 1122.108 1115.387 1111.522 1109.57 1109.02 1107.824 1106.72 1104.962 1102.702 1101.086 1100.344 1100.232 1099.069 1098.148 1097.56 1099.719 1107.276 1118.891 1123.642 1126.871 1132.197 1135.157 1136.974 1128.604 1121.946 1117.347 1112.308 1107.579 1098.3 1095.986 1094.799 1094.317 1093.335 1092.268 1090.558 1089.982 
1155.997 1150.404 1143.132 1134.22 1129.269 1123.317 1120.535 1116.214 1112.189 1110.095 1108.306 1105.625 1103.327 1100.708 1098.885 1098.068 1098.254 1097.227 1096.287 1096.797 1100.756 1108.02 1117.169 1120.847 1126.871 1129.447 1132.146 1135.077 1132.071 1124.999 1119.353 1114.714 1110.076 1099.407 1096.82 1095.396 1094.108 1092.568 1090.975 1089.021 1088.499 
1160.981 1156.096 1148.174 1139.621 1133.24 1127.524 1124.871 1122.088 1118.263 1114.036 1111.344 1106.59 1102.994 1100.385 1098.35 1097.042 1095.969 1095.124 1094.973 1097.051 1101.826 1107.774 1113.466 1120.847 1123.44 1125.525 1128.237 1131.861 1132.87 1127.181 1121.877 1117.025 1111.995 1101.688 1098.135 1096.24 1094.271 1091.565 1089.469 1087.331 1087.118 
1157.873 1154.202 1150.309 1146.337 1139.155 1130.561 1126.984 1124.46 1121.043 1116.028 1113.088 1107.576 1102.778 1099.817 1097.974 1096.386 1094.078 1093.248 1094.189 1097.27 1100.602 1103.586 1113.466 1115.988 1118.798 1120.795 1123.122 1131.354 1130.292 1126.284 1122.795 1118.063 1113.031 1103.106 1099.12 1096.572 1093.649 1090.166 1086.785 1085.902 1085.65 
1150.202 1146.977 1145.117 1144.814 1141.099 1131.332 1126.534 1122.244 1118.778 1114.45 1111.254 1103.679 1099.614 1097.872 1096.615 1095.091 1092.869 1092.082 1092.848 1095.349 1097.92 1103.586 1109.886 1111.608 1113.598 1116.127 1119.118 1126.647 1126.611 1123.347 1120.25 1115.859 1111.418 1102.496 1098.805 1095.681 1092.025 1088.646 1085.913 1085.181 1084.747 
1143.681 1138.985 1136.712 1137.595 1138.202 1133.225 1126.623 1120.384 1116.976 1110.953 1103.701 1099.775 1096.812 1095.445 1094.86 1094.959 1091.944 1090.616 1090.228 1091.744 1097.92 1099.323 1104.521 1106.596 1108.155 1110.973 1116.452 1125.641 1126.252 1123.503 1118.767 1112.278 1108.1 1099.653 1095.984 1092.746 1089.628 1087.084 1085.162 1084.628 1084.04 
1141.783 1133.936 1129.201 1130.046 1133.438 1136.173 1131.024 1123.663 1119.197 1113.757 1105.529 1101.499 1098.528 1097.165 1096.534 1094.615 1091.531 1090.205 1090.228 1091.744 1094.024 1096.498 1098.855 1101.72 1104.739 1109.183 1114.412 1123.689 1125.344 1124.532 1119.602 1111.311 1102.804 1098.44 1094.229 1090.002 1086.762 1085.097 1084.343 1083.793 1083.208 
1142.758 1132.573 1125.046 1123.637 1127.724 1135.765 1134.839 1129.412 1124.601 1120.667 1110.529 1105.651 1101.323 1098.903 1096.812 1094.46 1091.032 1090.205 1088.827 1088.173 1089.748 1093.654 1095.426 1097.817 1101.169 1105.802 1110.735 1119.735 1122.335 1123.054 1120.46 1113.397 1104.317 1099.736 1095.22 1090.464 1086.383 1084.233 1083.545 1083.117 1082.606 
1136.599 1130.286 1123.821 1121.056 1126.689 1131.216 1133.91 1132.024 1127.316 1124.927 1114.076 1106.754 1101.5 1097.904 1096.049 1091.965 1091.032 1089.579 1088.155 1087.003 1087.132 1090.821 1092.644 1094.494 1096.706 1100.096 1105.187 1113.791 1117.293 1119.156 1118.199 1114.246 1106.601 1102.374 1098.447 1094.057 1089.321 1085.777 1083.013 1082.603 1082.486 
1127.155 1126.573 1123.339 1115.311 1119.418 1125.802 1129.03 1129.678 1129.37 1125.142 1113.529 1107.529 1102.842 1098.072 1096.301 1091.965 1090.327 1088.923 1087.327 1085.798 1085.06 1088.23 1090.01 1091.727 1093.555 1095.58 1103.234 1107.734 1111.767 1114.31 1114.778 1114.899 1108.919 1105.474 1102.195 1098.348 1093.963 1089.565 1083.995 1083.099 1082.785 
1121.424 1120.529 1120.322 1112.323 1114.999 1121.908 1126.54 1128.582 1127.412 1124.785 1115.445 1110.407 1105.789 1101.086 1096.301 1091.691 1089.21 1087.657 1086.285 1084.667 1083.882 1086.137 1087.703 1089.175 1090.79 1092.446 1097.194 1101.241 1106.024 1110.203 1112.684 1114.311 1111.695 1109.604 1107.263 1103.62 1098.849 1090.06 1086.565 1084.808 1083.879 
1119.116 1113.092 1111.055 1109.714 1112.098 1118.9 1125.078 1127.908 1126.488 1124.217 1120.634 1115.368 1109.901 1101.086 1097.818 1091.371 1087.867 1086.116 1084.814 1083.126 1082.545 1084.225 1085.428 1086.592 1087.739 1089.058 1093.038 1096.076 1100.469 1105.919 1110.115 1113.437 1113.289 1112.81 1111.845 1109.863 1106.314 1095.02 1090.184 1086.609 1085.016 
1119.155 1110.829 1104.534 1100.444 1106.918 1116.659 1122.887 1126.483 1126.714 1123.132 1120.921 1116.371 1109.901 1104.968 1100.487 1090.709 1086.267 1084.603 1083.477 1082.04 1081.414 1082.402 1083.327 1084.228 1085.067 1085.664 1088.531 1092.167 1097.088 1102.584 1108.163 1112.261 1112.667 1111.736 1111.486 1110.672 1107.976 1097.865 1093.307 1088.976 1086.849 
1118.109 1109.099 1099.277 1095.757 1105.007 1114.637 1120.691 1124.545 1124.09 1117.815 1120.921 1116.371 1111.344 1106.639 1101.295 1091.433 1086.847 1084.559 1082.603 1080.991 1079.821 1080.685 1081.614 1082.489 1083.132 1083.592 1085.186 1089.139 1094.777 1099.893 1105.833 1112.966 1111.556 1109.127 1107.118 1104.342 1101.073 1096.412 1093.477 1089.798 1086.731 
1112.417 1106.37 1098.486 1096.589 1104.565 1113.203 1118.088 1122.205 1122.12 1117.815 1113.385 1110.189 1107.625 1103.188 1098.718 1090.741 1087.247 1084.321 1081.666 1079.673 1078.48 1079.457 1080.326 1080.978 1081.661 1082.469 1084.842 1088.236 1093.124 1097.798 1103.524 1111.663 1110.605 1107.487 1103.66 1099.418 1096.134 1091.629 1090.244 1087.985 1084.912 
1105.869 1100.968 1097.021 1096.869 1103.192 1110.225 1114.144 1116.751 1122.12 1112.617 1108.233 1104.682 1099.934 1096.583 1090.584 1087.868 1085.54 1082.952 1080.48 1078.314 1076.967 1078.014 1079.03 1079.838 1080.645 1083.213 1084.745 1087.592 1091.992 1096.495 1101.425 1110.658 1109.522 1105.902 1102.569 1098.638 1093.529 1086.313 1086.371 1084.637 1081.764 
1106.222 1100.935 1097.194 1096.609 1100.715 1105.758 1109.196 1116.751 1117.58 1112.162 1108.093 1103.792 1098.732 1094.131 1086.491 1084.81 1082.967 1080.771 1078.582 1076.808 1075.785 1076.583 1077.349 1078.334 1079.431 1082.245 1084.066 1086.862 1091.064 1095.745 1100.114 1108.395 1106.782 1102.448 1100.711 1099.006 1086.44 1082.332 1079.747 1078.374 1077.785 
1111.021 1105.41 1099.611 1096.271 1099.193 1102.415 1109.196 1110.931 1113.679 1112.14 1108.713 1104.333 1099.39 1093.863 1084.391 1083.423 1081.846 1079.531 1076.853 1074.946 1074.693 1075.665 1076.262 1076.724 1077.629 1080.367 1082.687 1085.764 1089.676 1094.758 1099.224 1103.612 1101.755 1098.593 1096.673 1095.653 1086.746 1080.595 1075.221 1073.427 1073.801 
1112.495 1106.365 1098.687 1094.803 1096.954 1102.415 1105.064 1106.81 1111.041 1111.978 1110.043 1105.801 1101.227 1096.551 1087.529 1085.608 1083.451 1079.736 1075.443 1073.025 1073.833 1074.595 1074.993 1075.357 1075.645 1077.263 1079.858 1083.643 1087.746 1093.146 1098.158 1100.82 1098.571 1094.499 1089.73 1088.844 1085.933 1080.395 1074.833 1072.561 1071.865 
1111.51 1105.533 1099.359 1091.435 1096.954 1098.766 1100.66 1101.914 1106.959 1110.065 1110.347 1107.173 1103.242 1099.862 1092.294 1088.939 1085.872 1080.882 1074.489 1072.206 1072.688 1073.234 1073.554 1073.855 1073.988 1074.106 1075.38 1079.224 1085.234 1091.322 1100.482 1099.41 1095.718 1090.948 1085.9 1082.751 1080.581 1078.011 1075.093 1072.558 1071.073 
1113.482 1109.008 1096.896 1091.435 1087.697 1090.464 1094.393 1096.006 1099.179 1102.492 1105.139 1105.125 1103.16 1101.24 1094.966 1090.322 1086.524 1080.717 1073.928 1071.207 1071.375 1071.821 1072.186 1072.333 1072.378 1072.496 1072.839 1076.201 1083.531 1090.016 1099.275 1097.219 1092.99 1088.897 1083.986 1077.635 1074.273 1075.406 1075.04 1072.543 1070.343 
1112.038 1109.008 1098.833 1093.014 1086.606 1084.514 1087.1 1089.714 1092.956 1094.888 1097.009 1099.129 1101.263 1098.597 1093.258 1087.783 1083.261 1077.78 1073.265 1070.27 1070.293 1070.573 1070.896 1071.122 1071.232 1071.779 1072.28 1075.259 1082.54 1088.841 1096.292 1092.985 1088.88 1085.876 1081.019 1075.579 1071.408 1072.205 1072.825 1070.729 1067.288 
1112.038 1107.576 1097.419 1091.906 1086.734 1083.931 1083.479 1084.891 1087.882 1089.207 1091.322 1094.377 1097.182 1096.424 1091.11 1085.245 1079.91 1074.906 1071.894 1069.388 1069.399 1069.605 1069.771 1070.099 1070.653 1071.311 1072.02 1074.731 1081.475 1088.007 1090.587 1088.37 1085.159 1081.524 1078.125 1070.456 1066.386 1064.941 1065.572 1065.61 1065.934 
1107.678 1103.592 1095.112 1090.507 1086.292 1083.809 1082.181 1082.009 1083.283 1083.612 1084.198 1086.494 1090.033 1093.009 1090.24 1084.612 1077.439 1072.659 1070.432 1068.342 1068.501 1068.693 1068.859 1069.129 1070.103 1070.815 1071.713 1073.467 1077.635 1084.881 1088.95 1085.776 1080.855 1076.956 1075.609 1066.625 1062.272 1061.433 1062.63 1063.297 1063.723 
1106.043 1100.94 1094.235 1090.717 1087.067 1084.816 1082.955 1079.453 1079.227 1079.596 1080.073 1081.368 1083.386 1087.851 1088.24 1084.032 1076.349 1072.182 1067.667 1067.207 1067.501 1067.68 1067.978 1068.262 1069.448 1070.38 1071.317 1072.055 1074.107 1080.345 1087.567 1082.903 1075.306 1071.462 1070.246 1063.096 1060.613 1060.448 1061.601 1062.498 1063.723 
1109.548 1104.999 1097.585 1095.202 1091.97 1088.499 1086.057 1079.581 1076.272 1075.38 1076.136 1077.331 1078.813 1082.674 1084.015 1082.145 1077.373 1073.748 1066.926 1066.079 1066.533 1066.775 1067.047 1067.481 1068.757 1069.597 1070.775 1072.006 1072.994 1082.17 1082.983 1078.378 1072.753 1067.457 1063.172 1060.893 1060.103 1059.772 1060.538 1062.498 1062.847 
1116.411 1112.755 1103.768 1100.775 1097.652 1092.315 1087.714 1080.748 1077.372 1074.608 1073.389 1073.388 1073.92 1076.208 1077.443 1077.695 1076.352 1074.686 1066.779 1065.201 1065.442 1065.855 1066.267 1066.781 1067.836 1068.659 1069.756 1071.122 1072.793 1077.045 1076.571 1073.387 1069.483 1065.491 1061.912 1059.601 1059.11 1059.075 1060.538 1061.517 1061.377 
1121.568 1112.158 1108.113 1104.439 1099.73 1093.797 1087.446 1081.853 1079.226 1076.688 1074.527 1072.812 1071.456 1071.584 1072.162 1072.869 1073.082 1072.339 1066.504 1064.499 1064.253 1064.873 1065.468 1065.792 1066.582 1067.383 1068.465 1070.032 1071.926 1075.125 1073.856 1070.057 1066.249 1063.811 1061.692 1059.185 1058.469 1059.075 1059.45 1060.195 1059.862 
1124.349 1117.336 1112.859 1107.31 1100.375 1094.808 1089.631 1084.413 1082.254 1079.489 1076.734 1074.287 1070.928 1070.342 1070.516 1070.618 1070.165 1068.797 1065.57 1063.955 1063.255 1063.78 1064.52 1064.842 1064.887 1065.355 1066.286 1067.887 1071.07 1073.817 1070.979 1065.438 1061.435 1061.038 1060.354 1058.022 1058.469 1058.179 1058.149 1058.198 1057.926 
1130.504 1121.45 1114.818 1108.388 1102.955 1098.346 1095.927 1088.433 1085.192 1081.73 1078.14 1075.297 1071.525 1070.767 1070.482 1069.767 1068.61 1067.082 1064.306 1062.951 1062.268 1062.523 1062.946 1063.303 1063.281 1063.319 1063.724 1065.018 1067.291 1067.432 1065.762 1063.032 1060.608 1059.561 1059.027 1058.022 1057.427 1056.952 1056.713 1056.661 1056.072 
1135.75 1122.644 1116.788 1112.354 1108.933 1105.134 1097.176 1091.334 1086.066 1082.648 1079.579 1076.806 1072.674 1071.753 1071.074 1069.742 1068.127 1066.275 1062.806 1061.547 1061.371 1061.885 1062.148 1062.255 1062.167 1062.038 1061.863 1061.845 1062.365 1064.508 1063.612 1061.55 1059.905 1059.561 1057.687 1056.838 1056.024 1055.524 1055.349 1055.237 1054.597 
1139.099 1126.743 1122.333 1119.153 1114.997 1111.041 1098.502 1091.331 1085.527 1083.275 1081.75 1079.716 1074.967 1073.436 1072.156 1070.667 1068.593 1063.917 1062.074 1060.742 1060.4 1060.917 1061.236 1061.029 1060.821 1060.598 1060.565 1061.021 1062.477 1062.156 1061.452 1060.887 1059.905 1058.59 1056.243 1055.261 1054.516 1054.069 1053.843 1053.812 1053.369 
1143.122 1133.78 1129.057 1123.903 1118.26 1112.017 1098.862 1093.066 1088.823 1086.3 1085.021 1083.502 1078.651 1076.055 1073.88 1072.013 1069.579 1063.802 1061.69 1060.047 1059.374 1059.51 1059.788 1059.531 1059.413 1059.511 1059.868 1060.607 1061.928 1061.283 1060.206 1060.887 1059.305 1057.03 1054.537 1053.463 1052.795 1052.578 1052.575 1052.573 1052.237 
1141.741 1137.713 1132.318 1125.549 1119.428 1113.32 1102.82 1098.73 1095.977 1093.043 1090.556 1088.361 1083.329 1080.016 1076.641 1073.95 1071.024 1062.745 1060.569 1059.113 1058.32 1058.113 1057.928 1057.533 1057.478 1057.709 1058.459 1059.38 1061.226 1060.209 1060.206 1059.373 1058.119 1056.289 1052.672 1051.31 1050.902 1051.036 1051.097 1051.491 1051.276 
1142.563 1138.458 1133.681 1127.912 1122.13 1117.99 1109.63 1105.909 1102.993 1100.498 1097.566 1091.293 1088.168 1084.752 1080.573 1076.709 1073.292 1062.176 1059.773 1058.299 1057.318 1056.927 1055.585 1055.292 1055.475 1055.895 1056.697 1058.118 1058.432 1060.209 1058.842 1057.789 1056.122 1054.537 1051.251 1049.737 1049.323 1049.609 1049.936 1050.159 1050.12 
1142.834 1139.844 1136.305 1131.939 1126.932 1122.962 1116.153 1112.93 1110.01 1107.231 1104.047 1096.541 1092.333 1088 1083.257 1078.372 1074.508 1063.184 1060.337 1058.744 1056.966 1056.021 1054.384 1053.54 1053.406 1054.022 1054.51 1055.117 1058.432 1058.132 1057.174 1055.626 1054.297 1051.251 1049.931 1048.925 1048.59 1048.591 1048.766 1048.87 1048.897 
1142.886 1141.439 1138.897 1135.426 1131.556 1124.782 1122.085 1119.249 1116.164 1113.108 1110.081 1100.502 1094.497 1089.109 1084.174 1079.581 1074.662 1065.584 1062.293 1059.749 1057.925 1056.744 1053.958 1052.877 1052.364 1052.556 1054.51 1055.117 1055.694 1055.375 1054.766 1053.895 1052.92 1050.613 1049.601 1048.792 1048.219 1047.987 1047.892 1047.823 1047.731 
1140.384 1140.691 1139.312 1136.896 1134.607 1128.581 1126.274 1124.013 1121.057 1117.735 1114.859 1104.407 1096.898 1090.526 1084.861 1081.165 1072.181 1068.424 1063.805 1060.562 1058.777 1057.408 1053.824 1052.319 1051.246 1052.556 1052.306 1053.104 1053.708 1053.564 1053.089 1052.52 1052.058 1050.272 1049.348 1048.588 1047.913 1047.368 1047.026 1046.735 1046.512 
1134.448 1135.943 1136.01 1134.942 1133.839 1129.517 1127.735 1126.255 1124.085 1121.262 1117.822 1108.467 1101.171 1094.333 1089.038 1085.677 1077.013 1071.344 1065.121 1060.919 1059.841 1059.104 1054.511 1052.426 1051.246 1051.314 1051.435 1052.328 1052.551 1052.438 1052.077 1051.551 1050.875 1049.703 1048.857 1048.146 1047.386 1046.762 1045.913 1045.6 1045.299 
1124.096 1126.476 1128.114 1129.738 1130.372 1128.372 1127.396 1126.563 1125.329 1123.349 1119.81 1111.423 1105.767 1099.777 1095.315 1089.938 1078.032 1071.936 1067.759 1063.568 1061.603 1061.378 1056.475 1052.426 1050.875 1050.306 1050.55 1051.375 1051.739 1051.531 1051.169 1050.981 1050.435 1049.157 1048.414 1047.609 1046.848 1046.187 1045.128 1044.722 1044.327 
1111.506 1115.176 1119.872 1124.659 1126.72 1125.252 1124.466 1123.802 1123.216 1122.17 1114.895 1111.188 1107.141 1102.384 1097.68 1090.37 1078.189 1073.631 1071.767 1069.578 1066.654 1064.319 1056.475 1052.411 1050.464 1049.296 1049.592 1050.247 1050.46 1050.468 1050.328 1050.205 1049.83 1048.466 1047.723 1047.074 1046.365 1045.774 1044.605 1044.052 1043.435 
1102.06 1107.088 1113.921 1120.58 1123.01 1118.822 1116.16 1115.376 1116.356 1117.266 1113.345 1108.91 1103.699 1098.919 1095.61 1090.867 1085.234 1080.784 1076.791 1074.818 1069.958 1061.688 1057.319 1052.928 1050.131 1048.585 1048.645 1049.068 1049.156 1049.185 1049.149 1049.011 1048.325 1047.666 1047.216 1046.952 1046.48 1045.829 1044.453 1043.495 1042.503 
1096.76 1103.953 1110.697 1115.1 1114.742 1112.108 1108.767 1107.987 1110.082 1112.479 1109.979 1103.992 1097.623 1092.412 1087.035 1085.508 1082.235 1079.806 1076.817 1075.108 1069.958 1059.165 1056.398 1052.693 1049.455 1048.045 1047.574 1047.788 1047.882 1047.927 1047.868 1047.737 1047.616 1047.625 1047.809 1047.818 1047.385 1047.115 1044.542 1042.961 1041.48 
1094.352 1101.917 1107.82 1109.534 1105.637 1105.379 1102.706 1099.965 1102.399 1105.808 1105.958 1101.658 1095.407 1089.137 1083.917 1074.721 1074.753 1074.866 1076.817 1075.108 1071.099 1060.142 1056.887 1052.611 1049.161 1047.613 1046.584 1046.549 1046.63 1046.719 1046.692 1046.802 1047.407 1047.986 1048.786 1049.177 1048.715 1048.596 1044.95 1042.532 1040.759 
1093.621 1099.61 1102.834 1103.762 1099.364 1100.619 1099.183 1094.632 1094.909 1098.752 1100.601 1098.63 1094.704 1089.473 1083.673 1071.482 1069.907 1074.866 1074.782 1073.536 1069.855 1062.42 1057.599 1052.104 1049.048 1047.293 1045.613 1045.796 1045.931 1045.928 1045.901 1046.108 1047.115 1048.223 1049.179 1049.535 1049.577 1049.249 1044.977 1042.095 1040.438 
1091.197 1095.228 1099.271 1100.014 1090.112 1095.741 1096.31 1088.447 1084.83 1088.321 1091.34 1092.584 1092.751 1089.387 1085.824 1072.837 1069.907 1069.41 1069.072 1068.341 1064.743 1057.11 1054.074 1051.14 1049.159 1047.247 1044.667 1044.587 1044.776 1044.839 1044.884 1045.199 1046.372 1047.521 1048.684 1049.388 1049.744 1047.646 1044.046 1041.159 1039.88 
1083.901 1087.572 1092.561 1091.526 1083.644 1088.691 1090.62 1084.495 1075.29 1083.467 1084.784 1086.729 1089.48 1090.038 1087.107 1072.837 1066.05 1061.583 1062.722 1064.042 1063.137 1052.582 1048.842 1048.986 1048.595 1046.823 1044.005 1043.552 1043.536 1043.524 1043.585 1043.876 1045.167 1046.229 1047.391 1048.408 1049.25 1046.161 1042.737 1040.051 1038.554 
1074.53 1079.89 1085.736 1083.314 1074.552 1083.927 1090.422 1084.306 1072.958 1076.085 1078.047 1082.256 1086.938 1088.521 1087.107 1075.741 1069.441 1063.27 1060.174 1060.167 1057 1052.493 1049.497 1047.88 1046.659 1045.841 1043.736 1042.878 1042.232 1041.977 1042.154 1043.052 1043.642 1044.345 1045.286 1046.448 1046.725 1042.995 1041.325 1039.526 1038.09 
1066.271 1073.884 1077.151 1071.29 1067.056 1080.636 1087.624 1080.274 1072.002 1073.074 1072.794 1075.758 1081.802 1088.521 1087.271 1078.768 1074.33 1068.814 1063.31 1060.201 1053.285 1050.87 1049.445 1047.818 1046.381 1045.177 1043.336 1042.341 1041.522 1041.201 1041.204 1041.789 1042.098 1042.484 1042.995 1043.497 1043.117 1039.384 1039.063 1038.505 1037.264 
1063.673 1067.049 1065.296 1060.002 1065.75 1076.287 1081.387 1074.49 1064.411 1064.733 1066.694 1072.302 1081.802 1085.287 1085.924 1080.508 1077.541 1073.953 1068.807 1063.165 1052.444 1048.599 1048.052 1047.192 1045.976 1045.065 1042.862 1041.841 1040.884 1040.487 1040.671 1040.661 1040.655 1040.744 1040.835 1040.722 1040.31 1037.781 1037.322 1036.891 1035.934 
1058.924 1059.026 1054.024 1057.478 1065.768 1073.399 1077.546 1073.042 1063.391 1060.155 1066.694 1072.302 1077.655 1081.323 1081.6 1079.966 1078.51 1076.715 1073.95 1068.238 1057.219 1051.533 1048.416 1047.514 1046.534 1043.971 1042.465 1041.146 1040.18 1039.663 1039.725 1039.731 1039.343 1038.925 1038.86 1039.07 1038.94 1037.459 1036.471 1035.474 1034.835 
1052.487 1050.737 1048.667 1057.783 1064.876 1071.599 1074.963 1071.293 1062.987 1060.155 1059.28 1064.78 1074.299 1079.583 1078.297 1076.805 1076.15 1074.833 1072.809 1069.106 1063.757 1057.763 1050.405 1048.791 1047.76 1043.923 1041.727 1040.34 1039.446 1038.784 1038.744 1038.676 1038.205 1037.709 1037.496 1037.683 1037.698 1036.792 1035.555 1034.464 1034.065 
1047.413 1046.759 1049.786 1059.238 1064.484 1069.832 1072.182 1068.406 1058.364 1056.19 1055.896 1059.75 1067.906 1075.666 1076.317 1074.068 1072.763 1070.152 1065.708 1061.468 1059.604 1057.577 1053.36 1050.306 1049.136 1043.777 1041.183 1039.801 1038.793 1037.92 1037.824 1037.76 1037.521 1037.146 1036.717 1036.676 1036.55 1035.544 1034.27 1033.477 1033.421 
1040.028 1046.701 1051.95 1061.721 1067.831 1073.148 1073.505 1068.406 1053.743 1049.294 1051.514 1056.181 1061.944 1071.546 1074.07 1071.859 1069.505 1066.17 1061.071 1052.68 1051.512 1051.651 1051.227 1049.829 1048.591 1042.408 1039.866 1038.914 1037.943 1037.109 1036.967 1036.903 1036.685 1036.367 1036.038 1035.759 1034.78 1033.995 1033.115 1032.58 1032.802 
1039.743 1048.824 1054.232 1065.169 1071.063 1075.243 1073.505 1068.921 1052.459 1047.56 1049.809 1054.235 1058.882 1064.878 1068.645 1067.409 1066.834 1065.877 1061.801 1048.282 1047.137 1047.166 1047.212 1046.505 1045.141 1040.678 1038.738 1037.866 1037.161 1036.459 1035.938 1035.786 1035.626 1035.42 1035.025 1034.586 1033.383 1032.732 1032.207 1031.923 1032.106 
1044.276 1052.318 1062.731 1068.727 1074.428 1075.243 1075.053 1069.399 1052.558 1047.377 1048.196 1051.471 1055.345 1058.949 1060.567 1060.957 1061.457 1062.281 1061.228 1049.467 1046.693 1045.287 1044.16 1042.509 1041.149 1039.146 1038.081 1037.006 1036.406 1035.871 1035.051 1034.815 1034.647 1034.415 1033.891 1033.497 1032.439 1031.87 1031.401 1031.218 1031.382 
1051.267 1056.314 1066.41 1072.065 1074.428 1077.317 1075.887 1070.669 1055.239 1049.433 1047.383 1049.104 1051.897 1053.935 1054.598 1055.357 1056.13 1057.027 1057.068 1050.644 1047.118 1043.839 1040.447 1038.609 1037.953 1037.133 1036.619 1035.96 1035.434 1035.055 1034.263 1034.024 1033.68 1033.243 1032.921 1032.57 1031.563 1031.149 1030.76 1030.495 1030.65 
