NCOLS 83
NROWS 85
XLLCORNER 361207.98
YLLCORNER 3876671.5
CELLSIZE 10
NODATA_VALUE -9999
1855.05 1855.697 1856.088 1856.164 1855.135 1854.947 1860.96 1866.004 1872.087 1878.503 1883.717 1891.118 1895.83 1900.607 1906.71 1913.671 1920.622 1929.562 1930.121 1929.662 1927.939 1925.16 1918.61 1915.179 1911.393 1907.535 1903.852 1900.154 1891.362 1887.367 1884.365 1881.77 1878.798 1873.203 1873.273 1876.047 1878.642 1880.582 1882.191 1885.02 1886.329 1887.545 1888.644 1889.385 1890.265 1890.653 1891.056 1891.484 1892.271 1894.413 1898.616 1903.648 1909.294 1915.094 1921.006 1935.428 1941.356 1945.728 1950.011 1954.038 1958.231 1963.572 1963.384 1960.355 1957.326 1954.723 1946.835 1941.515 1936.884 1932.331 1927.774 1918.371 1912.943 1906.469 1900.461 1894.973 1887.548 1874.873 1871.565 1868.683 1864.744 1862.461 1866.12 
1861.447 1862.536 1862.989 1863.182 1863.352 1863.871 1865.425 1869.153 1875.497 1881.55 1887.118 1895.907 1900.676 1904.991 1910.634 1916.821 1923.607 1932.525 1933.693 1933.09 1931.408 1929.14 1923.417 1920.1 1916.703 1913.042 1909.262 1905.602 1897.225 1892.402 1888.671 1885.816 1883.202 1879.096 1880.246 1882.697 1884.855 1886.624 1888.541 1892.583 1894.265 1895.91 1897.066 1897.671 1898.421 1898.873 1899.213 1899.289 1892.271 1894.413 1900.924 1905.865 1911.929 1917.939 1924.113 1940.505 1944.436 1948.553 1952.86 1957.328 1966.087 1968.521 1968.258 1965.591 1962.078 1958.381 1949.59 1944.354 1939.561 1934.867 1930.441 1920.183 1914.343 1907.812 1901.702 1895.421 1888.477 1877.045 1874.111 1870.981 1867.413 1866.767 1873.848 
1869.217 1870.064 1870.697 1871.381 1872.34 1873.396 1874.056 1875.446 1879.122 1884.514 1890.11 1899.696 1904.71 1909.409 1914.262 1919.543 1925.384 1937.012 1938.11 1937.062 1935.178 1933.06 1928.154 1925.14 1921.895 1918.381 1914.676 1911.046 1903.587 1899.19 1894.581 1890.546 1887.518 1885.029 1886.262 1888.645 1891.172 1893.656 1896.218 1900.62 1902.194 1903.703 1904.696 1905.225 1906.013 1906.354 1899.213 1899.289 1899.191 1902.991 1905.378 1909.514 1914.331 1920.458 1928.265 1942.7 1946.791 1950.692 1955.569 1960.601 1970.781 1974.855 1975.533 1971.707 1966.091 1960.934 1951.359 1946.424 1941.513 1936.839 1932.322 1922.065 1915.684 1909.841 1904.567 1897.592 1890.665 1880.631 1877.869 1875.025 1872.572 1873.566 1881.175 
1877.959 1878.423 1878.95 1880.093 1881.332 1882.211 1882.857 1883.532 1885.488 1888.95 1893.301 1901.871 1907.187 1912.373 1917.25 1921.964 1927.787 1940.669 1941.799 1941.099 1939.405 1937.286 1932.648 1930.011 1927.053 1923.758 1920.159 1916.644 1909.702 1905.792 1901.409 1896.87 1892.972 1889.898 1892.753 1896.105 1899.075 1901.657 1906.031 1907.731 1909.029 1910.238 1911.296 1912.008 1906.013 1906.354 1906.472 1906.337 1906.085 1910.687 1913.501 1914.606 1918.713 1924.278 1932.272 1944.618 1948.851 1953.621 1959.071 1964.192 1975.777 1978.656 1978.649 1976.075 1970.381 1963.955 1953.103 1948.121 1943.143 1938.583 1934.085 1923.978 1917.204 1911.538 1906.565 1900.618 1894.162 1885.93 1883.124 1879.528 1877.547 1879.029 1885.358 
1883.758 1884.292 1884.956 1885.71 1886.7 1887.839 1890.2 1891.683 1892.996 1895.707 1898.896 1905.159 1910.4 1915.208 1920.057 1925.016 1931.534 1943.001 1945.407 1945.663 1944.371 1942.225 1937.388 1934.736 1931.94 1928.998 1925.802 1919.052 1915.687 1912.339 1908.233 1903.5 1899.821 1897.32 1900.27 1903.553 1906.327 1908.604 1912.866 1914.939 1916.399 1917.762 1911.296 1912.008 1912.865 1913.32 1913.809 1913.28 1912.2 1917.298 1922.251 1925.328 1925.785 1929.191 1935.908 1947.085 1951.166 1957.087 1962.66 1968.049 1980.048 1984.123 1983.549 1979.808 1974.103 1967.535 1955.031 1949.683 1944.732 1940.278 1935.728 1926.114 1918.875 1913.002 1907.977 1903.367 1895.326 1892.298 1888.879 1884.209 1881.929 1883.625 1890.444 
1889.388 1890.432 1891.401 1892.406 1893.797 1895.573 1899.048 1900.834 1902.887 1904.888 1906.827 1912.286 1915.466 1919.113 1923.17 1928.78 1942.029 1946.589 1949.916 1950.699 1950.042 1948.052 1942.297 1939.608 1936.887 1934.027 1931.065 1924.631 1921.309 1918.193 1914.715 1910.584 1907.643 1905.669 1907.716 1910.361 1912.402 1915.146 1921.585 1924.015 1925.495 1917.762 1918.976 1919.772 1920.678 1920.838 1920.568 1919.968 1919.386 1925.139 1929.566 1932.62 1935.203 1937.931 1941.313 1950.005 1955.393 1961.586 1967.082 1971.992 1986.476 1989.665 1987.68 1982.917 1977.475 1963.565 1957.166 1951.367 1946.34 1941.838 1937.28 1927.768 1920.827 1914.365 1909.979 1907.162 1902.446 1898.507 1893.984 1889.847 1888.666 1890.229 1897.434 
1897.89 1899.891 1901.698 1903.484 1904.747 1906.477 1907.648 1909.322 1911.277 1913.438 1915.75 1919.747 1921.916 1924.762 1927.718 1933.042 1945.263 1950.517 1953.888 1955.148 1954.928 1953.085 1947.141 1944.415 1941.759 1939.089 1936.255 1929.989 1926.727 1923.491 1920.306 1917.314 1915.476 1912.392 1914.238 1917.503 1921.171 1924.82 1929.463 1924.015 1925.495 1926.556 1927.349 1927.858 1928.559 1928.418 1927.599 1926.604 1925.457 1930.294 1935.213 1939.523 1942.184 1944.447 1950.177 1954.909 1960.618 1966.1 1971.224 1977.177 1990.545 1991.837 1989.829 1985.48 1980.56 1966.567 1959.429 1953.051 1947.962 1943.128 1938.471 1929.089 1922.825 1916.313 1913.105 1911.5 1907.466 1903.975 1899.369 1894.673 1894.487 1897.511 1905.053 
1905.557 1907.542 1909.153 1910.338 1911.204 1913.202 1914.757 1916.933 1919.342 1921.646 1923.43 1926.581 1928.942 1931.364 1934.063 1937.84 1949.046 1954.314 1958.31 1960.417 1960.203 1958.132 1951.894 1949.071 1946.47 1943.944 1941.285 1935.52 1932.193 1928.815 1925.472 1923.321 1922.716 1920.848 1922.66 1925.736 1929.223 1924.82 1929.463 1931.124 1932.424 1933.652 1934.59 1935.465 1935.776 1935.782 1935.532 1934.689 1933.775 1936.587 1940.761 1944.713 1947.675 1949.99 1957.528 1962.999 1967.193 1971.506 1976.104 1982.235 1992.256 1992.953 1991.109 1987.44 1982.599 1969.539 1961.881 1955.312 1949.77 1944.847 1940.117 1930.069 1925.032 1920.655 1918.391 1917.08 1913.322 1909.351 1904.835 1901.337 1901.521 1904.476 1911.84 
1908.106 1911.511 1914.349 1916.133 1917.093 1919.909 1921.938 1924.216 1926.696 1928.922 1930.64 1934.574 1936.668 1938.736 1940.745 1943.377 1952.745 1957.855 1962.492 1965.082 1965.265 1963.514 1957.076 1954.047 1951.173 1948.556 1946.023 1940.633 1937.577 1934.207 1931.024 1929.465 1929.434 1928.416 1930.549 1925.736 1929.223 1932.382 1936.138 1937.554 1938.874 1940.304 1941.389 1942.157 1942.422 1942.607 1942.732 1942.359 1941.494 1942.873 1947.577 1951.083 1953.923 1957.229 1965.063 1968.787 1972.565 1976.878 1981.704 1986.82 1995.429 1996.886 1994.249 1989.703 1984.399 1972.115 1964.45 1957.855 1951.901 1946.716 1941.767 1932.394 1928.505 1926.128 1925.387 1924.657 1920.295 1915.699 1910.7 1906.791 1907.141 1910.378 1918.344 
1907.688 1911.344 1914.638 1917.075 1918.979 1925.148 1927.672 1929.08 1930.942 1933.288 1935.974 1941.304 1943.146 1945.278 1947.596 1950.263 1957.827 1961.985 1965.42 1968.312 1969.232 1967.974 1962.219 1959.137 1956.285 1953.436 1950.718 1945.318 1942.372 1939.138 1937.168 1937.001 1935.727 1928.416 1930.549 1933.902 1937.111 1939.544 1942.675 1944.174 1945.823 1947.535 1948.486 1948.895 1949.078 1949.182 1949.304 1949.22 1949.53 1952.409 1954.507 1957.443 1960.52 1963.799 1970.978 1974.512 1978.206 1982.402 1986.981 1991.463 1999.733 2000.869 1997.841 1992.376 1986.404 1974.506 1967.14 1960.553 1954.449 1949.177 1944.149 1937.113 1934.156 1932.448 1931.965 1931.37 1927.092 1922.68 1917.017 1913.008 1912.806 1919.8 1924.348 
1904.597 1907.253 1910.81 1913.798 1916.44 1925.238 1928.79 1929.861 1932.193 1935.535 1938.912 1943.707 1946.659 1949.907 1952.908 1956.284 1963.644 1966.56 1969.61 1973.011 1974.438 1970.731 1967.75 1964.595 1961.656 1958.867 1956.004 1949.858 1947.128 1944.625 1943.137 1942.872 1935.727 1936.347 1938.748 1941.377 1943.757 1945.822 1949.236 1950.897 1952.679 1954.299 1955.367 1956.287 1956.562 1956.764 1956.777 1956.561 1956.533 1958.806 1960.935 1963.644 1966.698 1969.93 1976.873 1980.439 1984.154 1987.916 1992.212 1996.555 2003.052 2003.39 2000.947 1995.394 1988.721 1976.277 1969.636 1963.047 1957.135 1952.22 1945.215 1942.35 1940 1938.921 1938.223 1936.849 1932.226 1928.946 1923.51 1918.436 1917.911 1925.479 1929.745 
1899.739 1902.024 1904.661 1907.889 1911.608 1919.886 1924.544 1928.1 1930.99 1934.441 1941.336 1943.659 1947.099 1950.886 1954.679 1959.364 1967.018 1969.587 1973.231 1976.437 1977.914 1976.062 1974.172 1971.429 1968.224 1964.7 1961.534 1955.539 1952.358 1949.573 1943.137 1942.872 1942.382 1943.582 1945.709 1948.073 1949.9 1951.835 1956.115 1958.106 1959.942 1961.258 1962.289 1964.264 1964.599 1964.742 1964.757 1964.318 1963.584 1964.776 1966.853 1969.47 1972.48 1975.782 1982.57 1986.281 1990.329 1994.65 1998.883 2005.663 2007.23 2006.515 2003.372 1997.981 1991.158 1978.274 1971.999 1965.226 1959.969 1956.33 1950.07 1947.26 1945.47 1944.72 1944.007 1942.404 1936.687 1933.188 1929.235 1924.895 1924.053 1931.116 1935.047 
1894.288 1896.701 1898.981 1901.396 1904.315 1911.818 1916.178 1921.49 1926.561 1930.687 1938.271 1941.532 1944.757 1948.628 1952.764 1957.733 1966.582 1969.578 1973.659 1977.032 1979.29 1980.47 1979.289 1977.533 1975.43 1972.581 1968.854 1961.892 1952.358 1949.573 1947.937 1947.94 1949.285 1950.337 1952.485 1954.601 1956.54 1958.62 1962.959 1965.482 1967.662 1969.198 1970.29 1971.849 1972.333 1972.255 1971.958 1971.538 1970.808 1971.284 1972.565 1974.899 1978.014 1981.319 1988.351 1992.715 1997.479 2001.92 2006.143 2012.434 2012.361 2009.694 2005.39 1999.998 1993.249 1980.342 1974.227 1968.098 1964.113 1961.732 1955.298 1952.422 1951.118 1950.802 1949.906 1948.078 1941.953 1938.474 1934.835 1931.437 1930.759 1937.262 1940.844 
1888.743 1891.251 1893.736 1896.058 1898.17 1903.806 1907.425 1911.682 1917.973 1924.496 1933.153 1937.235 1940.958 1944.604 1948.694 1953.45 1963.307 1967.271 1971.352 1975.306 1978.26 1983.741 1984.207 1983.238 1981.547 1979.317 1968.854 1961.892 1958.685 1955.268 1953.04 1953.523 1957.913 1959.231 1959.855 1961.167 1963.462 1968.964 1971.64 1974.077 1975.884 1976.973 1977.659 1978.63 1979.041 1979.031 1978.824 1978.613 1977.885 1977.582 1978.501 1980.866 1983.83 1986.792 1995.039 1999.672 2004.297 2008.754 2012.544 2015.371 2014.136 2010.871 2006.302 2001.298 1994.952 1982.401 1976.665 1972.376 1969.613 1967.354 1961.712 1959.402 1958.183 1957.395 1956.083 1954.089 1947.622 1944.268 1941.24 1938.073 1937.286 1943.539 1946.872 
1883.05 1885.616 1888.158 1890.731 1893.154 1897.292 1900.2 1904.173 1909.799 1916.897 1927.846 1931.937 1935.809 1939.346 1943.237 1947.897 1958.024 1963.504 1967.713 1971.539 1975.296 1984.064 1988.008 1988.185 1981.547 1979.317 1972.573 1968.627 1965 1961.894 1960.589 1961.54 1966.36 1967.979 1969.018 1970.567 1973.066 1977.067 1978.37 1979.65 1980.865 1981.864 1982.784 1984.402 1984.829 1985.111 1985.266 1985.381 1985.525 1985.692 1986.211 1987.544 1989.901 1993.176 2001.066 2005.171 2009.825 2012.778 2013.964 2015.568 2013.922 2011.2 2007.161 2002.5 1996.592 1984.64 1980.142 1977.245 1974.658 1971.999 1967.737 1966.564 1965.455 1964.026 1962.165 1957.183 1953.793 1950.421 1947.489 1945.096 1944.854 1950.37 1953.972 
1876.432 1879.544 1882.393 1884.881 1887.117 1890.808 1892.894 1897.586 1903.889 1910.38 1921.763 1926.296 1930.206 1933.719 1937.218 1946.636 1952.43 1958.117 1962.92 1966.779 1970.858 1980.837 1987.267 1988.185 1987.545 1986.077 1979.297 1975.625 1972.453 1970.253 1969.634 1971.24 1975.46 1976.274 1977.104 1978.087 1979.305 1981.982 1983.247 1984.588 1985.819 1986.886 1987.937 1990.323 1990.849 1991.123 1991.446 1991.767 1992.339 1992.6 1992.861 1993.884 1996.011 1999.008 2003.818 2008.603 2012.073 2012.85 2012.503 2014.019 2014.04 2012.631 2008.694 2003.643 1998.171 1987.511 1984.779 1982.71 1980.103 1976.929 1973.581 1972.945 1971.605 1970.033 1968.22 1963.812 1961.061 1957.67 1954.332 1951.987 1952.014 1957.386 1961.29 
1868.375 1871.886 1875.047 1877.629 1882.321 1884.421 1887.618 1892.709 1898.733 1904.71 1915.465 1920.138 1924.11 1927.922 1931.556 1941.182 1947.059 1952.519 1957.242 1961.564 1965.566 1980.837 1987.267 1989.475 1990.06 1989.007 1985.973 1981.185 1978.306 1976.657 1976.069 1977.217 1979.973 1981.037 1981.905 1983.03 1984.252 1986.799 1988.106 1989.877 1991.796 1993.509 1994.868 1996.63 1997.169 1997.435 1997.62 1997.927 1998.551 1998.708 1998.674 1999.424 2000.495 2001.159 2004.484 2006.56 2007.739 2008.486 2009.471 2011.714 2012.623 2012.672 2009.39 2004.269 1997.341 1993.767 1991.166 1988.987 1986.465 1983.173 1979.577 1978.995 1977.65 1976.076 1974.384 1970.264 1967.61 1964.568 1961.379 1958.927 1959 1963.447 1967.308 
1859.915 1862.77 1865.761 1868.332 1874.663 1879.106 1884.406 1889.583 1894.782 1899.989 1909.365 1913.652 1917.251 1921.057 1924.994 1936.319 1941.931 1946.936 1951.623 1961.564 1965.566 1974.52 1980.471 1987.111 1990.029 1990.026 1987.89 1985.27 1982.378 1979.653 1978.716 1979.667 1981.135 1982.952 1985.613 1987.686 1988.469 1990.948 1993.515 1996.592 1998.861 2000.286 2000.491 2000.456 2000.456 2000.456 2000.456 2000.456 2000.446 2000.551 2000.815 2000.766 2000.597 2000.17 1999.812 1999.351 2000.042 2002.011 2004.229 2007.502 2008.385 2008.993 2008.05 2004.452 2002.702 2001.592 1998.875 1995.908 1992.879 1989.432 1985.642 1984.945 1984.15 1982.756 1980.977 1976.415 1973.567 1970.719 1967.829 1965.535 1965.748 1970.826 1973.94 
1851.884 1854.189 1856.277 1859.521 1869.435 1875.721 1881.376 1886.607 1891.384 1895.838 1903.568 1907.269 1910.694 1913.822 1918.557 1931.907 1937.069 1946.936 1951.623 1955.76 1959.527 1968.221 1973.056 1977.873 1982.379 1985.622 1986.969 1984.796 1982.565 1980.664 1979.409 1978.869 1979.515 1981.418 1984.696 1987.813 1989.457 1992.995 1996.816 2000.198 2001.243 2000.793 2000.352 2000.328 2000.297 2000.274 2000.215 2000.097 1999.738 1999.524 1999.147 1998.311 1997.297 1995.354 1994.27 1993.739 1994.76 1997.085 1999.5 2002.742 2003.216 2003.655 2005.697 2004.617 2007.868 2007.516 2005.935 2002.951 1999.262 1995.656 1992.693 1992.276 1991.448 1989.895 1987.924 1983.542 1980.292 1977.015 1973.914 1972.012 1972.669 1978.469 1981.155 
1844.401 1846.582 1850.137 1855.527 1867.967 1873.622 1878.611 1883.219 1887.953 1892.255 1898.466 1901.392 1904.065 1907.768 1912.999 1927.417 1937.069 1941.085 1945.116 1949.236 1953.197 1962.009 1966.76 1970.907 1974.299 1977.301 1980.552 1980.529 1979.859 1978.471 1977.218 1976.113 1976.658 1977.84 1979.915 1982.631 1985.743 1989.865 1992.657 1995.862 1997.984 1999.067 1998.409 1998.146 1997.911 1997.767 1997.431 1996.744 1994.79 1993.762 1992.666 1991.588 1990.452 1988.564 1987.77 1987.438 1988.931 1991.334 1993.883 1997.54 1998.443 1999.501 2001.742 2004.31 2011.588 2012.224 2011.972 2010.451 2007.234 2003.674 2000.889 2000.5 1999.316 1997.487 1995.504 1990.899 1987.653 1984.258 1981.389 1980.148 1983.733 1986.129 1988.647 
1838.576 1841.848 1847.6 1854.309 1867.504 1871.503 1875.569 1879.71 1883.667 1887.523 1893.699 1895.71 1898.766 1902.924 1912.999 1927.417 1932.157 1935.736 1939.179 1942.582 1950.571 1955.424 1960.778 1965.222 1968.748 1971.712 1975.444 1976.246 1976.289 1975.465 1973.863 1971.567 1971.846 1972.838 1974.397 1976.576 1979.177 1985.249 1988.09 1990.616 1992.24 1992.798 1992.076 1991.616 1991.505 1991.506 1991.466 1991.038 1989.198 1988.102 1986.901 1985.781 1984.542 1982.503 1982.022 1982.668 1984.197 1986.217 1988.356 1991.498 1993.332 1996.409 1999.937 2003.982 2011.266 2013.687 2015.101 2014.658 2012.87 2010.175 2009.62 2009.023 2007.827 2005.909 2003.545 1997.744 1994.715 1991.598 1988.739 1988.276 1992.604 1986.129 1988.647 
1834.712 1839.979 1846.299 1852.9 1864.95 1868.491 1871.698 1875.127 1878.8 1883.695 1886.119 1888.972 1898.766 1902.924 1908.587 1921.695 1926.983 1930.426 1933.609 1936.632 1944.287 1950.188 1955.232 1960 1964.25 1967.405 1971.24 1971.911 1971.491 1970.168 1968.498 1965.353 1965.687 1967.224 1969.082 1971.087 1973.248 1978.244 1981.494 1984.999 1986.841 1987.126 1985.757 1985.109 1985.369 1985.774 1986.07 1985.783 1984.142 1983.122 1981.786 1980.294 1978.788 1976.099 1975.905 1977.568 1979.712 1981.729 1985.211 1986.633 1988.767 1993.481 1998.625 2002.769 2010.695 2013.474 2015.846 2016.459 2016.675 2017.922 2017.789 2017.247 2015.926 2014.107 2011.588 2004.99 2001.537 1998.071 1997.061 1998.125 1992.604 1995.336 1998.505 
1831.757 1838.307 1844.916 1851.685 1861.345 1864.53 1867.518 1868.954 1869.906 1873.762 1886.119 1888.972 1893.464 1898.923 1904.333 1915.402 1920.573 1925.078 1928.26 1931.314 1940.317 1945.917 1950.906 1955.55 1960.115 1963.969 1967.698 1967.551 1966.708 1965.341 1963.553 1960.78 1960.697 1961.702 1963.368 1965.253 1967.278 1971.918 1974.278 1976.729 1978.388 1979.071 1978.743 1978.453 1978.962 1979.811 1980.348 1979.503 1978.76 1977.833 1976.412 1974.562 1972.672 1970.008 1970.106 1972.085 1974.64 1977.133 1980.657 1982.999 1986.448 1991.492 1996.96 2001.449 2009.491 2012.916 2015.191 2017.033 2018.933 2022.597 2024.206 2024.713 2023.66 2021.75 2019.301 2012.771 2009.191 2006.56 1997.061 1998.125 2001.773 2003.317 2004.337 
1828.971 1836.136 1843.064 1849.517 1857.806 1859.872 1861.509 1862.159 1869.906 1873.762 1877.834 1883.796 1890.564 1895.883 1900.133 1909.627 1914.926 1919.263 1922.722 1925.831 1936.655 1942.206 1947.103 1951.449 1955.682 1959.97 1964.862 1964.383 1962.804 1960.809 1958.8 1955.248 1954.911 1956.045 1957.729 1959.486 1963.139 1965.221 1967.356 1969.322 1970.81 1971.871 1972.388 1972.448 1973.108 1974.294 1975.04 1974.012 1973.172 1972.043 1970.417 1968.2 1966.068 1963.972 1963.984 1965.636 1968.31 1971.317 1976.001 1979.909 1985.119 1990.274 1995.171 1999.695 2007.269 2011.222 2014.03 2016.229 2018.091 2022.719 2025.145 2026.616 2027.753 2027.318 2025.779 2022.574 2009.191 2006.56 2006.064 2007.3 2011.265 2011.917 2010.846 
1825.992 1832.523 1840.156 1846.344 1853.63 1855.283 1855.627 1862.159 1862.704 1866.484 1872.439 1879.975 1887.091 1892.357 1896.345 1903.418 1908.169 1913.194 1917.415 1921.448 1932.762 1938.557 1943.343 1947.652 1951.75 1958.986 1960.615 1959.87 1958.098 1956.168 1954.081 1949.907 1949.352 1950.326 1952.186 1953.867 1957.209 1959.117 1960.992 1962.186 1963.688 1965.234 1966.891 1967.578 1968.14 1968.612 1968.906 1967.944 1967.069 1965.813 1964.165 1962.26 1960.581 1958.731 1958.707 1959.941 1962.137 1964.528 1971.898 1977.396 1983.389 1988.682 1993.02 1997.101 2003.462 2006.832 2010.998 2014.022 2015.844 2020.229 2022.692 2025.16 2026.847 2028.195 2025.779 2022.574 2018.698 2015.473 2014.681 2016.198 2020.481 2018.851 2015.64 
1823.186 1828.237 1835.29 1841.418 1846.428 1855.283 1855.627 1855.556 1855.2 1862.344 1867.627 1875.411 1881.914 1888.029 1895.754 1898.669 1901.728 1905.608 1910.457 1916.461 1930.127 1935.134 1939.896 1944.201 1948.321 1954.361 1955.299 1955.147 1953.518 1951.482 1948.449 1942.938 1943.627 1945.09 1946.786 1948.213 1951.453 1953.432 1955.112 1956.379 1957.407 1958.493 1960.457 1961.101 1961.432 1961.853 1962.267 1961.621 1960.988 1959.992 1958.895 1957.522 1956.118 1953.65 1953.135 1953.925 1956.365 1959.422 1968.723 1975.311 1980.988 1986.121 1990.144 1993.08 1998.197 2001.071 2004.591 2008.629 2012.294 2016.882 2019.278 2021.949 2026.847 2028.195 2029.358 2026.734 2024.26 2022.928 2023.138 2024.192 2026.64 2024.516 2019.914 
1820 1824.933 1830.537 1844.503 1846.428 1847.201 1847.353 1847.471 1849.534 1859.272 1864.452 1870.268 1876.182 1881.693 1891.015 1893.169 1895.763 1899.277 1904.032 1911.324 1926.835 1931.841 1936.523 1940.83 1944.763 1950.977 1952.018 1950.975 1948.53 1945.294 1941.303 1936.834 1937.857 1939.367 1941.022 1942.896 1946.652 1948.339 1949.829 1950.531 1951.06 1951.681 1952.713 1952.733 1952.536 1953.576 1954.902 1955.115 1954.838 1954.521 1953.67 1952.173 1950.355 1947.216 1947.375 1948.852 1952.126 1956.656 1967.281 1973.609 1978.583 1982.642 1985.901 1989.223 1990.804 1993.968 1997.548 2001.527 2005.848 2013.041 2015.49 2021.949 2024.624 2026.597 2029.965 2029.967 2027.543 2028.721 2031.235 2031.467 2028.685 2025.587 2023.075 
1816.085 1824.933 1830.537 1837.544 1838.66 1838.997 1839.512 1840.592 1844.382 1856.076 1860.544 1865.111 1869.582 1874.011 1881.898 1886.349 1890.256 1895.47 1900.485 1907.66 1922.792 1928.36 1933.083 1937.286 1941.022 1946.355 1947.358 1946.032 1943.286 1939.873 1936.328 1931.93 1932.828 1934.285 1935.942 1937.887 1941.985 1943.72 1944.987 1945.912 1946.55 1946.912 1946.853 1946.538 1946.508 1947.384 1948.519 1949.012 1948.797 1948.335 1947.108 1945.078 1941.164 1940.377 1941.993 1945.71 1950.066 1955.054 1966.13 1971.48 1976.01 1979.073 1981.156 1983.847 1985.342 1987.687 1990.99 1995.334 1999.698 2013.041 2015.49 2018.007 2020.772 2023.795 2027.778 2029.556 2031.056 2036.024 2040.337 2039.231 2027.895 2026.084 2025.149 
1816.085 1820.448 1824.569 1831.028 1831.453 1831.076 1832.206 1835.606 1840.322 1851.111 1855.879 1859.66 1863.458 1866.987 1876.526 1882.347 1887.671 1892.775 1897.9 1904.575 1919.056 1924.719 1929.601 1933.618 1937.34 1942.18 1942.835 1941.514 1938.668 1934.939 1931.01 1925.577 1927.056 1929.083 1931.048 1933.03 1937.147 1938.981 1940.3 1941.605 1942.358 1942.57 1941.989 1940.906 1941.025 1942.087 1943.235 1943.294 1942.597 1941.568 1940.01 1938.146 1935.291 1935.906 1938.722 1943.634 1948.844 1953.921 1964.627 1968.707 1972.484 1975.485 1977.126 1977.925 1979.965 1982.987 1986.434 1995.334 1999.698 2007.454 2010.821 2013.638 2016.315 2019.267 2025.271 2026.815 2027.734 2031.642 2035.38 2034.576 2027.461 2026.042 2025.272 
1810.489 1814.302 1817.372 1822.171 1822.827 1824.445 1827.763 1831.925 1836.241 1845.11 1849.513 1853.463 1857.731 1862.131 1874.179 1880.545 1885.519 1890.178 1895.473 1901.516 1914.951 1920.432 1926.012 1930.059 1933.33 1939.101 1939.464 1937.233 1933.509 1929.645 1922.63 1920.843 1921.483 1923.493 1925.754 1927.823 1931.545 1933.252 1934.644 1936.049 1936.729 1936.823 1936.138 1934.73 1934.974 1936.292 1937.679 1937.474 1936.631 1935.538 1934.142 1932.589 1929.589 1931.458 1936.791 1942.425 1947.72 1952.611 1962.547 1966.232 1968.639 1970.534 1972.032 1973.725 1975.467 1982.987 1986.434 1990.371 1994.446 2001.904 2005.536 2008.686 2011.583 2014.348 2018.795 2020.909 2022.746 2024.746 2026.037 2025.957 2025.824 2025.516 2026.619 
1804.692 1807.587 1809.961 1813.695 1815.266 1818.476 1822.911 1827.736 1831.799 1839.225 1843.051 1848.313 1854.341 1860.083 1871.675 1878.554 1883.26 1887.736 1892.803 1904.082 1909.505 1914.994 1920.316 1925.22 1929.18 1933.997 1934.045 1931.597 1928.003 1924.507 1916.693 1913.958 1915.176 1917.485 1919.756 1921.881 1925.632 1927.24 1928.107 1928.5 1928.813 1928.925 1928.409 1927.628 1928.293 1929.949 1931.415 1931.59 1931.118 1930.216 1928.669 1926.808 1925.075 1928.261 1934.989 1941.076 1946.327 1951.204 1959.7 1963.155 1964.542 1965.236 1966.366 1973.725 1975.467 1978.513 1982.389 1986.141 1993.476 1996.959 2000.479 2003.326 2005.468 2007.462 2011.144 2013.081 2014.442 2016.022 2017.833 2022.09 2023.887 2025.201 2026.766 
1797.892 1800.073 1801.995 1805.278 1808.889 1813.22 1817.782 1821.89 1829.435 1833.258 1838.366 1845.029 1852.296 1858.305 1868.813 1875.125 1880.35 1885.044 1889.979 1899.36 1903.772 1909.172 1914.553 1919.759 1924.493 1929.114 1928.842 1926.531 1923.011 1919.088 1911.695 1909.881 1910.165 1911.939 1914.014 1915.818 1919.155 1920.795 1921.626 1921.989 1922.211 1921.807 1921.099 1920.249 1921.076 1922.798 1924.142 1924.5 1923.832 1922.429 1920.23 1918.17 1921.544 1926.639 1933.099 1939.07 1944.469 1953.474 1956.216 1958.31 1959.634 1960.654 1966.366 1970.112 1972.568 1975.384 1978.906 1982.567 1988.63 1991.617 1994.506 1997.308 1998.918 1999.703 2001.212 2003.351 2005.532 2007.677 2009.68 2015.998 2020.663 2024.773 2026.986 
1789.475 1791.421 1792.931 1798.313 1803.574 1808.041 1811.797 1815.326 1823.873 1830.128 1836.856 1843.48 1849.913 1855.54 1865.611 1870.963 1876.243 1881.122 1886.617 1895.399 1899.265 1903.75 1909.076 1914.804 1919.86 1925.091 1924.129 1921.126 1917.412 1913.557 1905.655 1903.349 1904.538 1906.813 1908.812 1910.374 1913.143 1914.463 1915.217 1915.604 1915.837 1914.826 1913.807 1913.222 1913.961 1915.289 1916.736 1916.8 1915.842 1914.639 1913.575 1912.995 1919.31 1925.066 1931.13 1937.297 1942.292 1950.206 1953.01 1954.437 1959.634 1960.654 1961.94 1966.805 1969.845 1972.908 1976.191 1979.345 1984.244 1986.555 1989.08 1990.778 1991.512 1992.032 1993.893 1995.471 1997.346 1999.344 2001.504 2011.122 2016.828 2022.984 2026.342 
1779.882 1780.917 1782.174 1790.799 1796.38 1801.36 1805.06 1809.549 1820.186 1828.367 1834.991 1841.098 1846.767 1852.159 1862.037 1866.995 1871.868 1876.706 1881.563 1890.889 1894.575 1899.119 1904.229 1910.683 1916.148 1920.27 1918.538 1915.654 1912.107 1908.227 1899.694 1897.138 1898.333 1901.197 1903.753 1906.716 1907.893 1908.823 1909.289 1909.417 1909.271 1907.41 1906.173 1906.044 1907.276 1908.801 1909.985 1909.718 1908.685 1907.413 1907.431 1909.744 1918.303 1923.731 1929.127 1934.947 1939.755 1945.381 1953.01 1954.437 1954.968 1955.348 1957.052 1964.375 1967.335 1970.344 1973.381 1976.193 1979.593 1980.566 1981.73 1982.688 1983.248 1983.811 1985.781 1987.086 1988.869 1991.139 1994.634 2005.236 2011.612 2017.339 2022.594 
1771.441 1772.447 1774.741 1781.711 1789.217 1795.255 1801.258 1807.18 1819.848 1826.741 1832.783 1837.807 1842.63 1848.002 1858.338 1863.268 1867.529 1872.343 1876.554 1885.272 1890.009 1895.968 1901.763 1907.768 1913.301 1916.679 1914.371 1910.787 1906.897 1902.959 1893.486 1890.228 1891.229 1894.45 1897.617 1901.42 1902.621 1903.541 1903.857 1903.737 1903.176 1901.179 1900.267 1900.346 1901.592 1903.158 1904.503 1903.526 1902.746 1902.068 1903.251 1907.41 1917.796 1922.724 1927.454 1932.071 1939.755 1945.381 1947.657 1949.011 1949.647 1949.988 1951.363 1960.71 1964.764 1967.522 1969.933 1972.25 1974.243 1974.296 1974.472 1974.035 1974.219 1975.057 1976.651 1977.604 1979.135 1983.499 1989.353 1999.862 2005.463 2011.63 2015.628 
1764.746 1766.736 1770.392 1780.222 1786.407 1793.156 1799.129 1804.558 1817.509 1824.28 1830.601 1835.212 1839.049 1844.073 1855.025 1860.497 1864.302 1869.123 1873.949 1883.003 1888.901 1894.644 1900.821 1906.112 1913.782 1913.17 1910.01 1906.06 1902.058 1898.029 1888.316 1884.361 1884.704 1887.683 1891.114 1896.042 1897.31 1898.196 1898.579 1898.547 1898.107 1896.362 1895.433 1895.291 1896.01 1897.058 1897.649 1897.014 1897.397 1899.239 1902.169 1906.77 1917.294 1921.918 1927.454 1932.071 1936.121 1939.995 1941.332 1942.417 1943.054 1944.287 1947.394 1957.291 1961.753 1964.86 1966.726 1967.681 1967.608 1967.051 1965.888 1964.571 1964.605 1967.665 1969.087 1970.573 1972.361 1976.82 1983.71 1995.048 1999.408 2004.634 2009.54 
1759.052 1763.773 1769.027 1778.491 1783.803 1790.273 1796.712 1801.94 1814.609 1820.903 1827.316 1832.36 1837.229 1849.137 1854.605 1860.435 1865.488 1870.602 1875.556 1884.873 1890.017 1894.879 1900.143 1904.338 1909.459 1908.628 1906.043 1902.274 1898.14 1893.874 1882.797 1878.185 1878.408 1881.422 1885.132 1890.826 1892.317 1893.176 1893.848 1894.216 1893.827 1891.617 1889.916 1889.164 1889.689 1890.733 1891.099 1890.855 1893.139 1897.583 1902.252 1907.054 1916.756 1921.918 1926.457 1930.048 1932.327 1935.105 1935.967 1936.808 1937.58 1939.051 1949.342 1954.291 1957.835 1960.501 1962.874 1963.498 1961.159 1959.859 1958.539 1957.414 1957.696 1960.704 1962.054 1964.075 1967.936 1972.323 1977.904 1989.469 1993.817 1998.028 2001.893 
1756.327 1761.456 1771.759 1778.515 1784.322 1790.295 1796.912 1802.41 1815.354 1820.898 1825.679 1831.291 1838.786 1851.864 1857.427 1862.786 1868.234 1873.898 1878.741 1886.76 1890.805 1895.09 1899.223 1902.927 1905.966 1905.046 1902.726 1898.919 1894.73 1889.593 1877.38 1874.068 1873.76 1875.938 1879.203 1884.993 1886.591 1887.673 1888.556 1888.881 1888.127 1884.616 1882.464 1881.986 1882.532 1883.26 1885.862 1888.707 1892.54 1897.62 1902.577 1912.228 1916.756 1920.498 1924.399 1927.464 1929.161 1929.788 1930.04 1931.019 1933.379 1936.135 1946.001 1951.672 1954.457 1955.722 1956.356 1956.423 1954.312 1952.67 1950.648 1949.055 1949.955 1953.739 1955.131 1958.8 1963.588 1968.481 1972.479 1981.96 1986.744 1991.162 1995.202 
1757.453 1762.949 1774.518 1781.133 1787.63 1793.902 1799.967 1805.895 1818.05 1823.132 1828.123 1835.489 1843.011 1855.344 1860.968 1866.178 1871.858 1877.275 1881.237 1887.864 1891.444 1894.902 1898.241 1901.055 1903.654 1902.599 1899.586 1895.663 1891.027 1884.815 1872.486 1868.365 1868.225 1870.645 1873.693 1878.861 1880.599 1881.523 1881.981 1881.686 1879.155 1877.13 1875.63 1875.569 1876.396 1877.17 1883.396 1889.032 1893.709 1897.62 1902.577 1911.924 1915.858 1918.68 1921.419 1923.688 1925.143 1925.604 1925.904 1926.572 1929.071 1933.602 1943.821 1947.967 1950.088 1950.455 1950.436 1949.593 1944.443 1941.639 1939.064 1939.277 1942.114 1946.321 1948.001 1952.128 1958.149 1963.826 1968 1974.967 1979.614 1984.657 1989.21 
1760.465 1765.566 1777.239 1783.608 1791.032 1797.389 1803.278 1809.01 1820.421 1826.088 1832.387 1840.078 1846.647 1858.174 1864.582 1869.894 1875.532 1879.669 1882.58 1888.312 1891.194 1893.855 1896.207 1898.177 1900.002 1898.667 1896.083 1892.343 1886.746 1874.009 1868.41 1864.629 1864.146 1865.702 1867.989 1871.951 1873.279 1873.9 1874.14 1873.862 1871.406 1869.625 1868.44 1868.354 1870.807 1874.241 1884.075 1889.032 1893.709 1898.586 1903.035 1910.961 1914.307 1916.491 1918.175 1919.44 1920.476 1922.614 1923.415 1924.599 1926.982 1931.799 1941.427 1943.598 1944.297 1943.698 1942.406 1939.926 1935.3 1933.6 1932.133 1933.028 1935.507 1939.109 1941.349 1945.488 1950.328 1956.304 1961.778 1969.325 1973.281 1977.948 1983.623 
1762.302 1767.663 1779.336 1786.236 1794.058 1800.358 1805.975 1811.372 1822.881 1829.233 1836.293 1843.047 1848.915 1860.815 1867.211 1872.635 1877.577 1880.891 1885.842 1887.791 1890.006 1892.015 1893.525 1894.874 1895.618 1894.713 1892.935 1888.594 1882.432 1870.858 1865.542 1861.983 1859.978 1860.276 1862.072 1865.288 1866.047 1866.438 1866.575 1866.58 1864.973 1863.751 1863.74 1864.676 1868.522 1873.971 1884.075 1890.025 1894.834 1899.621 1903.52 1909.084 1911.825 1913.412 1914.579 1915.638 1916.669 1918.933 1920.916 1923.432 1926.28 1930.445 1938.35 1939.821 1939.677 1937.795 1935.432 1933.2 1928.691 1926.453 1924.467 1925.498 1928.354 1932.006 1934.058 1938.354 1943.568 1947.946 1958.648 1963.003 1967.296 1972.803 1978.897 
1763.778 1769.189 1781.284 1788.444 1795.685 1802.314 1808.049 1818.825 1825.641 1832.361 1839.315 1845.552 1851.12 1863.263 1869.031 1874.546 1878.589 1881.171 1884.41 1884.977 1886.526 1888.436 1890.334 1891.739 1892.111 1891.363 1888.937 1884.104 1878.516 1868.171 1863.338 1858.986 1855.375 1854.692 1856.368 1859.428 1860.143 1860.488 1860.525 1860.31 1858.597 1857.82 1859.864 1863.799 1868.522 1873.971 1885.568 1891.353 1895.755 1900.307 1903.899 1907.301 1908.508 1909.459 1910.683 1911.893 1912.962 1915.447 1917.916 1921.976 1926.039 1929.583 1933.505 1933.698 1932.681 1930.868 1928.675 1924.389 1921.59 1918.843 1917.077 1918.449 1921.702 1925.156 1926.121 1931.961 1937.83 1942.569 1952.733 1957.841 1962.87 1970.351 1976.69 
1765.029 1770.472 1782.698 1790.346 1797.283 1804.017 1809.823 1820.991 1828.685 1835.369 1841.786 1847.846 1853.39 1865.552 1871.053 1876.344 1879.438 1880.661 1880.998 1880.253 1880.997 1882.751 1885.149 1887.227 1888.266 1887.175 1884.24 1880.005 1875.373 1865.988 1860.964 1856.252 1852.376 1850.824 1851.259 1853.782 1854.745 1854.977 1855.042 1854.872 1853.548 1853.685 1859.864 1863.799 1869.383 1875.177 1886.469 1891.593 1895.35 1899.609 1903.032 1904.735 1905.141 1905.677 1906.393 1907.608 1911.37 1913.369 1916.415 1920.273 1924.256 1927.246 1928.56 1927.932 1926.538 1924.456 1922.049 1916.549 1913.844 1911.554 1910.791 1912.31 1915.163 1919.594 1922.411 1925.928 1930.826 1936.546 1948.419 1954.556 1961.741 1969.328 1975.961 
1766.628 1771.856 1784.939 1792.141 1798.745 1804.993 1810.903 1823.882 1831.634 1838.019 1843.939 1849.777 1855.494 1867.505 1873.253 1878.192 1879.956 1879.484 1877.136 1876.279 1876.32 1877.59 1879.583 1881.686 1883.629 1882.961 1880.861 1877.226 1872.874 1863.664 1858.252 1853.48 1849.531 1845.919 1844.316 1847.281 1848.357 1848.861 1848.995 1849.012 1853.548 1853.685 1857.86 1864.037 1870.61 1882.06 1886.803 1891.137 1894.177 1896.984 1899.279 1900.773 1901.201 1901.623 1902.014 1903.307 1908.585 1911.969 1915.336 1918.409 1921.143 1922.977 1922.927 1921.573 1919.48 1917.115 1914.619 1909.525 1906.818 1904.163 1904.22 1906.562 1909.328 1913.887 1917.462 1921.292 1924.898 1931.454 1946.281 1953.311 1960.622 1967.72 1974.61 
1769.828 1775.007 1787.321 1793.661 1800.031 1806.162 1812.233 1826.233 1833.38 1840.102 1845.741 1851.085 1856.977 1868.727 1874.843 1878.571 1878.486 1876.523 1871.939 1870.734 1871.231 1873.149 1875.398 1877.407 1879.458 1879.325 1877.945 1874.793 1870.696 1860.656 1855.084 1850.635 1846.556 1842.533 1840.149 1841.079 1842.093 1842.646 1848.995 1849.012 1850.389 1853.052 1858.429 1865.085 1871.637 1882.172 1886.048 1889.438 1891.855 1893.363 1894.44 1895.347 1895.595 1896.173 1897.392 1899.654 1906.359 1910.06 1913.502 1915.925 1917.203 1917.599 1916.711 1915.138 1912.905 1910.458 1908.002 1902.794 1899.947 1897.829 1898.037 1900.459 1902.716 1908.055 1912.87 1917.47 1923.204 1931.428 1946.261 1953.322 1959.393 1965.108 1971.237 
1778.098 1782.633 1791.382 1796.03 1801.617 1807.701 1813.943 1828.204 1834.807 1841.411 1847.024 1852.093 1858.043 1869.266 1873.774 1875.598 1874.316 1871.559 1866.563 1865.367 1866.341 1868.812 1871.397 1875.317 1875.916 1875.954 1874.543 1871.941 1868.501 1857.222 1852.013 1847.714 1843.745 1839.487 1834.777 1835.37 1835.964 1842.646 1843.091 1843.076 1848.828 1853.573 1859.717 1866.204 1872.167 1881.195 1883.937 1886.715 1888.292 1888.919 1889.101 1889.098 1889.405 1890.351 1891.75 1895.268 1904.885 1908.136 1910.75 1912.505 1913.095 1912.841 1910.784 1908.825 1906.605 1904.255 1901.834 1896.458 1892.892 1890.356 1891.044 1893.323 1898.193 1902.291 1907.437 1914.571 1922.698 1930.727 1943.938 1951.435 1956.558 1961.107 1965.703 
1786.729 1790.375 1797.355 1801.194 1805.164 1810.572 1816.498 1829.971 1836.393 1842.596 1848.106 1853.218 1864.501 1868.147 1869.977 1869.914 1868.578 1866.408 1862.694 1862.18 1863.163 1865.379 1867.925 1871.93 1872.671 1872.285 1871.185 1869.511 1866.039 1853.793 1849.019 1844.641 1840.279 1835.104 1829.536 1835.37 1835.964 1836.452 1837.276 1839.399 1848.714 1853.972 1860.656 1866.938 1872.18 1880.362 1881.978 1882.633 1882.814 1882.433 1881.529 1879.726 1879.671 1882.374 1886.518 1892.013 1903.76 1906.123 1907.447 1908.161 1908.133 1906.354 1904.668 1902.781 1900.885 1898.89 1896.699 1890.583 1887.003 1885.063 1885.797 1887.539 1893.099 1898.114 1904.044 1912.987 1921.591 1927.942 1938.277 1944.138 1949.253 1953.795 1958.906 
1793.476 1800.258 1803.901 1807.186 1810.915 1815.281 1820.113 1831.584 1838.033 1843.739 1848.995 1853.875 1862.625 1865.351 1866.485 1865.514 1863.583 1861.27 1857.707 1857.5 1858.989 1861.561 1864.759 1869.261 1870.148 1869.859 1869.002 1867.571 1863.193 1850.771 1845.959 1841.603 1836.561 1835.104 1829.536 1830.025 1830.208 1830.293 1831.45 1836.175 1848.973 1854.799 1860.951 1866.462 1871.074 1878.138 1879.069 1878.312 1877.205 1876.018 1874.224 1874.309 1875.443 1877.6 1884.069 1891.557 1901.32 1903.565 1904.279 1904.492 1904.15 1901.43 1899.853 1898.228 1896.382 1894.257 1891.912 1884.59 1880.138 1878.087 1880.158 1882.927 1889.939 1896.079 1903.119 1911.144 1917.953 1923.371 1931.279 1935.247 1940.063 1946.167 1953.155 
1798.968 1806.087 1809.619 1813.256 1816.975 1820.684 1824.772 1833.876 1839.344 1844.356 1849.168 1853.575 1858.945 1860.658 1861.413 1860.662 1858.56 1855.928 1852.525 1852.714 1854.156 1856.699 1860.248 1866.708 1867.908 1868.138 1867.797 1864.838 1859.047 1847.825 1843.267 1841.603 1836.561 1831.255 1825.332 1825.023 1825.409 1826.003 1827.711 1842.442 1849.048 1855.313 1860.371 1865.067 1868.795 1873.357 1873.315 1872.271 1870.925 1869.578 1867.865 1869.446 1872.937 1876.656 1883.806 1891.066 1898.256 1899.827 1900.294 1900.173 1899.441 1897.015 1895.589 1894.106 1891.982 1889.311 1886.037 1877.766 1872.734 1871.186 1874.132 1877.494 1887.786 1894.023 1900.802 1907.594 1913.474 1918.119 1925.588 1930.621 1936.29 1943.337 1950.793 
1803.061 1810.535 1814.354 1817.87 1821.081 1824.684 1828.543 1835.874 1840.095 1844.044 1847.339 1850.423 1854.007 1855.294 1856.267 1855.866 1853.924 1851.376 1847.454 1846.773 1848.227 1851.545 1855.677 1862.598 1864.606 1865.543 1864.366 1860.53 1849.525 1847.825 1843.267 1838.127 1832.759 1827.568 1819.552 1819.546 1819.464 1821.473 1825.833 1841.275 1847.797 1853.866 1858.392 1862.626 1866.183 1868.187 1867.631 1866.499 1865.42 1864.31 1863.631 1865.923 1870.197 1875.7 1882.692 1889.094 1894.617 1894.933 1894.5 1894.105 1893.779 1892.459 1891.079 1889.508 1886.37 1882.63 1879.037 1869.809 1864.738 1863.968 1866.387 1870.508 1883.967 1890.239 1896.389 1902.918 1908.316 1912.424 1921.992 1928.304 1935.338 1942.402 1949.622 
1805.396 1813.524 1817.632 1820.487 1823.433 1826.984 1830.243 1835.292 1838.458 1841.021 1842.599 1844.054 1846.44 1847.794 1849.043 1849.207 1848.435 1845.044 1842.573 1841.454 1842.255 1845.721 1850.798 1858.396 1860.239 1860.525 1859.304 1856.489 1849.525 1844.421 1839.549 1834.235 1828.837 1823.358 1815.132 1814.849 1815.772 1819.647 1825.138 1839.633 1846.014 1851.386 1855.478 1859.003 1861.87 1863.29 1862.517 1861.455 1860.143 1858.65 1859.667 1864.031 1869.607 1875.443 1881.24 1886.729 1891.588 1891.006 1889.695 1888.637 1888.172 1886.781 1884.714 1882.163 1879.077 1875.793 1871.954 1862.22 1858.86 1859.146 1861.43 1865.625 1879.98 1885.361 1890.246 1896.281 1902.229 1912.906 1919.234 1926.468 1933.869 1941.18 1948.61 
1806.158 1814.861 1818.547 1821.081 1823.58 1826.324 1830.186 1831.672 1833.202 1834.613 1835.796 1836.958 1839.16 1840.278 1841.356 1842.203 1842.664 1840.555 1838.489 1837.681 1838.404 1840.778 1844.927 1854.198 1856.586 1856.872 1859.304 1856.489 1845.601 1840.542 1835.527 1830.28 1824.955 1819.336 1808.925 1808.961 1813.284 1818.701 1824.192 1837.367 1843.217 1847.996 1852.462 1855.749 1857.589 1858.658 1857.907 1856.586 1854.994 1853.386 1855.785 1862.908 1869.396 1875.206 1880.187 1884.131 1886.689 1885.064 1883.071 1881.85 1881.268 1879.703 1877.868 1875.54 1872.572 1869.279 1859.597 1855.035 1852.394 1854.15 1858.119 1862.574 1874.835 1880.251 1885.481 1890.262 1896.993 1910.83 1917.1 1924.498 1932.104 1939.728 1947.087 
1806.607 1814.524 1817.663 1820.165 1822.393 1823.923 1825.588 1826.509 1827.238 1828.161 1829.194 1830.363 1832.994 1834.28 1835.402 1836.235 1836.523 1834.766 1833.154 1831.739 1833.035 1836.074 1839.764 1848.222 1856.586 1856.872 1856.15 1852.768 1841.43 1836.625 1831.706 1826.406 1821.264 1814.436 1804.088 1805.312 1810.947 1816.934 1822.718 1834.512 1840.101 1844.4 1848.128 1851.364 1853.585 1854.323 1853.193 1851.199 1849.377 1848.939 1854.862 1862.644 1869.044 1874.721 1879.027 1881.765 1880.29 1877.977 1875.719 1874.774 1874.528 1873.028 1870.946 1868.578 1865.822 1862.209 1851.808 1848.816 1848.521 1851.375 1855.373 1859.692 1869.802 1876.261 1882.714 1888.396 1895.759 1909.209 1915.143 1922.448 1930.073 1937.763 1944.967 
1806.766 1813.222 1815.697 1817.707 1819.252 1820.282 1820.578 1820.843 1821.788 1822.805 1823.779 1824.873 1827.354 1828.578 1829.815 1830.602 1830.827 1829.059 1827.906 1827.535 1828.682 1831.565 1839.764 1848.222 1851.127 1852.26 1851.183 1847.251 1837.444 1832.652 1827.593 1822.454 1815.586 1808.509 1803.047 1804.87 1809.587 1814.998 1820.804 1832.118 1836.572 1840.521 1843.365 1845.464 1847.967 1847.949 1846.64 1844.764 1842.969 1844.032 1855.012 1862.803 1868.749 1873.645 1877.048 1876.979 1873.659 1869.8 1867.969 1867.591 1867.635 1866.404 1864.393 1862.14 1859.34 1855.141 1845.635 1843.015 1844.209 1847.94 1852.038 1856.925 1868.149 1875.065 1881.939 1888.582 1895.807 1908.112 1913.478 1920.423 1927.925 1935.693 1942.69 
1806.84 1810.49 1811.094 1810.778 1809.712 1809.393 1812.188 1813.557 1815.224 1816.917 1818.521 1819.918 1822.192 1823.337 1824.333 1824.968 1825.111 1823.341 1821.88 1821.785 1824.441 1831.565 1835.427 1842.071 1844.301 1845.733 1845.597 1842.716 1833.137 1828.216 1822.989 1816.741 1809.109 1802.505 1802.251 1804.305 1808.38 1813.375 1818.635 1828.977 1832.6 1835.654 1838.26 1840.041 1841.839 1842.024 1841.08 1840.033 1839.705 1841.931 1855.789 1863.115 1868.274 1871.714 1873.444 1869.859 1865.319 1861.531 1860.27 1860.376 1860.654 1859.977 1858.525 1856.067 1852.972 1848.706 1839.39 1837.604 1840.002 1844.611 1849.978 1856.062 1868.936 1875.507 1881.967 1888.483 1895.229 1907.044 1912.023 1918.271 1925.611 1933.325 1945.267 
1805.981 1806.273 1804.251 1801.433 1798.272 1796.59 1800.372 1804.176 1807.407 1809.823 1811.823 1813.626 1816.654 1818.097 1819.285 1820.005 1820.114 1818.414 1816.951 1821.785 1824.441 1828.327 1835.15 1837.669 1839.281 1840.158 1839.921 1837.291 1828.547 1823.205 1817.816 1809.824 1803.735 1798.161 1798.62 1802.529 1807.14 1811.604 1816.081 1824.52 1828.597 1831.037 1832.943 1834.547 1836.252 1836.405 1836.201 1836.986 1838.972 1842.793 1856.808 1863.385 1867.599 1869.27 1869.422 1864.022 1859.141 1854.588 1852.543 1852.317 1852.873 1853.004 1852.182 1849.828 1846.17 1841.803 1832.916 1831.656 1835.916 1842.592 1850.175 1862.464 1868.466 1874.731 1880.886 1887.071 1893.351 1905.443 1910.442 1916.137 1923.538 1930.728 1942.158 
1802.61 1799.882 1796.648 1793.347 1790.849 1789.825 1792.008 1794.938 1798.222 1801.725 1804.615 1808.811 1810.599 1812.119 1813.435 1814.349 1814.714 1818.414 1816.951 1817.432 1820.378 1824.611 1831.998 1833.785 1834.764 1834.682 1833.459 1830.9 1822.19 1817.257 1810.51 1804.334 1799.856 1794.39 1794.725 1799.293 1804.332 1808.397 1812.073 1819.763 1822.448 1824.909 1827.48 1829.25 1831.202 1831.379 1831.546 1834.914 1839.202 1844.53 1857.556 1863.077 1866.896 1867.728 1866.291 1857.357 1852.255 1848.266 1844.906 1843.248 1844.405 1845.131 1845.036 1843.313 1839.618 1834.839 1827.652 1828.322 1834.018 1842.068 1850.488 1861.607 1866.917 1872.542 1878.658 1884.513 1890.28 1903.152 1908.146 1913.493 1920.546 1927.604 1938.663 
1795.939 1792.992 1789.817 1787.172 1784.806 1783.405 1786.56 1788.941 1791.591 1794.617 1797.7 1802.394 1804.307 1806.187 1807.7 1814.349 1814.714 1813.847 1813.56 1814.564 1816.938 1820.521 1827.849 1830.473 1831.166 1830.439 1828.157 1824.516 1816.05 1809.855 1804.195 1799.363 1795.168 1791.216 1792.003 1795.694 1800.445 1804.53 1807.327 1813.144 1816.432 1818.361 1819.914 1821.891 1828.282 1829.407 1829.732 1834.959 1840.776 1853.379 1858.216 1862.397 1864.709 1864.161 1860.404 1849.918 1845.488 1841.427 1837.611 1834.811 1835.039 1835.927 1835.903 1834.368 1831.105 1826.859 1822.976 1826.978 1833.117 1840.612 1849.085 1860.161 1864.674 1869.423 1875.119 1880.77 1886.34 1899.261 1904.785 1910.275 1916.387 1923.032 1934.07 
1788.948 1785.092 1783.185 1781.206 1779.113 1778.022 1781.497 1784.196 1786.831 1789.38 1792.1 1795.901 1796.649 1806.187 1807.7 1808.796 1809.353 1808.896 1808.461 1808.843 1812.275 1816.424 1821.104 1822.011 1822.549 1821.727 1819.842 1817.397 1808.441 1802.991 1798.096 1794.128 1790.917 1787.884 1788.547 1792.737 1796.413 1799.23 1804.002 1805.461 1808.749 1812.558 1815.031 1815.948 1825.299 1829.27 1831.884 1836.662 1842.77 1855.321 1858.915 1860.767 1860.691 1857.87 1853.251 1842.49 1837.724 1833.616 1830.4 1827.662 1826.628 1826.917 1826.276 1824.691 1822.237 1819.15 1818.882 1824.772 1831.162 1837.535 1845.101 1857.82 1862.017 1866.408 1871.664 1876.546 1882.002 1895.05 1900.898 1906.071 1911.364 1923.032 1934.07 
1781.76 1777.907 1776.105 1774.26 1771.769 1771.332 1776.286 1779.156 1781.815 1784.122 1786.288 1789.201 1796.649 1797.594 1799.121 1800.995 1802.526 1802.618 1802.816 1804.243 1807.975 1811.893 1815.288 1815.475 1815.148 1814.103 1812.245 1806.232 1801.685 1796.57 1792.513 1789.01 1785.581 1782.546 1785.66 1789.47 1792.049 1794.273 1801.44 1803.057 1805.729 1811.416 1815.718 1818.233 1827.793 1833.574 1838.457 1840.885 1845.228 1856.358 1858.928 1858.3 1856.422 1853.312 1848.725 1836.806 1830.884 1826.845 1823.978 1821.76 1818.769 1819.471 1818.835 1816.86 1813.54 1811.135 1816.299 1822.168 1828.04 1833.971 1840.208 1854.24 1858.991 1863.83 1869.176 1874.291 1879.65 1892.127 1897.108 1906.071 1911.364 1917.228 1929.58 
1774.225 1770.485 1769.282 1768.118 1766.674 1766.64 1770.588 1773.3 1775.834 1778.103 1786.288 1789.201 1789.735 1790.252 1791.106 1792.405 1793.689 1794.094 1794.566 1798.427 1803.879 1807.868 1810.314 1809.66 1808.632 1807.262 1805.321 1798.646 1794.498 1790.191 1786.123 1782.569 1780.091 1779.398 1782.183 1786.547 1790.053 1793.191 1801.813 1804.933 1809.112 1814.656 1819.462 1823.414 1832.3 1836.797 1840.362 1843.886 1848.367 1856.443 1857.292 1855.829 1853.282 1849.258 1844.452 1833.465 1827.304 1822.41 1818.085 1813.979 1808.844 1809.96 1809.459 1807.989 1805.567 1804.683 1813.374 1819.045 1824.634 1830.289 1836.169 1850.418 1856.518 1863.22 1868.57 1873.298 1883.523 1892.127 1897.108 1901.776 1906.672 1911.581 1921.845 
1767.517 1764.464 1762.993 1762.141 1761.204 1761.354 1765.544 1767.877 1775.834 1778.103 1780.153 1783.248 1782.838 1782.166 1783.998 1786.363 1788.533 1789.086 1790.193 1793.216 1798.495 1803.551 1806.781 1805.521 1802.651 1799.126 1795.886 1791.052 1786.796 1782.474 1779.162 1776.976 1775.81 1777.854 1780.21 1785.905 1791.418 1796.174 1804.988 1809.81 1815.418 1820.146 1824.305 1828.335 1836.869 1840.641 1843.286 1846.809 1850.5 1854.672 1854.017 1852.08 1848.906 1844.906 1840.532 1830.892 1824.965 1819.175 1812.729 1806.631 1799.671 1799.846 1799.715 1799.015 1798.622 1804.525 1809.706 1815.512 1821.865 1828.171 1835.002 1849.542 1856.39 1863.298 1868.296 1872.449 1883.523 1888.855 1893.422 1897.737 1901.912 1906.09 1914.299 
1762.4 1759.116 1756.586 1755.392 1754.536 1757.904 1765.544 1767.877 1769.872 1771.424 1772.828 1774.221 1775.233 1776.896 1779.2 1781.439 1783.459 1783.916 1785.419 1789.438 1794.437 1798.463 1801.56 1799.672 1796.268 1791.315 1786.852 1781.666 1778.157 1775.139 1772.382 1770.014 1770.493 1778.258 1781.998 1788.958 1795.107 1800.109 1810.209 1815.605 1820.415 1824.738 1828.973 1833.222 1841.728 1845.213 1846.128 1848.124 1850.867 1850.576 1849.121 1846.952 1844.202 1840.714 1832.671 1827.477 1821.327 1815.058 1808.028 1801.83 1793.325 1792.289 1792.042 1791.409 1792.991 1802.846 1807.761 1814.859 1821.938 1828.502 1835.62 1850.076 1856.629 1862.672 1868.296 1872.449 1880.657 1885.224 1889.777 1893.613 1897.183 1900.589 1908.051 
1757.594 1752.543 1748.034 1746.62 1754.536 1757.904 1760.347 1762.209 1763.963 1765.374 1766.395 1767.463 1769.107 1772.06 1774.301 1775.73 1777.115 1777.836 1779.822 1783.975 1789.636 1793.888 1795.882 1794.359 1789.869 1783.188 1778.089 1772.938 1770.216 1768.129 1766.715 1767.302 1770.687 1780.083 1786.159 1793.169 1798.864 1803.854 1815.327 1820.129 1824.32 1828.951 1833.63 1842.949 1848.374 1851.767 1851.111 1849.428 1848.468 1845.728 1844.057 1841.911 1839.125 1836.066 1828.057 1821.99 1815.886 1809.456 1803.329 1797.935 1785.547 1784.255 1784.598 1786.998 1791.688 1803.183 1809.142 1816.679 1823.129 1829.26 1836.146 1849.787 1856.629 1862.672 1867.356 1870.929 1877.792 1881.546 1885.559 1889.293 1892.454 1895.575 1902.147 
1750.392 1745.446 1741.802 1746.62 1745.76 1749.455 1752.991 1756.04 1758.416 1759.781 1760.477 1762.138 1764.914 1768.446 1770.112 1770.181 1768.789 1769.78 1774.126 1778.721 1783.341 1787.592 1790.826 1787.897 1782.857 1776.382 1770.658 1765.245 1763.635 1762.761 1763.41 1767.013 1776.99 1781.993 1788.956 1795.558 1801.778 1807.788 1819.548 1823.784 1828.133 1833.113 1837.908 1848.564 1854.292 1855.431 1853.138 1849.166 1845.256 1840.771 1838.669 1836.12 1833.454 1830.641 1821.235 1815.326 1809.509 1803.821 1799.336 1792.066 1779.631 1778.971 1779.305 1784.055 1791.206 1804.607 1810.78 1817.296 1823.333 1829.246 1836.146 1849.787 1855.696 1860.786 1865.507 1868.79 1874.349 1877.746 1881.144 1884.359 1887.661 1890.854 1898.567 
1743.168 1745.446 1741.802 1739.999 1739.223 1741.8 1744.324 1746.674 1749.381 1751.807 1753.441 1756.854 1760.258 1762.626 1763.831 1764.08 1764.387 1766.035 1769.351 1773.766 1778.336 1784.672 1784.43 1781.912 1776.242 1769.848 1764.519 1757.685 1756.503 1758.896 1763.729 1768.822 1778.728 1784.38 1791.335 1797.873 1804.383 1810.94 1821.828 1826.483 1832.114 1837.552 1841.713 1851.461 1854.183 1852.796 1848.653 1843.982 1840.353 1834.837 1832.233 1829.726 1827.113 1824.155 1814.46 1809.186 1803.616 1798.705 1791.185 1782.692 1775.334 1774.792 1776.298 1782.005 1789.892 1805.236 1811.276 1817.29 1823.333 1829.246 1835.271 1847.869 1854.268 1858.274 1861.815 1864.835 1869.929 1872.828 1875.891 1878.904 1882.11 1889.574 1894.8 
1743.168 1738.746 1734.842 1733.363 1732.867 1735.054 1737.454 1739.252 1741.057 1742.705 1747.146 1751.696 1756.514 1758.199 1758.244 1757.925 1758.543 1761.264 1765.191 1769.212 1773.532 1780.128 1780.173 1776.1 1770.01 1764.6 1759.376 1753.384 1755.069 1759.758 1765.02 1770.1 1780.444 1786.629 1793.382 1799.464 1805.749 1812.924 1823.368 1828.538 1835.291 1841.102 1844.57 1850.426 1849.777 1846.903 1842.816 1838.568 1834.516 1828.502 1825.997 1823.459 1820.765 1817.513 1808.236 1803.034 1797.711 1791.178 1782.952 1776.373 1769.993 1769.493 1773.303 1780.256 1788.514 1804.579 1810.328 1817.29 1822.619 1827.68 1838.306 1843.753 1849.982 1855.188 1858.334 1860.39 1864.609 1866.836 1869.555 1873.109 1876.642 1886.568 1891.246 
1736.656 1732.655 1729.503 1727.388 1725.918 1728.147 1730.527 1732.401 1732.886 1733.902 1741.486 1744.995 1746.649 1748.179 1748.97 1748.995 1751.926 1755.689 1760.348 1765.083 1769.166 1773.495 1772.488 1769.252 1764.987 1759.78 1755.027 1750.32 1755.562 1760.969 1766.077 1771.295 1782.216 1788.446 1794.547 1800.027 1806.128 1813.773 1825.915 1831.534 1837.619 1842.414 1845.531 1846.264 1843.97 1840.795 1836.983 1832.87 1828.876 1822.635 1819.823 1817.159 1814.401 1811.214 1801.869 1796.5 1790.485 1783.602 1776.849 1768.085 1766.059 1765.506 1769.629 1777.79 1786.596 1804.579 1810.328 1816.261 1821.007 1825.291 1834.636 1839.556 1844.323 1849.525 1853.489 1855.601 1859.005 1861.763 1864.407 1868.452 1873.913 1884.999 1890.941 
1730.845 1727.667 1725.031 1722.249 1719.834 1720.76 1722.812 1724.291 1725.204 1727.505 1735.633 1737.793 1739.218 1740.039 1740.744 1741.246 1745.335 1750.871 1756.432 1760.953 1764.641 1768.49 1767.119 1763.687 1759.661 1754.181 1748.938 1750.397 1756.435 1762.094 1766.974 1772.396 1783.96 1789.715 1795.377 1800.559 1806.621 1813.817 1829.59 1833.698 1838.18 1842.205 1844.416 1841.848 1838.879 1834.895 1831.046 1827.288 1820.31 1816.967 1813.863 1811.078 1808.137 1804.727 1795.359 1789.689 1783.373 1777.565 1771.841 1763.72 1761.745 1762.794 1766.932 1777.79 1786.596 1801.891 1808.151 1813.566 1818.204 1822.511 1831.29 1835.18 1838.795 1842.273 1845.763 1848.56 1853.405 1857.326 1861.998 1866.874 1872.335 1884.076 1890.736 
1725.051 1722.247 1720.042 1717.71 1715.713 1715.452 1716.817 1717.755 1718.453 1721.129 1729.328 1732.019 1732.729 1732.984 1733.411 1734.663 1741.769 1746.946 1752.519 1757.116 1760.059 1762.083 1760.542 1757.612 1752.278 1745.554 1741.758 1750.039 1757 1763.034 1768.507 1773.923 1785.115 1790.7 1796.092 1801.152 1807.133 1821.667 1829.792 1833.882 1837.406 1840.51 1841.71 1836.67 1832.562 1828.877 1825.362 1821.652 1814.296 1810.791 1807.722 1805.085 1802.113 1798.543 1788.943 1783.101 1778.12 1773.076 1768.102 1759.215 1756.612 1762.794 1766.932 1775.706 1784.833 1798.741 1805.679 1810.318 1814.856 1819.182 1827.06 1830.815 1833.666 1836.232 1839.036 1841.487 1850.14 1855.9 1860.912 1865.909 1871.195 1882.699 1890.297 
1719.348 1717.183 1715.01 1712.491 1709.682 1710.03 1711.25 1712.236 1713.836 1716.379 1719.977 1722.091 1723.975 1725.086 1726.333 1728.641 1737.417 1742.528 1747.032 1751.286 1754.61 1756.26 1754.851 1749.636 1743.63 1740.247 1742.694 1749.698 1757.061 1763.511 1769.157 1774.435 1785.428 1791.271 1796.517 1801.469 1807.263 1821.17 1829.269 1833.256 1835.121 1836.783 1837.039 1831.951 1827.6 1823.939 1820.227 1815.736 1807.309 1804.628 1802.063 1799.645 1797.146 1793.13 1782.873 1778.47 1774.187 1769.552 1764.862 1759.215 1756.612 1759.781 1765.195 1773.393 1781.803 1794.793 1800.928 1806.38 1810.289 1814.222 1821.848 1824.928 1827.424 1829.168 1832.029 1840.817 1847.136 1853.918 1859.564 1864.918 1870.093 1880.494 1887.638 
1715.034 1712.794 1710.693 1707.509 1704.518 1704.477 1705.705 1706.301 1708.415 1711.376 1715.368 1716.489 1717.312 1717.841 1719.389 1728.091 1732.819 1737.354 1741.271 1744.443 1747.048 1748.487 1746.075 1741.698 1737.804 1735.539 1742.439 1749.592 1756.981 1763.579 1769.187 1774.446 1785.43 1791.081 1796.45 1801.521 1807.121 1820.35 1827.578 1831.597 1832.99 1833.38 1833.001 1828.31 1823.255 1818.621 1814.093 1809.205 1801.675 1799.198 1796.927 1794.086 1789.973 1785.075 1777.918 1774.765 1771.097 1766.489 1764.862 1755.81 1753.535 1757.246 1763.34 1770.425 1784.783 1790.395 1795.227 1800.12 1803.81 1807.032 1814.917 1818.549 1821.284 1824.366 1828.141 1838.865 1844.94 1851.534 1857.521 1863.387 1868.7 1878.724 1885.033 
1710.832 1708.682 1704.728 1699.445 1696.166 1698.167 1698.453 1700.262 1703.807 1707.391 1711.118 1712.103 1712.828 1713.848 1715.626 1723.518 1728.539 1732.45 1735.62 1738.177 1740.309 1740.562 1738.421 1734.933 1731.491 1730.901 1742.049 1749.339 1756.798 1763.365 1769.037 1774.306 1785.149 1790.895 1796.413 1801.516 1807.125 1819.736 1825.777 1829.327 1831.324 1831.861 1830.685 1823.453 1818.189 1812.428 1807.494 1803.417 1797.153 1794.067 1790.119 1785.508 1781.745 1776.309 1773.788 1771.159 1771.097 1766.489 1761.675 1752.519 1750.978 1755.053 1760.862 1766.781 1780.883 1785.859 1790.024 1793.844 1797.027 1799.885 1806.324 1811.493 1815.625 1820.872 1825.743 1836.276 1842.539 1849.296 1855.386 1861.601 1867.28 1877.265 1882.986 
1705.211 1701.412 1696.97 1692.626 1689.357 1691.033 1692.011 1694.512 1698.272 1701.823 1706.811 1707.686 1707.963 1708.109 1710.537 1719.281 1723.42 1727.074 1730.382 1732.152 1732.945 1732.158 1730.183 1728.521 1727.451 1728.568 1742.311 1750.253 1757.496 1763.819 1769.322 1774.362 1785.302 1791.49 1797.286 1802.231 1807.986 1819.737 1822.818 1825.186 1826.885 1826.883 1821.888 1817.179 1811.196 1806.035 1801.891 1798.4 1791.664 1787.548 1782.703 1779.294 1776.98 1772.603 1773.788 1771.159 1767.723 1763.238 1758.146 1746.427 1747.675 1752.763 1758.397 1763.832 1775.585 1781.6 1784.78 1787.577 1790.435 1793.082 1802.246 1807.795 1814.476 1820.297 1825.096 1836.624 1842.675 1848.786 1853.887 1860.166 1866.636 1876.915 1882.38 
1697.886 1694.347 1690.132 1685.585 1681.613 1682.873 1685.432 1689.569 1693.595 1696.306 1699.356 1700.795 1702.299 1703.952 1706.877 1715.077 1718.611 1721.659 1724.313 1726.094 1726.844 1725.249 1723.701 1722.667 1724.401 1728.937 1745.877 1754.166 1760.431 1765.991 1770.972 1780.483 1787.095 1793.651 1799.5 1804.008 1809.456 1817.753 1818.572 1819.743 1820.498 1819.561 1814.119 1809.239 1804.376 1800.183 1796.703 1793.089 1785.009 1781.357 1778.081 1775.462 1776.98 1772.603 1770.122 1766.733 1762.943 1759.208 1752.8 1742.711 1744.303 1749.615 1755.394 1760.367 1769.75 1774.416 1778.228 1780.978 1784.732 1789.374 1801.253 1807.824 1814.94 1821.027 1826.378 1840.089 1845.631 1850.426 1855.813 1862.035 1867.874 1878.339 1883.657 
1690.404 1686.884 1683.095 1678.6 1675.709 1677.741 1680.751 1684.628 1687.94 1690.531 1693.734 1694.49 1696.381 1700.07 1704.171 1710.737 1713.657 1716.447 1719.048 1720.573 1720.557 1719.183 1718.12 1718.98 1725.094 1733.727 1751.616 1758.696 1764.142 1769.106 1773.635 1783.089 1790.73 1796.87 1802.501 1806.396 1809.467 1811.919 1812.55 1813.281 1813.278 1812.014 1807.001 1802.365 1798.056 1794.313 1790.459 1786.179 1779.093 1776.359 1773.864 1775.462 1773.231 1768.535 1765.295 1761.882 1758.329 1752.408 1745.604 1738.443 1740.628 1745.945 1751.357 1756.056 1764.857 1768.996 1773.202 1777.314 1782.253 1788.089 1800.896 1807.847 1815.37 1822.176 1828.489 1841.945 1847.086 1852.237 1857.855 1863.586 1874.061 1879.224 1884.228 
1682.251 1677.46 1672.446 1669.658 1669.844 1672.048 1675.792 1679.724 1682.745 1688.123 1690.208 1691.914 1694.01 1696.985 1700.442 1706.493 1708.96 1710.797 1712.645 1714.166 1715.249 1715.101 1716.6 1721.743 1729.889 1739.02 1756.209 1762.014 1767.307 1771.901 1776.042 1786.873 1794.179 1799.844 1804.765 1807.245 1807.418 1805.756 1806.295 1806.625 1806.25 1804.961 1799.522 1795.574 1791.955 1788.01 1783.66 1779.761 1773.815 1776.359 1773.864 1771.59 1769.049 1762.913 1759.634 1756.725 1751.606 1745.401 1739.078 1732.301 1735.893 1741.526 1746.625 1751.098 1759.65 1765.368 1770.502 1776.08 1781.731 1793.863 1800.799 1807.991 1815.422 1822.997 1830.024 1842.562 1847.911 1853.255 1859.073 1864.887 1874.756 1879.528 1883.721 
1670.677 1667.395 1665.22 1664.574 1667.078 1669.282 1672.166 1676.14 1679.869 1685.86 1687.954 1690.221 1692.448 1694.181 1696.652 1702.42 1704.538 1705.959 1706.968 1708.11 1711.801 1714.137 1718.559 1726.501 1735.009 1743.457 1759.447 1764.648 1769.713 1774.3 1778.644 1790.097 1795.946 1801.403 1805.321 1806.232 1804.804 1801.782 1801.429 1800.88 1800.013 1798.639 1793.334 1789.662 1785.911 1781.95 1778.113 1779.761 1773.815 1771.298 1768.862 1766.376 1763.609 1757.422 1753.808 1749.77 1744.849 1739.114 1730.125 1728.935 1731.559 1736.71 1741.309 1746.354 1757.483 1764.309 1770.064 1775.852 1781.633 1793.536 1800.692 1808.126 1815.844 1823.354 1830.24 1842.958 1848.511 1854.099 1859.795 1865.314 1875.218 1879.633 1882.447 
1662.038 1658.933 1657.87 1658.972 1666.181 1670.034 1673.991 1678.193 1682.331 1690.505 1692.55 1693.8 1694.752 1695.851 1697.512 1700.846 1702.39 1703.86 1705.236 1706.759 1712.812 1716.643 1721.556 1729.886 1738.191 1746.383 1761.368 1766.834 1771.711 1776.567 1781.46 1792.374 1796.711 1801.281 1803.731 1803.296 1801.317 1797.893 1796.987 1796.105 1794.912 1793.017 1787.551 1784.118 1780.383 1781.95 1778.113 1771.188 1768.203 1765.634 1763.215 1760.783 1757.993 1751.077 1747.34 1743.174 1738.482 1733.376 1724.542 1724.89 1729.02 1733.824 1739.39 1745.788 1758.902 1764.719 1770.374 1776.001 1781.746 1794.237 1800.925 1808.202 1816.051 1823.166 1829.735 1843.299 1849.094 1854.76 1860.22 1865.266 1875.222 1879.323 1881.038 
1656.258 1655.49 1656.442 1659.668 1668.587 1672.906 1677.476 1682.365 1688.555 1698.395 1700.236 1702.124 1703.977 1705.746 1706.677 1706.449 1706.702 1707.591 1709.207 1711.306 1716.075 1719.596 1725.333 1732.769 1740.499 1748.78 1763.063 1768.647 1773.812 1778.929 1783.982 1793.533 1796.315 1799.219 1799.955 1798.891 1795.499 1793.426 1791.527 1789.966 1788.476 1786.784 1782.144 1784.118 1780.383 1776.763 1773.416 1765.411 1761.319 1759.063 1757.313 1754.84 1751.718 1744.624 1740.88 1736.657 1731.983 1726.198 1719.661 1722.833 1728.632 1734.212 1740.098 1746.787 1760.474 1766.401 1771.719 1777.008 1782.954 1795.248 1801.429 1808.307 1816.029 1822.847 1829.137 1843.337 1849.361 1855.097 1860.385 1865.144 1874.342 1877.901 1878.429 
1652.873 1653.581 1656.909 1661.479 1670.774 1675.694 1680.685 1687.595 1695.1 1705.323 1708.481 1710.895 1712.409 1713.365 1713.884 1714.288 1714.729 1715.553 1717.194 1719.077 1723.078 1726.797 1731.828 1737.484 1743.689 1758.659 1764.926 1770.495 1775.886 1780.993 1785.961 1793.959 1795.782 1796.471 1796.189 1795.09 1790.205 1786.948 1784.12 1782.713 1781.645 1780.334 1782.144 1778.604 1774.9 1771.574 1768.18 1759.172 1755.201 1752.797 1750.842 1748.562 1745.532 1738.605 1734.956 1730.544 1725.015 1719.938 1717.752 1722.968 1729.176 1735.201 1741.108 1748.031 1762.023 1768.02 1773.751 1779.351 1785.232 1796.706 1801.952 1808.34 1816 1822.608 1835.09 1842.121 1848.859 1855.069 1860.289 1864.851 1872.859 1875.692 1875.514 
1649.369 1653.533 1658.311 1663.178 1673.027 1678.199 1683.756 1692.017 1699.622 1710.064 1712.8 1715.249 1717.419 1718.806 1721.028 1722.26 1723.593 1724.958 1726.626 1728.816 1735.474 1738.876 1741.937 1745.141 1748.949 1760.749 1766.846 1772.501 1778.07 1782.819 1787.584 1794.215 1794.993 1794.661 1792.9 1790.464 1784.435 1780.944 1778.316 1776.686 1781.645 1780.334 1775.643 1772.41 1769.229 1766.164 1762.628 1753.941 1749.571 1746.718 1744.624 1742.13 1738.881 1732.281 1728.462 1723.676 1718.633 1714.22 1718.053 1723.468 1729.934 1736.235 1742.391 1757.446 1763.633 1769.514 1775.987 1781.988 1787.617 1797.879 1802.586 1808.684 1816.083 1822.55 1834.216 1840.819 1847.794 1854.527 1859.952 1864.466 1870.991 1873.365 1872.811 
1649.13 1653.99 1658.956 1669.831 1674.832 1680.075 1686.065 1693.462 1701.264 1711.7 1715.483 1718.992 1722.119 1724.328 1727.962 1729.732 1731.657 1734.06 1736.723 1739.477 1745.734 1748.491 1750.626 1753.14 1756.333 1765.17 1769.903 1774.914 1779.718 1784.226 1788.888 1793.936 1792.941 1790.821 1787.919 1784.985 1778.861 1775.319 1778.316 1776.686 1775.36 1773.94 1769.649 1766.968 1764.311 1761.422 1757.85 1748.412 1743.874 1740.5 1737.693 1734.814 1728.877 1725.421 1721.335 1716.02 1710.717 1709.994 1718.407 1724.194 1730.9 1737.147 1743.606 1759.153 1765.127 1771.31 1778.135 1784.265 1790.045 1799.392 1803.8 1809.652 1816.4 1822.777 1834.252 1839.849 1846.575 1853.519 1859.187 1863.934 1869.241 1871.124 1869.773 
1648.731 1654.021 1659.39 1671.198 1676.027 1681.387 1687.491 1694.338 1701.525 1712.275 1716.774 1721.161 1725.233 1728.796 1734.009 1736.335 1739.22 1741.93 1744.704 1747.491 1752.432 1755.132 1758.183 1761.523 1765.055 1771.927 1775.154 1778.708 1781.551 1785.222 1789.691 1789.685 1787.327 1784.537 1781.745 1779.045 1778.861 1775.319 1772.798 1770.988 1769.483 1766.555 1764.639 1762.274 1759.922 1757.047 1752.722 1742.523 1737.806 1734.189 1731.271 1728.613 1723.082 1719.179 1713.284 1707.648 1705.889 1708.764 1719.148 1725.202 1731.606 1737.886 1744.961 1760.227 1765.805 1771.981 1779.075 1785.669 1791.564 1800.647 1805.041 1810.681 1816.742 1823.023 1834.567 1839.874 1845.876 1852.517 1858.24 1863.28 1868.368 1869.811 1867.965 
1648.758 1653.981 1659.593 1672.234 1676.78 1682.092 1687.934 1694.184 1700.864 1711.907 1716.703 1721.525 1726.833 1731.475 1736.953 1740.51 1744.459 1747.275 1750.391 1753.709 1759.345 1762.896 1766.622 1770.317 1773.79 1779.263 1781.25 1781.171 1783.418 1785.603 1785.025 1783.379 1781.167 1778.678 1781.745 1779.045 1772.73 1769.291 1767.172 1765.701 1764.449 1761.671 1760.034 1758.039 1754.842 1750.905 1746.444 1736.263 1731.22 1727.677 1725.134 1723.009 1716.124 1710.632 1705.498 1702.216 1704.211 1709.317 1720.027 1726.295 1732.732 1738.706 1745.963 1760.552 1765.842 1771.876 1778.638 1785.628 1791.917 1801.368 1805.99 1811.293 1816.936 1823.019 1834.469 1839.774 1845.392 1851.423 1857.038 1862.648 1867.715 1868.93 1867.756 
