NCOLS 44
NROWS 39
XLLCORNER 286236.32
YLLCORNER 3844268.9
CELLSIZE 10
NODATA_VALUE -9999
1196.026 1194.898 1193.459 1192.467 1192.239 1192.372 1191.772 1191.008 1190.852 1191.651 1192.927 1193.365 1194.33 1196.112 1198.682 1202.462 1213.423 1218.939 1222.9 1223.608 1222.071 1219.991 1224.873 1231.219 1236.806 1241.911 1246.726 1256.285 1259.112 1262.129 1265.829 1268.119 1266.968 1267.109 1267.187 1268.815 1270.313 1271.584 1273.814 1274.334 1273.623 1272.19 1270.948 1269.75 
1192.832 1192.54 1191.777 1191.215 1190.48 1190.095 1190.23 1191.104 1192.634 1194.328 1198.8 1200.722 1202.481 1204.685 1207.459 1210.48 1218.932 1224.315 1228.973 1230.514 1229.194 1226.623 1228.23 1232.647 1238.8 1244.361 1249.375 1259.345 1264.104 1267.858 1270.755 1268.119 1272.689 1272.882 1273.232 1274.348 1274.662 1274.336 1274.594 1276.189 1277.299 1276.614 1276.367 1276.284 
1189.179 1189.681 1189.95 1189.944 1189.585 1190.329 1191.543 1192.674 1194.276 1197.507 1206.737 1210.13 1212.832 1215.167 1217.542 1223.154 1226.501 1230.65 1234.876 1237.263 1236.738 1232.572 1232.97 1236.93 1242.514 1247.246 1251.768 1261.21 1266.17 1269.964 1270.755 1272.921 1277.592 1278.61 1279.246 1279.703 1279.341 1276.302 1274.643 1276.211 1278.517 1280.679 1281.62 1281.434 
1188.134 1188.62 1188.833 1189.334 1191.751 1193.156 1194.077 1194.71 1196.262 1201.124 1213.941 1218.885 1221.827 1224.532 1226.941 1231.884 1234.553 1237.738 1241.335 1244.407 1245.379 1243.645 1243.216 1244.436 1247.671 1252.031 1260.484 1265.719 1266.17 1269.964 1273.68 1277.545 1282.279 1282.685 1282.634 1281.911 1279.89 1275.486 1272.366 1274.024 1277.552 1281.173 1282.511 1282.316 
1191.054 1191.138 1191.605 1192.744 1197.988 1199.632 1200.654 1201.336 1201.989 1204.555 1217.858 1224.842 1229.661 1232.601 1235.716 1240.583 1242.41 1244.318 1246.642 1249.154 1251.164 1252.332 1251.937 1252.67 1254.427 1257.124 1266.167 1265.719 1269.676 1272.069 1274.175 1276.413 1281.062 1280.738 1279.135 1276.688 1274.082 1271.946 1268.318 1270.843 1275.975 1279.643 1280.068 1275.43 
1195.954 1197.155 1198.945 1200.932 1206.07 1208.004 1209.471 1210.28 1210.394 1213.881 1219.683 1226.815 1233.992 1239.801 1243.896 1247.446 1248.979 1250.167 1251.712 1253.496 1255.788 1258.505 1258.146 1258.282 1259.026 1260.548 1266.167 1270.195 1272.114 1272.057 1269.258 1267.97 1271.117 1271.107 1269.727 1268.534 1268.237 1268.625 1268.544 1270.124 1274.086 1276.673 1274.908 1266.322 
1201.932 1204.463 1207.251 1209.691 1213.832 1215.835 1217.676 1219.158 1219.731 1217.864 1220.622 1226.993 1234.431 1241.808 1246.567 1253.579 1255.084 1255.638 1256.308 1257.353 1259.071 1257.474 1255.945 1255.946 1256.49 1260.548 1266.754 1268.628 1267.423 1264.032 1260.456 1260.104 1262.147 1262.958 1263.644 1264.891 1267.169 1268.627 1269.151 1270.685 1272.924 1273.281 1270.656 1260.903 
1209.278 1212.163 1214.448 1218.666 1221.276 1223.834 1225.916 1227.573 1228.723 1227.203 1227.066 1229.228 1234.019 1241.477 1247.733 1256.814 1258.732 1258.969 1258.754 1258.869 1256.725 1253.351 1251.014 1250.951 1256.49 1257.152 1259.173 1258.811 1256.749 1253.927 1252.331 1254.512 1255.105 1256.555 1259.922 1263.977 1266.682 1269.177 1269.926 1271.136 1271.745 1270.835 1267.602 1256.06 
1217.435 1220.075 1223.06 1227.661 1230.189 1232.68 1234.833 1237.049 1239.474 1239.956 1236.986 1235.546 1238.453 1242.353 1253.806 1258.107 1258.249 1255.637 1254.149 1253.41 1249.18 1245.543 1251.014 1250.951 1251.642 1252.152 1252.269 1251.452 1250.451 1249.476 1249.234 1253.978 1256.162 1259.081 1263.145 1267.104 1269.203 1269.196 1268.232 1267.881 1268.177 1267.19 1257.239 1252.501 
1225.342 1229.603 1232.829 1237.439 1240.366 1242.288 1244.039 1245.522 1246.858 1247.321 1246.211 1244.195 1243.828 1245.636 1256.832 1257.658 1254.266 1249.376 1246.961 1246.096 1241.742 1245.543 1243.836 1244.942 1246.174 1246.748 1246.222 1245.517 1245.093 1245.464 1248.245 1257.634 1260.546 1264.263 1267.654 1270.022 1270.474 1267.388 1264.098 1261.638 1261.737 1261.288 1253.262 1248.111 
1225.862 1231.321 1234.623 1240.856 1244.311 1245.362 1244.958 1244.11 1243.815 1244.605 1246.123 1247.119 1246.546 1247.872 1254.645 1252.146 1247.071 1242.962 1241.48 1240.532 1241.742 1238.744 1237.747 1238.356 1239.675 1240.948 1241.191 1241.653 1242.497 1244.778 1250.39 1260.888 1265.211 1268.825 1271.14 1272.098 1271.43 1263.943 1258.743 1255.301 1254.836 1254.949 1249.098 1245.195 
1220.78 1225.217 1229.78 1237.341 1239.686 1239.079 1236.935 1234.988 1236.793 1241.318 1245.302 1247.19 1247.381 1248.332 1247.285 1245.362 1242.103 1239.458 1237.776 1240.532 1234.068 1231.223 1230.915 1231.607 1232.307 1232.981 1237.22 1242.311 1245.352 1249.54 1254.167 1264.408 1269.082 1271.545 1271.726 1271.486 1266.719 1260.78 1255.743 1252.46 1249.822 1248.981 1245.312 1241.492 
1215.156 1218.911 1223.722 1232.978 1233.643 1231.25 1228.526 1226.849 1232.516 1238.672 1242.943 1244.498 1245.214 1245.217 1243.171 1240.612 1237.65 1235.547 1237.776 1233.593 1231.224 1229.081 1227.957 1228.469 1229.082 1232.807 1238.35 1244.543 1249.498 1254.104 1258.369 1267.996 1271.32 1271.68 1269.405 1267.974 1264.296 1259.586 1254.789 1249.892 1245.481 1243.811 1240.105 1236.164 
1210.734 1214.94 1219.351 1227.087 1226.864 1224 1220.805 1219.97 1229.96 1233.686 1236.104 1239.692 1241.654 1241.855 1239.302 1236.125 1232.611 1235.547 1234.454 1230.44 1228.501 1227.221 1227.096 1229.076 1231.698 1239.228 1244.192 1249.226 1254.349 1258.913 1263.01 1270.59 1271.91 1270.392 1266.952 1263.705 1261.202 1258.951 1254.883 1249.219 1244.225 1240.407 1234.372 1232.359 
1206.784 1210.979 1218.984 1221.441 1220.912 1217.79 1215.039 1215.449 1223.811 1227.201 1231.249 1235.105 1237.173 1237.587 1236.004 1236.125 1232.611 1230.498 1229.862 1225.211 1223.746 1225.695 1229.65 1232.696 1236.197 1244.815 1249.656 1254.612 1259.341 1263.628 1270.337 1271.906 1270.958 1267.234 1261.978 1258.048 1257.385 1257.527 1254.48 1249.21 1245.056 1238.993 1230.448 1228.704 
1202.598 1207.055 1213.696 1214.843 1213.962 1211.223 1208.188 1210.896 1217.359 1220.586 1226.527 1232.539 1235.225 1233.82 1236.004 1233.365 1229.571 1225.708 1222.703 1219.379 1222.894 1228.316 1232.437 1236.499 1240.984 1249.972 1254.828 1259.846 1264.648 1268.329 1272.436 1271.387 1267.542 1261.828 1256.355 1253.344 1251.24 1252.036 1250.96 1248.169 1245.533 1233.958 1229.399 1225.483 
1196.886 1200.353 1207.509 1208.568 1208.054 1206.617 1205.815 1207.873 1213.06 1215.792 1221.276 1228.903 1233.275 1233.82 1232.857 1230.432 1225.56 1220.737 1218.157 1219.816 1225.686 1231.787 1236.007 1240.743 1250.753 1255.075 1259.642 1264.905 1269.381 1271.715 1273.023 1270.893 1265.497 1258.618 1253.195 1248.715 1244.787 1245.201 1245.618 1246.012 1244.59 1234.909 1230.317 1225.495 
1193.396 1194.029 1197.884 1199.782 1200.91 1202.462 1202.86 1205.094 1208.33 1211.732 1217.646 1224.329 1233.275 1230.536 1227.962 1225.184 1221.588 1218.482 1217.601 1224.084 1229.964 1234.842 1239.119 1244.054 1254.847 1258.444 1261.682 1266.772 1270.257 1272.286 1273.794 1272.407 1266.642 1259.173 1252.818 1246.903 1240.617 1238.386 1238.193 1239.659 1239.845 1235.123 1232.481 1227.985 
1196.79 1196.247 1195.022 1196.394 1197.954 1199.557 1203.081 1204.631 1204.856 1207.158 1213.009 1224.329 1229.434 1225.277 1222.184 1220.448 1218.996 1217.656 1218.46 1228.402 1233.225 1236.623 1240.666 1244.679 1251.701 1255.226 1258.582 1263.919 1268.362 1271.837 1274.412 1273.497 1269.069 1262.363 1255.664 1244.646 1238.448 1233.379 1231.91 1231.913 1233.589 1234.22 1233.363 1229.73 
1204.567 1203.927 1199.267 1198.339 1201.079 1204.641 1204.522 1205.057 1204.943 1207.158 1213.009 1220.475 1223.404 1219.695 1217.631 1216.405 1216.489 1218.065 1224.865 1230.791 1234.264 1236.241 1239.337 1241.95 1245.382 1250.432 1256.146 1261.299 1267.17 1270.848 1271.006 1270.388 1268.121 1262.96 1258.202 1247.387 1239.873 1233.345 1231.017 1229.347 1225.178 1227.605 1227.787 1225.604 
1214.278 1208.448 1204.75 1202.579 1203.589 1206.012 1207.524 1205.548 1204.943 1205.988 1210.184 1216.686 1219.163 1215.902 1214.036 1213.294 1214.819 1217.416 1223.44 1228.441 1231.604 1233.01 1236.07 1240.54 1247.807 1252.826 1257.751 1261.729 1265.274 1265.369 1263.074 1261.438 1260.101 1258.332 1257.345 1248.675 1243.141 1237.108 1231.892 1227.733 1222.537 1219.842 1220.876 1221.646 
1222.249 1211.648 1205.387 1204.233 1206.026 1208.555 1211.057 1205.548 1204.77 1205.579 1208.387 1211.729 1212.147 1210.742 1209.789 1211.188 1214.197 1216.307 1218.962 1222.174 1226.983 1230.753 1234.932 1242.313 1252.769 1257.3 1259.513 1260.525 1260.523 1258.468 1256.465 1254.825 1254.368 1254.273 1252.768 1247.129 1245.124 1240.738 1234.479 1230.515 1221.421 1218.49 1216.715 1215.678 
1224.131 1210.616 1206.477 1206.592 1208.258 1213.208 1211.057 1207.241 1205.353 1205.318 1207.021 1208.705 1207.848 1207.057 1208.391 1211.451 1214.642 1216.118 1218.25 1221.805 1227.331 1233.189 1237.442 1243.777 1253.435 1257.033 1257.157 1256.036 1255.268 1254.017 1253.386 1253.076 1251.939 1250.224 1247.955 1243.146 1240.411 1237.533 1236.181 1233.278 1225.052 1221.975 1215.57 1208.215 
1223.051 1213.714 1211.554 1212.324 1214.977 1213.208 1217.747 1211.839 1207.274 1205.329 1206.414 1206.68 1205.852 1206.94 1209.999 1214.804 1219.948 1220.526 1218.702 1221.63 1227.083 1232.876 1237.012 1244.662 1247.514 1249.121 1248.72 1247.984 1247.771 1250.59 1251.884 1251.051 1249.673 1247.448 1244.902 1237.296 1233.666 1232.357 1232.306 1231.31 1224.456 1221.88 1216.98 1209.184 
1225.719 1222.27 1221.74 1212.324 1214.977 1220.341 1221.895 1217.592 1212.08 1207.634 1205.762 1205.566 1206.065 1207.622 1211.657 1217.05 1220.746 1222.839 1223.128 1225.027 1228.405 1230.958 1232.885 1238.436 1240.636 1241.997 1242.519 1243.111 1243.794 1247.766 1249.768 1249.093 1248.393 1246.981 1238.771 1233.793 1229.804 1226.5 1223.66 1221.817 1223.41 1221.81 1217.179 1211.88 
1229.369 1228.114 1221.74 1221.201 1222.725 1226.151 1226.236 1222.986 1218.333 1212.562 1207.602 1205.922 1208.149 1210.738 1214.25 1217.315 1220.177 1228.887 1231.845 1233.125 1232.872 1232.289 1231.867 1237.305 1240.793 1241.876 1242.982 1243.811 1244.47 1247.05 1247.418 1247.556 1247.467 1247.4 1238.986 1232.721 1227.276 1222.18 1217.956 1215.218 1218.137 1217.867 1214.247 1209.876 
1232.156 1228.114 1229.01 1229.751 1231.786 1233.703 1232.065 1228.536 1223.614 1218.04 1211.18 1207.144 1211.045 1215.544 1219.51 1220.527 1221.995 1231.915 1235.556 1237.905 1238.581 1237.577 1236.348 1239.955 1242.715 1243.838 1244.542 1245.072 1245.016 1245.616 1245.319 1245.728 1246.33 1246.804 1240.87 1234.388 1228.834 1224.126 1218.961 1209.947 1208.981 1210.179 1209.123 1207.143 
1233.069 1233.993 1235.628 1237.993 1239.743 1239.889 1235.13 1230.623 1225.663 1220.102 1212.664 1208.489 1214.042 1218.622 1223.117 1226.54 1228.836 1234.084 1238.544 1242.415 1244.394 1243.768 1242.367 1243.446 1244.661 1245.767 1245.636 1245.914 1244.313 1242.999 1242.711 1243.896 1245.511 1247.583 1243.953 1238.17 1232.181 1227.462 1222.466 1213.894 1206.295 1206.443 1205.815 1204.947 
1242.372 1244.223 1245.751 1246.466 1246.067 1243.752 1232.295 1226.703 1221.583 1217.502 1213.005 1213.652 1216.118 1219.471 1225.204 1231.349 1235.176 1239.197 1242.485 1245.176 1246.663 1246.608 1246.636 1244.414 1245.477 1246.159 1246.367 1245.535 1241.713 1239.27 1238.162 1239.453 1242.777 1246.196 1245.805 1241.315 1235.278 1230.634 1224.944 1210.91 1205.103 1203.298 1202.667 1204.947 
1249.095 1248.926 1248.779 1246.638 1242.24 1236.468 1227.925 1222.727 1218.114 1215.82 1215.849 1217.982 1219.843 1222.319 1228.015 1234.825 1240.623 1244.496 1245.807 1247.121 1247.534 1247.316 1244.372 1243.869 1245.422 1246.337 1245.413 1243.707 1238.224 1234.934 1232.707 1232.386 1234.897 1240.629 1243.545 1239.244 1233.53 1228.699 1223.47 1211.217 1205.594 1203.053 1202.667 1202.979 
1256.547 1252.523 1247.848 1243.957 1236.224 1230.558 1223.852 1219.737 1217.146 1216.913 1218.009 1221.496 1223.994 1227.432 1232.618 1239.656 1245.474 1248.322 1247.808 1249.016 1250.071 1248.406 1244.534 1244.336 1245.902 1246.194 1244.252 1241.769 1235.535 1232.105 1229.442 1228.347 1229.221 1233.016 1238.741 1236.017 1231.391 1225.655 1219.547 1209.874 1205.189 1203.053 1201.565 1201.284 
1255.196 1252.051 1249.003 1245.555 1239.458 1228 1222.6 1218.25 1217.335 1219.243 1221.326 1226.462 1229.536 1233.39 1238.423 1244.66 1248.917 1249.618 1249.066 1248.901 1249.009 1245.805 1242.054 1243.702 1245.781 1245.316 1243.769 1240.443 1234.168 1230.706 1226.324 1222.669 1223.756 1232.476 1233.943 1233.4 1230.672 1225.02 1219.767 1209.874 1205.189 1200.838 1198.558 1199.496 
1252.021 1248.577 1246.543 1245.302 1242.598 1229.032 1221.92 1217.894 1218.895 1222.336 1225.912 1232.223 1236.144 1240.412 1244.576 1248.077 1249.139 1248.127 1246.942 1245.538 1243.176 1238.713 1233.716 1235.61 1240.925 1245.525 1243.876 1240.385 1234.136 1229.696 1224.149 1219.877 1219.028 1226.663 1228.888 1228.932 1226.349 1223.193 1219.767 1208.382 1203.527 1198.861 1195.805 1197.34 
1250.085 1244.979 1241.386 1238.871 1235.22 1226.464 1220.891 1219.517 1222.928 1227.546 1231.729 1239.351 1243.099 1245.803 1247.758 1249.234 1248.391 1246.73 1242.865 1238.566 1234.387 1231.795 1228.637 1229.869 1233.358 1238 1240.409 1237.132 1233.675 1229.241 1223.352 1218.083 1213.555 1221.847 1222.913 1221.204 1219.151 1223.193 1220.657 1209.282 1203.491 1198.089 1195.377 1196.579 
1251.443 1245.831 1240.316 1234.149 1230.276 1225.454 1224.657 1226.715 1230.853 1235.569 1239.503 1246.582 1247.926 1246.8 1246.098 1246.233 1247.564 1245.937 1240.953 1234.812 1230.383 1227.921 1224.016 1224.49 1228.395 1233.441 1236.229 1236.356 1233.961 1228.98 1221.376 1213.636 1207.309 1214.957 1218.093 1217.105 1219.151 1219.669 1219.339 1210.205 1204.324 1198.125 1194.996 1195.686 
1251.541 1246.83 1241.514 1234.534 1230.114 1230.427 1233.042 1236.089 1240.108 1244.738 1251.125 1250.744 1247.662 1243.386 1239.422 1239.97 1246.253 1245.407 1240.84 1235.11 1230.479 1226.412 1221.093 1219.717 1223.154 1230.857 1235.488 1236.892 1235.295 1229.758 1221.359 1212.486 1206.211 1207.642 1210.385 1217.105 1214.671 1212.718 1211.745 1209.911 1204.961 1198.127 1194.588 1195.2 
1251.166 1247.077 1241.563 1234.866 1232.277 1237.19 1240.707 1244.781 1249.261 1253.733 1254.823 1249.726 1244.047 1238.101 1232.827 1232.723 1243.139 1244.601 1240.28 1234.674 1229.766 1221.417 1217.35 1215.183 1219.389 1227.688 1234.063 1237.743 1235.463 1232.203 1226.489 1219.605 1208.604 1207.642 1210.385 1211.554 1210.406 1207.089 1207.518 1207.558 1204.19 1198.45 1194.624 1194.763 
1251.223 1246.519 1241.942 1238.415 1241.652 1245.293 1249.263 1253.314 1256.876 1258.265 1250.112 1244.009 1239.279 1233.077 1227.392 1226.373 1236.216 1238.409 1236.217 1233.155 1226.994 1215.142 1209.886 1209.828 1216.123 1223.574 1232.09 1238.269 1235.831 1232.708 1228.806 1223.555 1205.111 1206.046 1207.438 1208.467 1207.952 1205.701 1203.998 1203.008 1200.302 1197.354 1194.311 1194.162 
1253.22 1248.406 1245.041 1246.409 1250.966 1253.779 1256.457 1258.197 1257.746 1254.756 1243.353 1238.209 1234.017 1228.676 1222.355 1224.194 1230.046 1233.854 1234.702 1232.04 1224.581 1210.337 1206.224 1207.672 1213.216 1219.918 1229.232 1235.863 1233.399 1230.521 1226.635 1223.555 1208.594 1205.27 1205.474 1205.543 1205.27 1203.664 1200.106 1198.712 1197.068 1195.4 1193.624 1193.747 
