NCOLS 336
NROWS 10
XLLCORNER 718887.24
YLLCORNER 4166558.7
CELLSIZE 10
NODATA_VALUE -9999
77.12772 77.08947 77.03783 76.92967 76.89851 76.87078 76.83524 76.79356 76.69936 76.65154 76.60284 76.56049 76.49174 76.46937 76.45448 76.41294 76.41983 76.45928 76.48759 76.53036 76.58485 76.67995 76.72214 76.76418 76.80283 76.83301 76.8888 76.92912 76.96574 77.00262 77.09709 77.14771 77.20187 77.25167 77.2957 77.394 77.4389 77.46893 77.48456 77.49359 77.49416 77.47511 77.4551 77.44922 77.41543 77.40227 77.39269 77.39162 77.41856 77.42695 77.43913 77.45585 77.46995 77.50558 77.29147 77.30229 77.30663 77.31657 77.32082 77.31681 77.30833 77.30257 77.29884 77.28806 77.2886 77.3017 77.33886 77.3632 77.39364 77.43325 77.47327 77.54484 77.57641 77.60977 77.6372 77.66597 77.67993 77.69362 77.70171 77.70665 77.719 77.72504 77.73759 77.73951 77.7198 77.70575 77.6751 77.636 77.60881 77.57932 77.58775 77.62184 77.5839 77.65791 77.73043 77.82784 77.9523 78.11152 78.54347 78.78075 78.99214 79.17068 79.49319 79.64235 79.75593 79.96914 80.42551 81.74747 82.56574 83.57002 84.73709 86.59789 87.23717 87.27557 86.78815 86.10686 83.70659 82.66694 81.85633 81.04803 79.73333 79.59388 79.61008 79.66047 79.73236 79.66373 79.35976 78.832 78.29586 77.73196 77.67213 77.65813 77.53131 77.25862 77.05559 77.0492 77.08374 77.30093 77.91055 78.17036 78.3899 78.59798 78.83736 79.39233 79.77315 80.23613 80.73784 81.90482 82.43948 82.8298 83.04693 83.11983 83.09586 82.97305 82.74854 82.48581 81.93478 81.66296 81.52497 81.43127 81.20336 80.36554 79.90962 79.29942 78.4292 77.67788 77.87251 78.1863 78.82139 79.7449 79.94251 79.99066 80.15736 80.4473 81.08705 81.36656 81.40343 81.11437 80.63053 79.7067 79.76054 80.17812 80.90211 82.39346 83.20227 84.29006 85.44547 86.39716 87.37205 87.36815 86.95084 86.4711 86.88671 86.90966 86.4556 85.49274 84.00094 81.47517 80.36822 79.76412 79.88563 79.95803 79.77361 79.58925 79.51505 79.57254 79.96835 80.57452 82.21181 82.83997 83.19363 83.33286 83.50053 83.72964 84.47691 84.63584 84.55489 84.50728 84.58887 84.56119 84.55608 84.59121 84.66846 85.43182 86.23442 87.13972 88.04636 89.11694 91.75466 92.25977 92.41178 92.55715 92.34973 90.90725 89.29611 87.94135 86.34879 83.34189 82.5874 82.29475 81.9882 81.45917 81.13612 80.83201 80.39811 80.30805 83.01615 84.88043 86.15642 87.40374 90.30604 91.84376 93.01125 93.24571 92.30311 89.49685 88.78231 88.78542 89.4041 91.99512 92.7468 93.15833 93.61004 94.03368 94.95994 95.36024 95.81023 96.2871 97.11705 97.41903 97.63311 97.76611 97.75846 97.02998 96.46183 96.07467 95.85668 95.53937 95.40091 95.07582 94.42323 93.54385 92.12378 91.78227 91.72239 90.99495 91.40115 92.09167 93.22368 94.47717 95.46717 95.85046 95.28909 94.56709 93.56308 91.70212 91.24316 91.19569 91.53188 92.33878 95.64629 97.56326 99.02305 100.0222 102.0267 102.4899 102.6978 102.6765 102.5118 101.6454 100.8502 100.1562 100.0188 100.7121 101.1014 101.3598 101.4641 101.5389 101.4102 101.2563 101.4911 102.2916 104.0251 104.7618 105.5265 106.1841 106.7807 106.8476 106.2876 105.6115 104.9469 103.2726 102.372 101.5076 100.5601 99.58409
77.05332 77.02025 76.97544 76.92844 76.87712 76.85471 76.82176 76.77183 76.66048 76.6109 76.56329 76.5192 76.48285 76.41994 76.41098 76.41294 76.38155 76.43118 76.47495 76.51723 76.5573 76.59682 76.64998 76.66989 76.69609 76.72179 76.76976 76.80015 76.83046 76.86203 76.93727 76.99258 77.04453 77.0881 77.1304 77.21207 77.24005 77.26563 77.28929 77.29923 77.29161 77.27261 77.2592 77.25509 77.22904 77.2163 77.20722 77.20543 77.21875 77.22222 77.23486 77.24918 77.2561 77.28024 77.29147 77.07128 77.06995 77.05205 77.04935 77.0405 77.02714 77.01869 77.01347 77.00843 77.00684 77.01609 77.064 77.09293 77.1233 77.15635 77.19576 77.27517 77.30888 77.33997 77.37253 77.42661 77.44932 77.47157 77.49368 77.5126 77.55068 77.57786 77.60323 77.63141 77.6757 77.68775 77.69243 77.68338 77.66306 77.60517 77.58517 77.57767 77.5839 77.58033 77.60345 77.64632 77.71073 77.81129 78.14722 78.37357 78.61601 78.8565 79.2484 79.3823 79.56078 79.71669 79.88361 81.04213 81.88552 82.79244 83.78695 85.86945 86.65837 87.27499 87.40696 86.93511 85.13905 83.87871 82.86033 81.94125 79.97345 79.75166 79.6401 79.4698 79.44495 79.35484 79.1392 78.77861 78.35235 77.756 77.67632 77.65813 77.55124 77.28268 77.0465 77.05435 77.05424 77.0444 77.24777 77.35995 77.45274 77.54794 77.75529 79.01571 79.66082 80.21672 80.78011 82.21585 82.79172 83.12763 83.39734 83.64233 83.74495 83.66254 83.46598 83.11197 82.44591 82.2738 82.13255 82.01395 81.8892 81.11533 80.5955 79.98293 79.24389 78.46323 78.6199 78.77247 78.91911 79.53033 79.94251 79.50924 79.60871 79.73125 80.21442 80.42419 80.46364 80.27958 79.98497 79.53635 79.62548 80.08463 80.6953 82.03463 82.68304 83.60844 84.74997 85.7005 86.51166 86.41649 85.97097 85.39034 85.62861 85.7342 85.21029 84.25887 83.24132 80.98488 80.05476 79.51319 79.42217 79.52108 79.50859 79.5079 79.66278 80.11561 81.0874 81.57244 82.21181 83.61831 83.98895 84.08295 84.26307 84.47544 84.62683 84.50643 83.91264 83.47502 83.43665 83.3746 83.38554 83.3959 83.45574 83.78542 85.24072 85.8599 86.64906 87.62626 89.24783 89.82857 90.17394 90.32707 90.28046 89.06133 87.89732 86.79255 85.65737 83.14842 82.4216 82.00156 81.61354 81.23975 80.76131 80.42168 80.24802 80.76482 83.54063 84.88043 86.95191 88.19972 89.59872 92.60057 92.97836 92.57584 91.38293 89.04137 88.95594 89.42117 90.29557 91.37023 92.73554 93.13801 93.51856 93.93787 94.9454 95.3912 95.74717 96.09106 96.49992 97.11789 97.2865 97.34088 97.1943 96.01366 95.45531 95.14865 95.02742 94.8906 94.64648 94.26322 93.63538 92.97283 91.57523 91.18406 91.02477 90.99495 91.78386 92.62688 93.93124 95.18083 95.84579 95.94139 95.37541 94.49408 93.3583 91.69556 91.01343 91.01145 91.68266 92.62811 95.74967 97.58698 99.01522 100.0351 102.4992 103.6043 104.1231 104.1423 104.0857 103.3377 102.4922 101.7783 101.6391 102.4803 102.8866 103.0856 103.112 103.0677 102.5845 102.5221 102.6891 103.0671 104.2404 104.879 105.5265 105.512 105.7845 105.7091 105.2943 104.6826 103.9696 102.2855 101.3088 100.2939 99.29311 98.42426
76.9993 76.95784 76.92609 76.89575 76.8569 76.8309 76.78943 76.73347 76.6288 76.57514 76.51685 76.4584 76.41628 76.3805 76.36994 76.37118 76.38155 76.41691 76.44949 76.48824 76.51989 76.53587 76.555 76.56709 76.59379 76.61566 76.64558 76.67082 76.70415 76.73559 76.76226 76.83715 76.87975 76.92033 76.9543 77.01953 77.03849 77.05445 77.07489 77.08546 77.09663 77.0777 77.05163 77.05114 77.03625 77.0231 77.01392 77.01305 77.01635 77.02232 77.03294 77.04256 77.05175 77.05641 77.06172 77.07128 76.81626 76.80379 76.78145 76.77409 76.75941 76.74674 76.74017 76.73363 76.73058 76.74159 76.76741 76.81603 76.8466 76.88188 76.92087 76.99858 77.03088 77.07121 77.11572 77.14531 77.19748 77.23463 77.2706 77.29989 77.35678 77.40345 77.45006 77.47845 77.50078 77.57687 77.60784 77.64492 77.67205 77.64438 77.62744 77.60548 77.58813 77.58041 77.60345 77.57699 77.59786 77.64155 77.82584 77.9877 78.18195 78.39666 78.88316 79.10735 79.33553 79.54446 79.67925 80.27515 81.02171 81.88635 82.80598 84.83476 85.78881 86.55812 87.13384 87.37505 86.4484 85.41978 84.21532 83.1488 80.77041 80.02605 79.79668 79.66496 79.471 79.17516 79.03015 78.76588 78.36641 77.77264 77.67764 77.6638 77.55124 77.30216 77.05959 77.05325 77.05424 77.05035 77.03974 77.01133 76.9917 76.94009 77.01715 78.76601 79.6767 80.29507 80.93842 82.42026 82.97985 83.36165 83.68412 84.04495 84.42575 84.50879 84.47541 84.24944 83.57464 83.36957 83.1761 82.95189 82.73658 82.11096 81.6037 81.00935 80.29295 79.49291 79.52386 79.50236 79.41052 79.42349 79.50599 79.50924 79.11863 79.13903 79.5539 79.67645 79.69403 79.66119 79.6044 79.31676 79.51808 79.91747 80.38277 81.67112 82.30067 83.04687 83.93609 84.7569 85.43919 85.25882 84.58213 83.82021 84.0936 84.16113 83.74207 83.06297 82.30653 80.37149 79.70532 79.24648 78.93861 79.08138 79.33546 79.78638 80.42097 81.16196 82.45414 82.74888 83.08419 83.61831 84.8947 84.8954 85.05683 85.24947 85.23824 85.02357 84.70313 84.02152 83.20836 82.66254 82.60371 82.59715 82.65706 82.89814 84.15546 84.72659 85.29237 85.93331 87.30824 87.72691 87.92662 87.94406 87.8805 87.04835 86.33975 85.4946 84.55583 82.68792 82.03376 81.43464 81.00581 80.80918 80.24779 79.93667 80.23356 81.33377 84.03447 85.56688 86.95191 89.05861 90.31471 92.11493 91.63899 90.67735 89.60159 88.84827 89.26738 89.94497 90.78944 91.60871 92.74016 93.07523 93.37153 93.74145 94.8573 95.30285 95.65957 96.00745 96.40169 96.84742 96.93491 96.8645 96.53411 95.38615 94.83456 94.45586 94.29203 94.07764 93.69463 93.42581 93.03378 92.55673 90.99561 90.37618 90.04562 90.2305 91.05505 93.13422 94.43295 95.54398 96.11916 95.93517 95.41245 94.42196 93.03867 91.97012 90.92712 90.83289 91.27793 92.06446 95.01083 96.72813 98.18442 99.53015 101.1441 104.1792 104.9296 105.096 105.1247 104.6968 104.1343 103.5304 103.2637 103.5566 104.5229 104.5965 104.5143 104.3389 103.6598 103.6331 103.6117 103.5146 103.8279 104.6473 105.0985 105.512 104.9214 104.7766 104.3823 103.8251 103.1281 102.3082 100.155 98.88883 98.05503 97.65593
76.92386 76.90556 76.88749 76.86473 76.83753 76.79484 76.7402 76.69183 76.575 76.50581 76.4409 76.38712 76.3487 76.33634 76.34477 76.34748 76.35487 76.41691 76.40998 76.42815 76.4434 76.45737 76.46862 76.47574 76.49182 76.50494 76.52271 76.54899 76.57748 76.60155 76.63131 76.6915 76.7151 76.74688 76.78438 76.83926 76.86025 76.87176 76.87482 76.88002 76.88552 76.86391 76.84471 76.84441 76.82131 76.8124 76.8138 76.81901 76.82161 76.82227 76.82208 76.82666 76.83803 76.83852 76.83513 76.82634 76.81626 76.55064 76.52184 76.51029 76.48933 76.46891 76.46382 76.45753 76.47047 76.49565 76.50955 76.54924 76.57975 76.61489 76.65186 76.73209 76.77282 76.81236 76.8511 76.88899 76.96578 77.00868 77.04674 77.0855 77.1519 77.19989 77.25049 77.29665 77.34747 77.42187 77.45129 77.49778 77.55103 77.61032 77.62521 77.62473 77.61558 77.60759 77.58069 77.57699 77.5803 77.57803 77.65126 77.73459 77.84747 78.0113 78.21555 78.7349 79.02975 79.25503 79.46185 79.7736 80.21153 80.95727 81.78915 82.60579 84.52486 85.47159 86.1744 86.61735 86.84685 86.13384 85.00054 83.89973 82.91556 80.74023 80.13623 79.86292 79.6904 79.22668 79.02328 78.71423 78.31462 77.97798 77.67534 77.67052 77.55903 77.30216 77.10207 77.0805 77.10096 77.1285 77.16273 77.12155 77.0552 77.00021 77.08861 78.72958 79.70764 80.39906 81.01093 81.73046 83.0928 83.54376 83.95393 84.36704 85.14368 85.37109 85.49294 85.54681 85.56399 85.20547 84.87711 84.47042 84.09086 83.20663 82.65504 81.97723 81.16246 80.56299 80.15775 79.98906 79.73541 79.55589 79.04377 79.07365 79.11863 78.72625 78.48285 78.75753 78.85956 78.89092 78.94211 79.10988 79.33999 79.67236 80.12844 81.35297 81.98114 82.63609 83.26163 83.74214 84.0263 83.86721 83.27885 82.62564 82.96074 83.00462 82.57771 81.88976 81.1674 79.89841 79.39021 79.01563 78.90082 79.19697 79.68676 80.53845 81.56042 82.3957 84.12524 84.61484 84.71196 84.76646 84.8947 85.7043 85.6932 85.78452 85.82211 85.76251 85.4633 84.95719 84.26263 82.8225 82.41476 82.23965 82.29662 82.50577 83.14463 83.55627 84.08636 84.70711 85.65625 85.96232 86.05698 85.99939 85.91938 85.3644 84.93256 84.25174 83.44687 81.99317 81.26951 80.6342 80.27391 80.22417 80.00685 79.77453 80.35044 81.7851 84.65009 86.20811 87.70318 89.05861 89.90533 89.91535 89.39999 88.76592 88.44296 89.11331 89.632 90.26647 90.97208 91.65014 92.50553 92.78509 93.03183 93.3978 94.71963 95.27275 95.6273 95.88226 96.18743 96.53976 96.63593 96.50208 96.12135 95.06529 94.45239 93.77759 93.225 92.98811 92.91722 92.75108 92.44575 91.89766 90.24236 89.46064 89.2741 89.97693 91.13311 93.13422 94.51201 95.42481 96.04179 95.824 95.20477 94.23905 92.99293 91.98664 90.82766 90.75421 91.08871 91.68896 94.62958 96.31845 97.84776 99.41611 101.1498 104.0747 105.0584 105.6317 105.8522 105.4883 105.0917 104.5757 104.3452 104.6983 105.4122 105.5088 105.3992 105.1131 104.3681 104.1777 103.8186 103.5256 103.756 104.1601 104.509 104.777 104.9214 103.9935 103.5071 102.94 102.3056 101.5168 99.08151 97.92694 97.22619 96.83469
76.86926 76.854 76.83569 76.81218 76.75985 76.73045 76.68311 76.61912 76.49419 76.42722 76.36756 76.32561 76.30011 76.29015 76.31155 76.33442 76.35151 76.38916 76.40998 76.35802 76.35925 76.37267 76.37985 76.38588 76.39364 76.40203 76.4197 76.43323 76.45003 76.47007 76.50014 76.54958 76.56493 76.59574 76.62535 76.66463 76.67816 76.68499 76.68966 76.69315 76.67892 76.66733 76.65472 76.64922 76.63383 76.61952 76.61341 76.61393 76.61897 76.61965 76.62083 76.62247 76.62096 76.61089 76.59638 76.57508 76.55935 76.55064 76.26643 76.25023 76.22054 76.19438 76.19193 76.19554 76.2098 76.23148 76.24982 76.29533 76.32121 76.34171 76.37393 76.47001 76.52353 76.56926 76.60472 76.64522 76.73169 76.77574 76.82402 76.8713 76.95493 77.00454 77.06092 77.10889 77.14704 77.24904 77.30585 77.34214 77.36913 77.46377 77.47962 77.49612 77.51288 77.50079 77.54485 77.58394 77.5803 77.58526 77.61748 77.63554 77.67247 77.76344 77.9011 78.28429 78.53777 78.79372 79.0858 79.62704 79.74033 80.1069 80.79145 81.54007 83.12811 83.99793 84.73049 85.26932 85.90685 85.63462 84.76923 83.67927 82.78564 81.14713 80.46563 80.06654 79.79321 79.25822 78.93084 78.55762 78.17747 77.8922 77.66649 77.68298 77.58983 77.35913 77.10207 77.17455 77.21507 77.26043 77.28085 77.19463 77.0778 76.97659 77.12296 78.76646 79.69698 80.38956 80.98613 81.70474 83.09579 83.6307 84.1216 84.61565 85.60562 86.01845 86.33406 86.55315 86.65633 86.55859 86.31458 85.96452 85.54585 84.38239 83.66897 82.87506 81.85075 81.36972 80.84059 80.38936 80.07702 79.72076 78.95035 78.85152 78.8658 78.72625 77.97013 77.61513 77.82073 78.05087 78.28556 78.74133 79.02956 79.40785 79.87384 80.39822 81.37357 81.97289 82.53722 82.86441 82.97118 82.80043 82.31049 81.7771 81.55103 81.28876 81.04392 80.57641 80.06272 79.43132 79.06398 78.88309 79.02045 79.30099 80.59489 81.83611 82.9402 83.87296 85.74902 86.16433 86.12726 85.9342 85.85484 85.7043 85.6932 87.01094 87.40689 87.28136 86.76501 86.10762 85.37589 84.52543 82.90037 82.30799 82.01863 82.14294 82.47758 82.61639 82.95448 83.52137 84.09264 84.80245 84.89276 84.85605 84.70061 84.13611 83.63906 83.08431 82.51189 81.86709 80.36986 79.92702 79.85656 79.87286 79.76066 79.73274 80.63363 82.34508 83.78742 86.70664 88.2702 89.4971 89.90533 87.57917 87.39435 87.80625 88.56103 89.88075 90.32845 90.46046 90.75947 91.43162 92.07612 92.15501 92.31254 92.78732 94.33282 95.01959 95.42911 95.65173 95.90113 96.33544 96.52338 96.58476 96.27244 95.12371 94.31139 93.0654 92.08023 91.91261 92.11111 91.95351 91.50092 90.82462 89.34288 88.89077 89.2179 90.21892 91.31796 93.42729 94.51201 95.61539 96.1655 95.75408 95.11725 94.25839 93.21764 92.29001 90.59531 90.71587 91.58366 92.66946 95.7354 97.00056 98.2731 99.83187 101.5744 104.3103 105.275 106.1035 106.6215 106.5747 106.3249 106.109 106.051 106.129 106.3158 106.2331 105.9824 105.5638 104.6092 104.2109 103.8399 103.5559 103.4366 103.6676 103.9559 104.1082 104.2332 103.9935 102.6397 102.1424 101.5109 100.6174 98.30636 97.35121 96.56847 96.0645
76.81441 76.8136 76.80138 76.76993 76.70813 76.67095 76.6164 76.53976 76.46212 76.34421 76.30654 76.28687 76.27625 76.27248 76.29158 76.30676 76.31723 76.3315 76.35845 76.35802 76.29227 76.28826 76.28597 76.28606 76.29234 76.30344 76.30408 76.3204 76.33154 76.34599 76.36748 76.42008 76.43262 76.44002 76.4557 76.48195 76.49718 76.49953 76.50359 76.50733 76.48418 76.46958 76.45904 76.44803 76.43748 76.4072 76.4017 76.40774 76.41341 76.41409 76.41085 76.41314 76.4122 76.4012 76.36654 76.34155 76.32297 76.30418 76.26643 76.01282 75.97926 75.95084 75.95317 75.95768 75.9623 75.96937 75.98209 76.02843 76.05809 76.09277 76.1303 76.22751 76.2869 76.32777 76.35947 76.40008 76.48631 76.53518 76.59159 76.64738 76.7481 76.80795 76.86156 76.90552 76.95214 77.06101 77.10371 77.14778 77.19308 77.25858 77.27601 77.2923 77.29857 77.29014 77.43809 77.53 77.5675 77.58526 77.62807 77.63567 77.63517 77.66183 77.71889 77.93552 78.09216 78.35004 78.67351 79.2247 79.51713 79.70191 79.97084 80.51883 81.88863 82.50452 83.09162 83.62495 84.12713 84.04514 83.636 83.00194 82.32835 81.06927 80.45051 80.00756 79.7466 79.15785 78.72575 78.32922 78.02981 77.80419 77.67302 77.70808 77.65087 77.47347 77.19164 77.17455 77.26257 77.30724 77.3153 77.18645 77.05613 76.97762 77.18816 78.73926 79.55091 80.24479 80.88364 81.56996 82.97076 83.5591 84.1272 84.69216 85.78817 86.40567 86.97307 87.38347 87.66542 87.85879 87.71288 87.35899 86.87158 85.60433 84.7826 83.8528 82.74358 81.86414 81.33697 80.94183 80.38005 79.92032 79.01325 78.85207 78.79008 78.55348 77.97013 77.02627 77.22725 77.55581 77.85676 78.30466 78.60163 78.99271 79.40826 79.86279 80.74413 81.08745 81.42886 81.67892 81.63918 81.47817 81.13744 80.66805 80.23164 79.90591 79.85619 79.70286 79.59338 79.02998 78.89112 79.16014 79.54079 79.95466 81.91202 83.05712 84.09583 85.12354 86.59576 86.82915 86.84616 86.75916 86.70867 86.69711 86.72836 87.01094 89.04125 88.99573 88.31113 87.45973 86.53679 85.60064 83.6405 82.81179 82.24998 81.90513 81.90157 82.17208 82.41702 82.63995 83.06757 83.73603 83.77251 83.73282 83.56873 83.06271 82.64406 82.17661 81.66178 81.01196 79.94042 79.66628 79.48228 79.45005 79.60037 80.09545 81.45779 83.13857 84.42986 86.91256 88.04465 88.74496 88.51111 87.57917 86.75531 88.28259 89.59419 90.43656 91.49971 91.16678 90.81226 91.03677 91.44916 91.54893 91.75767 92.2175 92.96214 94.56071 95.16357 95.46938 95.71033 96.1386 96.1775 96.25968 96.20325 95.71095 94.15311 92.88408 91.90786 91.40495 90.99876 90.71093 90.31237 89.75917 89.16092 88.88351 89.55611 90.53893 91.55077 93.7855 94.80537 95.61539 96.36964 96.31031 95.06843 94.2033 93.2074 92.2208 89.91341 90.13882 91.61449 93.34752 95.01205 98.15874 99.4443 100.7528 102.2432 104.8268 105.6785 106.6216 107.3665 107.5715 107.4128 107.2434 107.2439 107.3765 107.2262 106.8686 106.2566 105.5697 105.0258 104.0839 103.6345 103.1897 102.8983 103.0532 103.2415 103.4154 103.4314 103.3696 102.6397 101.3832 100.5638 99.45802 97.49215 96.63064 95.7972 95.35051
76.76148 76.75609 76.74158 76.71784 76.65542 76.6128 76.54205 76.45634 76.38516 76.27996 76.2631 76.25838 76.25911 76.26876 76.27406 76.2714 76.27052 76.28303 76.28647 76.28879 76.29227 76.19949 76.19529 76.19419 76.19823 76.2093 76.21232 76.21162 76.21661 76.22762 76.24551 76.27988 76.28998 76.29913 76.31349 76.32656 76.3334 76.32452 76.31832 76.32168 76.29772 76.27655 76.26131 76.25077 76.23996 76.20101 76.19962 76.20901 76.20679 76.21605 76.20821 76.20113 76.20055 76.19118 76.1361 76.1206 76.10165 76.07354 76.02935 76.01282 75.73662 75.7226 75.72455 75.71848 75.73112 75.74967 75.76204 75.80493 75.83006 75.86264 75.90005 75.93452 76.03134 76.08505 76.12606 76.16948 76.27002 76.30847 76.36005 76.42221 76.47582 76.60728 76.67328 76.72059 76.76998 76.87052 76.91899 76.96692 76.99979 77.02036 77.02917 77.03264 77.01637 77.02639 77.31307 77.4061 77.47342 77.52172 77.56541 77.57847 77.6464 77.68075 77.66787 77.72241 77.83393 77.99198 78.19025 78.43058 79.01897 79.33715 79.56137 79.75768 80.6085 81.16111 81.63319 81.98077 82.2363 82.44431 82.27878 81.92639 81.38909 80.3952 79.9739 79.65376 79.39362 79.09254 78.37464 78.06531 77.84586 77.71729 77.69792 77.73457 77.69028 77.55799 77.40277 77.24403 77.26257 77.28783 77.30112 77.17646 77.05585 76.98227 77.21268 77.85857 79.2826 79.97427 80.64823 81.35168 82.75155 83.36855 83.95678 84.57313 85.90972 86.6544 87.43816 88.10991 88.58035 89.06979 88.9913 88.72363 88.24973 86.75379 85.84773 84.93987 83.95937 83.12029 82.03575 81.56204 80.86697 80.21647 79.30199 78.98205 78.67849 78.23886 77.72591 77.02627 76.97596 77.21642 77.50415 77.70195 77.96336 78.38656 78.81359 79.22604 80.04053 80.24396 80.38252 80.52083 80.47461 80.2972 79.9965 79.70506 79.60262 79.38994 79.35819 79.29264 79.2296 78.98809 79.0873 79.4759 79.99907 80.81791 82.87038 83.99362 85.12405 86.06429 86.94437 87.22529 87.32426 87.38715 87.54575 87.77228 88.02034 88.48612 89.04125 90.01234 89.54124 88.79284 87.71334 86.57673 84.43932 83.28121 82.31754 81.48941 81.27203 81.52365 81.80345 82.15215 82.48995 82.83792 82.84534 82.80302 82.642 82.11869 81.76149 81.33501 80.82478 80.27946 79.67318 79.42866 79.41166 79.66419 79.97081 81.04395 82.46046 83.73644 84.90038 86.84524 87.23076 87.21024 86.84457 85.94408 86.75531 89.61199 90.81906 91.8783 92.31833 91.94657 91.16156 90.49237 90.62174 90.82161 91.16424 91.64105 92.32526 93.84071 94.65151 95.24754 95.51112 95.84544 95.91443 96.08204 96.12241 95.78664 94.13524 92.85494 91.82057 90.96612 89.74101 89.61033 89.40151 88.99555 88.7128 89.21242 90.01992 90.97418 91.96358 94.18701 95.22056 95.95986 96.36964 96.31031 94.97373 94.026 93.045 91.99052 89.32179 89.59993 91.43134 93.65575 95.53856 98.97179 100.3005 101.6941 103.1652 105.1967 105.8824 106.7641 107.5357 107.9229 107.9835 107.87 107.8405 107.9143 107.6327 107.0199 106.2078 105.4377 104.8088 103.5921 102.9603 102.4587 102.2723 102.3833 102.5042 102.5964 102.5763 102.4943 101.9196 101.3832 99.61239 98.4968 96.62967 95.83135 95.04181 94.90978
76.68982 76.707 76.70004 76.67557 76.61329 76.54952 76.45947 76.36848 76.30279 76.24207 76.22954 76.23371 76.24899 76.23878 76.23051 76.22752 76.22911 76.23225 76.22011 76.21828 76.21293 76.19949 76.10384 76.10526 76.10704 76.11115 76.11546 76.10307 76.1073 76.11813 76.12771 76.15295 76.153 76.16193 76.17066 76.16422 76.16474 76.15578 76.1524 76.14212 76.10867 76.09077 76.07467 76.06519 76.04884 76.00581 76.00498 76.0014 75.99994 76.01136 76.00188 75.99309 75.98872 75.97716 75.92021 75.90301 75.88588 75.85643 75.78327 75.75712 75.73662 75.50124 75.4973 75.49042 75.50462 75.52386 75.5416 75.59212 75.61125 75.63786 75.66881 75.69954 75.80806 75.85384 75.89948 75.95712 76.03828 76.0935 76.15354 76.20637 76.26266 76.38762 76.45053 76.51398 76.5747 76.67439 76.72049 76.76308 76.7986 76.82203 76.78087 76.79563 76.85334 76.94221 77.19982 77.26094 77.30156 77.32909 77.37533 77.57847 77.546 77.6466 77.69274 77.64899 77.68398 77.75696 77.85608 78.01676 78.4753 78.73779 79.02489 79.29784 79.63656 79.87263 80.13582 80.34514 80.48693 80.56928 80.52337 80.35968 80.06195 79.48386 79.26787 79.01692 78.75845 78.5146 78.01617 77.82941 77.7139 77.66862 77.7468 77.75787 77.71178 77.60518 77.46965 77.27775 77.25632 77.28783 77.30112 77.14063 77.0221 76.91369 77.06644 77.60546 78.8966 79.60739 80.28387 80.96701 82.3734 82.98042 83.5863 84.31107 85.12797 86.83212 87.80228 88.66525 89.31879 90.02993 90.14223 89.99014 89.5591 88.89162 87.04362 86.12129 84.92979 84.10651 82.93153 82.23595 81.44056 80.57523 80.0337 79.27603 78.82761 78.32176 77.80932 76.95398 76.97596 76.98088 77.12199 77.17682 77.35074 77.71983 78.06648 78.41571 79.13841 79.38997 79.5517 79.6385 79.65855 79.6076 79.50095 79.35249 79.19376 78.93895 78.91607 78.8933 78.84367 78.88881 79.38791 79.6775 80.29607 81.30515 83.61189 84.94365 85.97401 86.55057 86.88629 87.50071 87.7381 87.99767 88.2626 88.60904 88.83582 89.24094 89.79731 90.23589 89.56432 88.90002 87.92201 86.89641 84.6099 83.20823 82.01022 80.85521 80.47278 80.95586 81.29193 81.5453 81.78513 81.88297 81.84267 81.78905 81.70086 81.18484 80.88597 80.53682 80.12948 79.77768 79.46898 79.24437 79.39594 80.01276 81.17208 82.16467 83.22176 84.18026 85.21479 86.52695 86.4389 86.15837 85.88434 86.1227 87.85091 89.61199 91.50935 92.54449 92.47227 91.70975 90.68877 89.94212 89.65696 89.73663 90.12729 90.75241 91.56579 93.18122 93.88611 94.58194 95.1104 95.49673 95.52081 95.58782 95.63235 95.40559 93.76999 92.74967 91.79217 90.77102 88.73898 88.44388 88.08644 87.69846 87.97079 89.50938 90.33077 91.20659 92.02766 94.30909 95.30102 95.94093 96.18838 96.04108 94.97373 93.54791 92.67941 91.60573 89.01663 89.65715 91.70599 93.88127 95.69711 99.16711 100.6501 102.1477 103.4514 105.1188 105.6486 106.3001 107.0087 107.6904 108.3916 108.4532 108.3657 108.1498 107.3546 106.6897 105.9407 105.2074 104.489 102.8716 102.0773 101.6608 101.5836 101.7027 101.7885 101.878 101.9139 101.8358 101.2477 100.5562 99.61239 97.91445 95.69521 95.03974 94.56792 95.07764
76.62162 76.63607 76.63372 76.62325 76.59817 76.49564 76.39795 76.30471 76.24928 76.20753 76.21766 76.2301 76.22501 76.20326 76.17766 76.17797 76.17492 76.16393 76.14548 76.13771 76.12666 76.11339 76.10806 76.02094 76.01813 76.01478 76.01328 76.00548 76.00314 76.0074 76.01333 76.01982 76.01946 76.02771 76.02718 76.01556 76.00935 75.99805 75.98328 75.9662 75.92448 75.91145 75.88868 75.86606 75.85498 75.79851 75.79074 75.7992 75.80068 75.80412 75.80832 75.80805 75.79874 75.77553 75.70951 75.68351 75.65834 75.62792 75.56178 75.53815 75.51637 75.50124 75.27798 75.28573 75.30114 75.32346 75.3457 75.38834 75.41227 75.4293 75.44817 75.47906 75.58263 75.63114 75.68238 75.73642 75.83076 75.88508 75.93793 75.99528 76.05836 76.18336 76.24581 76.30834 76.37219 76.47109 76.52238 76.56225 76.59348 76.62678 76.62424 76.68523 76.78397 76.8701 77.05862 77.09866 77.08118 77.05973 77.11224 77.42205 77.546 77.4342 77.59144 77.73699 77.69468 77.67055 77.6777 77.73901 78.01295 78.20834 78.43655 78.6775 79.04248 79.20043 79.30585 79.33871 79.32897 79.28919 79.25314 79.17071 79.06148 78.71456 78.54597 78.34747 78.1275 77.96047 77.75844 77.68761 77.67353 77.70972 77.76631 77.76113 77.66672 77.5403 77.46863 77.3169 77.27786 77.26134 77.242 77.14063 76.96094 76.90911 76.95345 77.17436 78.3979 79.10091 79.79089 80.47373 81.81932 82.43311 83.07184 83.92501 84.95799 86.91909 87.96275 88.94041 89.77834 90.93903 91.20736 91.42411 91.2049 90.2674 88.40235 87.3375 86.03687 85.25113 83.90985 83.16208 82.32336 81.45699 80.70966 79.76093 79.32599 78.75961 78.11027 76.91941 76.83987 76.98088 76.84248 76.85789 76.95259 77.14387 77.29509 77.47784 78.12353 78.42997 78.64273 78.79099 78.95945 79.19606 79.0842 78.93376 78.78104 78.36417 78.08485 77.99237 78.15751 78.4693 79.26205 79.64058 80.36004 81.49261 83.92739 85.49362 86.49886 86.668 86.78593 87.21432 87.62705 88.21014 88.76032 89.24734 89.45549 89.7307 89.97971 90.11148 89.56432 87.6821 86.98878 86.12704 83.702 82.64159 81.66669 80.53869 79.87299 80.52454 80.84614 80.92946 80.86428 80.87634 80.84064 80.76955 80.68129 80.55732 80.16765 79.84232 79.56049 79.34927 79.20376 79.0869 79.38202 80.1684 80.91525 82.5796 83.33976 84.16268 85.02937 85.69317 85.4388 85.21761 85.28613 85.88715 88.76068 90.26875 91.50935 91.54385 91.34976 90.68958 90.00272 89.45714 89.00154 88.70121 89.05094 89.81705 90.89252 92.53657 93.04911 93.55286 93.99866 94.38576 94.71803 94.86196 94.89442 94.58669 93.11298 92.33443 91.40622 90.3918 89.4809 87.24281 86.34281 86.61314 88.08719 89.84159 90.49287 91.2123 91.97794 92.72974 94.77771 95.46671 95.6681 95.45267 94.38823 93.54791 91.99989 90.79971 89.61533 89.80636 91.84683 93.85106 95.66789 98.96565 100.451 101.8051 102.8478 104.3434 104.6588 105.2663 106.2287 107.1578 108.3579 108.4264 108.1398 107.8211 106.8559 106.134 105.4492 104.826 104.1505 102.221 101.3493 100.8717 100.717 100.8306 101.0503 101.1704 101.1527 101.0839 100.4452 99.77143 98.9723 97.91445 94.90351 94.44987 94.47838 95.58162
76.5247 76.55247 76.56886 76.56106 76.5367 76.43346 76.33705 76.25114 76.19555 76.17288 76.19216 76.19336 76.17587 76.16113 76.1386 76.13099 76.12206 76.10658 76.07867 76.06493 76.05148 76.03702 76.0265 76.02094 75.92989 75.92144 75.92016 75.91052 75.90219 75.90371 75.91092 75.91076 75.89967 75.89863 75.89738 75.88955 75.85829 75.84361 75.81982 75.79245 75.77199 75.7214 75.69738 75.68128 75.67065 75.61382 75.59554 75.61153 75.6213 75.60181 75.60262 75.6045 75.59308 75.57044 75.51874 75.48979 75.4621 75.42985 75.39178 75.34669 75.31537 75.28667 75.27798 75.08668 75.11363 75.14582 75.17175 75.19538 75.24494 75.26023 75.27603 75.30422 75.39556 75.43922 75.47588 75.52343 75.57803 75.68146 75.73411 75.79089 75.85293 75.98727 76.04562 76.10315 76.16721 76.22749 76.31867 76.37067 76.41478 76.44119 76.50652 76.59331 76.68758 76.76474 76.83966 76.91348 76.88563 76.87079 76.95461 77.25254 77.33575 77.4342 77.64153 77.84351 77.82774 77.76943 77.70884 77.67922 77.72168 77.82813 77.9519 78.10198 78.28267 78.49781 78.57881 78.60335 78.58305 78.53497 78.47683 78.39595 78.30665 78.07198 77.95594 77.86467 77.78862 77.72051 77.66177 77.68033 77.68568 77.70464 77.77529 77.67742 77.58327 77.49962 77.40957 77.3124 77.26408 77.22971 77.19439 77.06788 76.96094 76.92297 76.91187 76.92366 77.73324 78.45834 79.21107 79.92 81.22785 81.89565 82.55201 83.43675 84.59409 86.78452 87.97827 89.15842 90.23918 91.73412 92.11935 92.27159 92.03491 91.36113 89.41328 88.50072 87.44576 86.68433 85.28172 84.34641 83.45158 82.60617 81.86333 80.49538 79.94363 79.26199 78.45683 76.99997 76.79872 76.82544 76.84248 76.74455 76.73786 76.82058 76.89461 76.9565 77.33875 77.53728 77.6451 77.78746 78.09002 78.66459 78.68754 78.55934 78.34624 77.77837 77.50259 77.26959 77.26427 77.71053 79.09818 79.57146 80.28944 81.43777 83.84764 84.94627 85.83997 86.26244 86.2312 86.42292 87.00381 87.772 88.42863 89.40343 89.56438 89.40114 89.09267 88.87964 88.23985 87.6821 85.64771 84.77794 82.79925 82.03027 81.34667 80.5755 79.97625 80.22933 80.44764 80.37926 80.18691 80.12983 80.09282 79.97363 79.84531 79.77665 79.50314 79.21912 78.95803 78.81912 78.87543 79.08801 79.63239 80.38476 81.13688 82.71199 83.24181 83.78275 84.33307 84.52468 83.86912 83.52945 84.32706 86.07208 88.89771 90.06374 90.9106 91.54385 89.47161 89.14481 88.7177 88.26539 87.87347 87.53933 88.08255 89.03866 90.03707 91.5411 92.02528 92.34399 92.55409 92.67918 92.89212 93.10791 93.25313 93.18149 92.24476 91.37695 90.58347 89.89872 89.01464 86.2937 85.72617 86.57079 88.32716 89.98299 90.40754 90.63715 91.0173 91.85437 93.57064 94.03898 94.1706 94.05746 93.4088 92.8746 91.99989 89.65626 88.83842 89.72916 91.38845 93.26796 95.1534 98.28245 99.69525 100.9765 101.9027 102.5148 103.5144 104.2242 105.2489 106.4404 107.8696 107.908 107.7522 107.4499 106.9256 105.5519 104.9264 104.2673 103.5118 101.7204 100.8555 99.88578 99.12782 99.10755 100.0239 100.2926 100.3414 100.2329 99.61326 99.13675 98.42051 97.25299 95.83176 94.29929 94.54195 95.87988
