NCOLS 84
NROWS 85
XLLCORNER 359546.32
YLLCORNER 3765775.4
CELLSIZE 10
NODATA_VALUE -9999
58.14345 58.29037 58.42513 58.54381 58.7662 58.821 58.8636 58.88474 58.90416 58.90662 58.92125 58.85115 58.67159 58.34005 57.84842 57.1823 55.78302 55.11282 53.20261 49.48552 45.7966 43.98663 40.71101 39.32407 38.21487 37.4319 36.71156 35.97816 34.12963 33.53691 33.16147 32.82222 32.47163 31.68838 31.07572 30.38515 29.47633 28.3047 27.16579 25.30261 24.13695 20.48988 16.53293 14.58861 13.2469 11.99703 12.08028 12.323 12.57422 12.84542 13.19835 14.11543 14.62793 15.18943 15.79329 16.36088 16.82282 17.27393 17.47421 17.92127 18.42875 18.8239 19.22714 21.42342 21.19424 20.8564 20.53204 20.27274 20.03467 19.59 19.35996 19.16619 18.94209 18.75689 18.69356 18.63887 18.56129 18.52804 18.46144 18.36435 18.49928 19.95677 20.8433 21.75716 
57.47078 57.57251 57.62658 57.80275 58.22003 58.41746 58.45324 58.42585 58.50151 58.49163 58.37193 58.24218 58.07094 57.70356 57.1545 56.64552 55.48812 54.98175 52.66756 48.60129 45.42499 43.68123 40.66917 39.34454 38.2448 37.43423 36.62215 34.57446 33.52878 32.93148 32.58614 32.23912 31.90255 31.14684 30.54239 29.89368 29.07866 28.05411 27.03434 25.11835 23.7852 20.75377 17.2456 14.97279 13.37572 11.67037 11.70417 12.01571 12.25408 12.5519 12.96041 13.77943 14.35813 14.91341 15.38096 15.76175 16.05555 16.27398 16.28762 16.54419 17.03045 18.8239 19.22714 19.50804 19.24727 18.86148 18.57445 18.40169 18.24599 18.15971 18.22249 18.24355 18.20738 18.21854 18.31417 18.22353 18.21879 18.15582 18.04887 18.17978 18.72993 20.55925 21.58887 22.43534 
56.80315 56.90082 56.99567 57.20536 57.70405 57.85648 57.92564 57.96331 58.04295 58.12251 57.9393 57.72794 57.46716 57.1119 56.67831 56.24739 55.27523 54.88985 52.10311 47.62072 45.06665 41.90926 40.58138 39.27945 38.19705 37.36552 36.44522 34.17231 33.04491 32.3129 31.84269 31.4782 31.20833 30.35057 29.82015 29.19854 28.44951 27.63069 26.74044 24.89611 23.40709 20.45655 17.16056 14.96458 13.49199 11.60482 11.39305 11.6257 11.95311 12.19207 12.43807 13.33144 13.80372 14.31491 14.81912 15.11606 15.32911 15.49749 15.50687 16.54419 17.03045 17.37813 17.51138 17.65754 17.4498 17.19342 16.98436 16.83413 16.77214 17.16958 17.43222 17.57916 17.67869 17.79247 17.82917 17.75107 17.68536 17.67552 17.92309 18.46191 20.19886 21.29113 22.24009 23.33394 
56.06757 56.19544 56.47687 56.72308 57.1615 57.32111 57.41898 57.5631 57.73448 57.81788 57.5202 57.29824 56.98054 56.64355 56.3461 55.55018 55.09347 54.53749 51.20128 46.51116 44.68779 41.80381 40.51688 39.20335 38.08226 37.16752 36.15199 33.76488 32.64456 31.73104 31.04982 30.62023 30.29367 29.58656 29.11128 28.52872 27.87852 27.15375 26.3568 24.62916 22.89108 19.69695 16.54115 14.71865 13.31218 11.40491 11.19866 11.32119 11.52529 11.78096 12.04497 12.81731 13.34128 13.80096 14.17279 14.47439 14.61708 15.49749 15.50687 15.59893 15.89468 16.23044 16.35044 16.08618 15.91533 15.81592 15.74844 15.66944 15.75723 16.57869 16.85443 16.9498 17.04565 17.22127 17.14349 17.20623 17.33783 17.71204 18.37694 19.14975 21.05019 22.08656 23.15827 25.29593 
55.41399 55.59029 55.85264 56.1367 56.68545 56.92982 57.15646 57.39602 57.58505 57.39016 57.23472 56.96491 56.64049 56.36866 56.11053 55.3548 54.95406 53.85558 50.17313 45.79523 44.28903 41.64046 40.41924 39.13388 37.99622 37.0476 35.95885 33.5451 32.42509 31.44989 30.61928 30.00966 29.54126 28.78181 28.35749 27.82416 27.19591 26.58994 25.96596 24.37526 22.24434 18.74767 15.84181 14.46474 13.12228 11.21274 10.92741 11.00498 11.22233 11.49927 11.81708 12.28745 12.77367 13.18144 13.47005 14.47439 14.61708 14.89249 14.97005 15.0799 15.22526 15.35577 15.42091 15.36912 15.29817 15.28761 15.29342 15.28304 15.77185 16.13202 16.26788 16.23731 16.2856 16.47815 16.94804 17.29539 17.81447 18.47358 19.24165 20.14242 22.14057 23.02993 25.41011 29.24237 
55.0135 55.07947 55.23599 56.04738 56.28667 56.67086 57.10839 57.29693 57.30137 57.19801 57.04305 56.82453 56.58787 56.32245 55.99854 55.24876 54.85896 53.15219 49.31987 45.55408 44.18932 41.48573 40.2567 39.03437 37.91722 36.84878 35.57823 33.38854 32.34212 31.34613 30.47801 29.73993 29.10104 28.19445 27.60898 27.03872 26.5288 25.96633 25.2656 24.04258 21.23234 17.60559 15.36396 14.05123 12.64162 11.00296 10.66231 10.72559 11.02188 11.25533 11.40551 11.94143 12.30244 12.55524 13.47005 13.82703 13.91589 14.21199 14.34813 14.41918 14.5227 14.67842 14.77744 14.80464 14.80963 14.84557 14.95282 15.05926 15.38335 15.56482 15.65998 15.84924 16.21853 16.69322 17.75243 18.36008 19.05739 19.67482 20.34808 21.37073 23.43981 26.06645 30.10305 34.41402 
52.02539 53.932 55.01282 55.61885 56.27457 56.91039 57.24557 57.26315 57.16341 56.90926 56.81353 56.64235 56.36735 56.05275 55.75728 55.00277 54.66179 52.72421 49.11891 46.00854 44.43528 41.19233 39.90129 38.75979 37.62588 36.53004 35.44567 33.25706 32.31632 31.36318 30.46 29.64189 28.89536 27.4552 26.77709 26.22145 25.70837 25.17003 24.57942 21.58282 18.13717 15.68074 14.62793 13.48063 12.23514 10.78744 10.41682 10.41093 10.69857 10.93735 11.1234 11.59099 12.30244 12.55524 12.82084 13.13145 13.29494 13.49566 13.72569 13.8394 13.94338 14.09862 14.26551 14.34976 14.38435 14.40443 14.52747 14.76234 15.11078 15.32424 15.51396 15.89339 16.77308 17.98171 19.52843 20.22386 20.72284 21.07263 21.641 22.55444 26.77042 31.28234 36.03504 41.04096 
42.75848 47.38371 51.96902 55.63478 56.33157 57.0433 57.32013 57.31885 57.03017 56.71227 56.60133 56.39742 56.09651 55.78474 55.52882 54.80465 54.03935 52.20921 49.49025 46.90642 44.92627 40.81778 39.27736 38.15875 37.22307 36.24384 35.20012 33.23656 32.40089 31.4655 30.40844 29.33101 28.31527 26.59542 26.03318 25.47588 24.85418 24.29543 23.48287 17.73766 15.66208 14.72578 13.8284 12.69131 11.63223 10.56463 10.21552 10.16372 10.38975 10.63786 11.36123 11.59099 11.82026 12.00023 12.22254 12.56227 12.81584 12.98659 13.19775 13.33352 13.43406 13.58837 13.70775 13.84465 14.02596 14.22245 14.50394 14.86086 15.30305 15.47493 15.58768 16.08037 17.61069 19.82848 21.8989 22.52713 22.73291 22.6809 22.94211 24.18999 31.86595 37.40333 42.84219 48.54057 
32.07025 36.61018 44.09976 54.75409 56.32425 56.50105 56.90644 57.17941 57.06057 56.75469 56.62771 56.39647 56.00101 55.55099 55.23132 54.56799 53.5493 51.8044 49.78761 47.78802 45.55188 40.20958 38.68243 37.66103 36.73567 35.77274 34.83057 33.277 32.43249 31.43997 30.09428 28.45342 26.94989 25.63453 25.11599 24.61002 24.00202 22.58464 19.5719 14.97438 14.49371 13.74027 12.84488 11.92113 10.68883 10.26761 9.906392 9.899756 10.38975 10.63786 11.06583 11.22079 11.38152 11.5267 11.77768 12.16431 12.41619 12.49476 12.68094 12.84028 12.91005 13.06671 13.53591 13.95167 14.4162 14.83391 15.13591 15.3341 16.69718 17.49266 18.26995 19.33654 20.89325 22.56661 24.00248 24.50223 24.75999 24.97562 25.74368 27.84379 38.0439 44.4096 50.14046 53.92027 
24.10716 28.79898 35.00546 49.26395 54.35094 56.30479 56.45716 56.6594 56.83903 56.87242 56.74625 56.36774 55.93844 55.52682 55.18292 54.10626 53.01688 51.48083 49.76815 48.09095 46.00426 39.29738 37.95759 37.10004 36.13213 35.2234 34.51572 33.13885 32.43059 31.53826 29.32384 26.02102 24.76976 24.66208 24.16957 23.24624 21.16111 17.89548 14.66655 13.99732 13.25408 12.5808 11.87386 11.16861 10.34692 9.954277 9.906392 9.899756 10.15759 10.3445 10.74986 10.91389 11.08149 11.23876 11.45177 11.74718 12.0133 12.12504 12.32364 12.56581 12.81774 13.2305 14.51007 15.13216 15.77931 16.43505 17.22726 18.48583 21.51586 22.16092 22.84009 23.50003 24.06766 24.62828 25.6227 26.1528 26.82097 27.73919 29.08231 32.06952 45.44747 51.21951 54.39007 55.21126 
14.7122 20.3673 26.83453 41.52211 48.74395 54.13435 56.13778 56.20461 56.37646 57.32841 56.86205 56.42427 55.88566 55.36348 54.96742 53.53467 52.32861 50.8687 49.2215 47.42052 44.80859 38.47742 37.34423 36.39032 35.46012 34.6353 34.03143 32.78276 32.21122 30.62544 27.01841 23.33695 22.90952 23.03486 21.73491 18.97859 16.27364 14.8499 13.38684 12.69068 12.08105 11.51162 10.95074 10.4728 9.820595 9.954277 9.658746 9.64096 9.855906 10.11045 10.46275 10.63231 10.80018 10.95863 11.13086 11.34199 11.82994 12.03211 12.39208 12.96979 13.68351 14.58843 16.3306 17.12205 18.25979 19.8275 21.51863 23.00644 24.87001 24.94368 25.12577 25.33511 25.55527 25.91538 27.03458 27.7918 28.73074 29.36681 31.54455 38.54187 51.00084 54.3493 55.07227 55.33882 
8.544346 11.01456 16.09783 33.42473 41.44426 48.33081 53.39696 55.5232 55.96875 57.50168 56.93074 56.31268 55.79657 55.15285 54.59111 52.91095 51.49694 49.84996 48.26773 46.33372 39.28878 37.56322 36.64635 35.65902 34.65047 33.83642 32.97947 32.21162 31.13298 27.37741 22.64736 21.39949 19.86482 18.69986 16.79433 15.07852 14.09879 13.30707 11.76612 11.16439 10.88862 10.63069 10.20369 10.4728 9.820595 9.573602 9.360948 9.351344 9.563766 9.821547 10.26105 10.40185 10.573 10.81134 11.06221 11.33544 12.1543 12.63807 13.27429 14.04481 14.92651 16.0416 18.44964 19.67475 21.42933 23.21454 24.26609 24.80914 25.50805 25.82983 26.12916 26.37623 26.66662 27.14204 28.3553 29.14268 29.51735 31.8064 37.97637 48.1118 52.8 54.84802 55.01851 55.34185 
7.687784 7.857464 9.047606 21.15006 31.64043 40.70907 46.87463 51.14422 54.65023 56.34426 56.31128 56.15433 55.68897 54.79599 53.10769 51.95559 50.42697 48.71201 46.86481 44.15165 38.10372 36.8037 35.80562 34.70114 33.68447 33.01308 31.92376 30.07245 25.80083 22.13863 20.82626 19.49218 17.16067 15.73332 14.33572 13.11078 12.03196 11.21872 10.1936 10.00377 10.01229 10.63069 10.20369 9.774174 9.351079 9.137939 9.051741 9.165544 9.365468 9.611156 10.00972 10.20285 10.50721 10.97084 11.44715 11.89584 12.88017 13.52041 14.29954 15.16049 16.16063 17.47757 20.41496 22.05266 23.55849 24.50627 25.05591 25.548 26.33383 26.72053 27.01006 27.28956 27.71187 28.79385 29.39048 29.77769 31.44311 36.2705 42.69388 49.69071 52.71491 54.24953 54.79953 55.35056 
7.417927 7.64061 7.792643 10.07954 18.0533 29.0921 38.08872 44.41907 52.21948 54.42263 55.50824 55.72735 55.23699 54.31287 52.05922 50.6755 49.08813 47.41631 45.17181 41.89362 37.08453 35.88293 34.722 33.65359 32.77573 32.17284 27.26904 23.39393 21.23773 20.05119 18.86973 17.65464 14.89708 13.45197 12.05717 10.69433 9.634919 9.12993 9.0831 10.00377 10.01229 9.941499 9.583222 9.051124 8.697389 8.683419 8.760957 8.982369 9.177541 9.390168 9.949107 10.41038 10.92643 11.47414 12.01072 12.48387 13.76202 14.5317 15.28949 16.21893 17.56085 19.08921 22.23583 23.65092 24.51454 25.07792 25.71298 26.63263 27.01376 27.37463 27.7451 28.12722 28.53181 29.55826 30.07923 30.79459 34.77771 41.41097 45.83743 50.5438 52.24904 53.52071 54.62323 55.42046 
6.997777 7.251257 7.707091 7.790469 8.671818 15.04971 26.13019 35.35535 46.70926 49.799 52.06326 53.29832 53.47577 53.12841 50.46737 49.02703 47.66845 45.78111 42.90643 39.78812 36.14059 34.65965 33.47369 32.61255 31.69126 29.27358 21.11397 19.98609 18.9115 17.95067 16.9334 15.61113 12.30428 10.84679 9.593637 8.501667 7.717696 9.12993 9.0831 9.330535 9.439259 9.260713 8.840801 8.358271 8.241049 8.369819 8.489244 8.758611 9.059901 9.350224 10.40286 10.96622 11.48865 12.07118 12.67568 13.25126 14.67909 15.39337 16.29067 17.57632 19.15011 22.3902 23.67342 24.53166 25.20253 25.83208 26.35728 27.30886 27.71054 28.01136 28.34121 28.71116 29.08022 30.16403 30.31977 33.92262 39.98882 44.67402 47.5666 51.15461 52.51179 53.7718 54.88608 55.61412 
6.583848 6.835518 7.339697 7.583176 7.677129 8.114119 12.69302 23.37573 38.81163 43.11614 46.35371 48.35173 49.31985 49.84546 48.31384 47.19632 45.62779 43.18341 40.33454 37.99437 34.6725 33.31732 32.44162 30.22593 25.32299 20.05796 17.61713 17.27443 16.68532 15.81082 14.50717 12.866 9.565861 8.318584 7.462748 8.501667 7.717696 7.584095 8.309056 8.660669 8.698776 8.417689 8.098106 7.839976 7.919412 8.124162 8.349382 8.711276 9.244081 9.825809 11.05643 11.64945 12.25959 12.86225 13.43754 14.74885 15.42185 16.33272 17.64526 19.20392 20.83825 23.71767 24.58652 25.28945 25.95936 26.55062 27.05899 28.11387 28.38945 28.62416 28.91171 29.21513 29.59134 30.46789 32.69807 37.90314 43.58064 47.02422 48.80479 51.77903 53.08939 54.33345 55.23573 55.89894 
6.15647 6.41141 6.912281 7.22491 7.530192 7.700059 7.872992 10.80966 31.13207 36.52374 39.70705 42.49337 44.54982 45.7476 45.44899 44.46086 42.93027 40.64441 38.24996 36.45279 33.13826 32.03109 28.14492 21.66221 16.5973 14.66242 14.66886 14.46058 13.87768 12.86495 11.39345 9.853504 7.417904 6.861822 7.462748 6.965061 6.745255 6.925147 7.82497 7.922747 7.843865 7.696571 7.625373 7.661716 8.028742 8.360187 8.816719 9.404573 10.03296 11.28472 11.91572 12.61465 13.26915 13.79616 14.28931 15.44864 16.37729 17.69725 19.24986 20.92482 22.56011 24.66401 25.38962 26.09541 26.7424 27.35138 27.99759 28.87983 29.13595 29.32076 29.43708 29.61841 29.99043 31.68549 36.13639 42.01453 46.07554 48.18993 50.1001 52.58385 53.76076 54.84573 55.57398 56.06625 
5.825788 6.086016 6.590537 6.855085 7.100645 7.392453 7.685658 7.774976 20.93767 31.07197 35.26537 37.16252 39.45397 41.18058 41.60511 41.09598 39.95872 38.38484 36.77874 35.05861 31.8104 26.05832 19.74877 16.20145 14.32142 13.3527 12.51017 11.86484 10.92777 9.853002 8.704082 7.7071 7.417904 6.861822 6.438473 6.235553 6.435713 6.971999 7.207103 7.162186 7.256568 7.389719 7.607196 8.388367 8.774347 9.286478 9.826298 10.34849 11.00639 12.39074 13.08625 13.80015 14.43219 14.86847 15.20454 16.49084 17.81211 19.38326 21.02077 22.60871 23.87312 25.50527 26.21576 26.89914 27.57936 28.24529 28.87033 29.73296 29.97544 30.07334 30.06874 30.16469 30.35569 34.76138 40.24722 45.0026 48.97123 51.67787 51.9289 53.31075 54.48721 55.31473 55.80348 56.14482 
5.496862 5.685114 6.18558 6.430173 6.733141 7.036039 7.310029 7.628729 8.44665 15.64491 26.74475 33.64713 35.26605 37.10212 38.0414 37.98618 37.47866 36.47798 35.09655 33.65786 25.46545 19.24362 15.80937 14.0675 12.96851 12.05735 10.59027 9.879091 9.006959 8.09164 8.704082 7.7071 6.557882 6.281451 6.268902 6.314158 6.543253 7.007123 6.822141 6.938663 7.349653 7.746953 8.158793 9.201456 9.717383 10.28002 10.78895 11.32462 12.07159 13.60208 14.36366 15.04919 15.65826 16.15677 16.55583 18.25893 19.68049 21.3201 22.81299 23.8912 24.75112 26.23456 26.92308 27.65825 28.4083 29.08676 29.68056 30.67698 30.87299 30.8814 30.79133 30.53205 30.84876 39.53573 44.64661 47.90487 50.39349 52.4537 52.83267 53.86974 54.93609 55.68833 56.05715 56.21032 
5.180861 5.356399 5.864917 6.115601 6.36718 6.657846 6.972218 7.236772 7.868057 7.958209 11.42253 19.82025 28.63664 32.81921 35.30093 35.51423 35.2751 34.57532 33.65934 31.96007 19.72864 15.41938 13.76592 12.64381 11.68657 10.83952 9.329224 8.546382 9.006959 8.09164 7.383541 6.625631 6.39221 6.269117 6.27459 6.319167 6.493286 6.686707 6.999567 7.45164 7.889044 8.335817 8.867114 10.05338 10.62591 11.19043 11.72895 12.36936 13.20851 14.77362 15.5571 16.28776 16.98725 17.65002 18.30647 20.40724 21.82985 23.16223 24.11119 24.8274 25.54362 27.09542 27.80098 28.50749 29.19218 29.79552 30.38966 31.83519 32.39813 32.67781 33.21283 34.44783 36.56564 44.9833 47.59888 49.23979 50.93877 52.01876 53.03085 54.31995 55.30078 55.81539 55.93403 56.10352 
4.873109 5.037663 5.450085 5.705479 5.949211 6.239137 6.560196 6.815521 7.486041 7.827478 7.868505 9.489497 14.44009 21.37757 33.39163 33.7804 33.79341 33.31119 31.75381 27.62836 15.24579 13.26109 12.07319 11.11821 10.39257 8.847095 9.329224 8.546382 7.84036 7.279935 6.723238 6.444258 6.501466 6.357833 6.26694 6.367442 6.54449 7.128874 7.613422 8.096428 8.562975 9.105366 9.723179 10.90635 11.47748 12.06028 12.68325 13.39578 14.21858 15.80822 16.636 17.46516 18.31859 19.19829 20.1393 22.5104 23.55023 24.31011 24.96705 25.65946 26.353 27.77966 28.53189 29.26519 29.9345 30.60424 31.34024 33.10728 33.97223 35.098 36.65958 38.96258 42.58097 47.72893 48.84146 50.12393 51.24334 52.13188 53.13711 54.60372 55.36755 55.79775 55.93171 56.08043 
4.559355 4.722815 5.124427 5.383357 5.6347 5.883122 6.157285 6.485547 7.067092 7.343606 7.646859 7.79247 8.258761 11.00566 23.6928 29.48732 31.54894 30.7466 27.7505 15.41221 12.33864 10.57108 9.896024 9.695671 10.39257 8.847095 8.163931 7.700184 7.248234 6.724661 6.390107 6.269732 6.304104 6.339392 6.426891 6.621611 6.879673 7.804951 8.26276 8.794284 9.413932 10.02999 10.61368 11.74205 12.32979 12.95144 13.60743 14.28188 15.06172 16.79963 17.68118 18.5486 19.51598 20.60312 21.73772 23.88824 24.55355 25.13538 25.74393 26.39089 27.09062 28.47206 29.17829 29.87152 30.59331 31.45748 32.45327 34.32115 35.46045 36.7268 38.67208 42.19807 46.25679 48.91387 49.99913 50.87756 51.63846 52.59106 54.15194 54.76869 55.33849 55.64108 55.68391 55.78068 
4.237268 4.413116 4.843919 5.062625 5.32086 5.572815 5.825928 6.076374 6.569814 6.880504 7.174469 7.457428 7.711428 9.3292 14.22869 19.75954 22.65109 22.78611 20.99447 11.74802 8.522237 7.708383 8.155828 9.695671 9.156827 7.86282 7.454007 7.110811 6.795081 6.509645 6.332727 6.276897 6.285464 6.489086 6.78827 7.079088 7.49579 8.471756 9.034035 9.707759 10.38349 11.02762 11.69446 12.74099 13.21977 13.76569 14.38977 15.07549 15.87139 17.67364 18.57797 19.59428 20.73915 21.86406 22.94744 24.61005 25.24518 25.89203 26.48778 27.08682 27.71161 29.10502 29.8013 30.45082 31.26251 32.3633 33.39891 35.48155 36.74851 38.11573 40.88073 45.53507 49.82373 50.34224 50.80653 51.34985 52.11494 52.98265 54.28505 54.7927 55.21193 55.41885 55.48471 55.58584 
4.02381 4.192313 4.524956 4.745894 5.012373 5.232226 5.409268 5.911298 6.161968 6.404839 6.699285 7.008884 7.270282 7.792105 8.453309 12.44506 16.60145 17.5071 16.2147 8.44897 6.734214 7.708383 8.155828 8.251886 8.00988 7.352198 6.999429 6.686562 6.441476 6.302153 6.275595 6.277006 6.443929 6.829856 7.307802 7.767711 8.166447 9.340036 10.04779 10.74131 11.51059 12.40559 13.25309 13.91476 14.18549 14.63134 15.20177 15.86783 16.60598 18.44076 19.47956 20.64135 21.85223 22.93844 23.84032 25.17776 25.81937 26.42308 27.04773 27.72862 28.40611 29.64629 30.28623 31.06099 32.05281 33.18746 35.40566 36.6559 37.67717 40.16261 44.27319 47.76214 51.04875 51.13603 51.33646 51.84848 52.62206 53.47551 54.52599 54.85505 55.08776 55.23919 55.40942 55.586 
3.817312 4.151765 4.313217 4.540543 4.752732 4.937363 5.196192 5.613457 5.836119 6.090193 6.338763 6.5821 6.852837 7.521924 7.821172 7.494235 9.185486 12.25346 11.58544 8.44897 6.734214 6.832871 7.295938 7.435183 7.365331 7.00169 6.713326 6.383595 6.27153 6.277911 6.278286 6.265704 6.591135 7.234443 7.916778 8.443238 8.909935 10.21421 10.94264 11.80852 12.86044 14.02401 14.94138 15.15062 15.13769 15.47677 16.0643 16.68521 17.37835 19.20082 20.34117 21.49571 22.67155 23.72791 24.4441 25.71907 26.37942 27.018 27.64766 28.3386 29.5549 30.13756 30.85831 31.83574 32.96519 34.0801 36.46821 37.55696 40.16634 44.21928 47.37012 48.73241 51.02448 51.46735 51.81479 52.36209 53.10404 53.84795 54.63094 54.86728 55.07752 55.20284 55.3012 55.48396 
3.505847 3.844129 3.939764 4.058772 4.268478 4.529366 4.761926 5.173824 5.360477 5.567009 5.814025 6.08638 6.423164 7.022696 7.326458 7.640404 7.788932 12.25346 11.58544 7.185798 6.746229 6.748852 6.758858 6.804712 6.885384 6.669291 6.424947 6.302671 6.277154 6.278085 6.273582 6.445566 6.934225 7.612607 8.173277 8.674399 9.392098 10.60531 11.61201 12.88418 14.0999 15.19512 16.01846 16.12307 15.99254 16.20091 16.72025 17.35647 18.05677 20.02977 21.09179 22.08109 23.09001 24.03779 25.53275 26.22751 26.85281 27.49466 28.15632 28.76091 30.03626 30.6855 31.55155 32.63157 33.78507 34.99618 37.39131 39.77652 44.25667 47.58127 48.36752 49.4326 50.80282 51.50107 52.15004 52.73822 53.36619 54.00159 54.59791 54.70838 54.8905 55.08844 55.21582 55.44944 
3.295888 3.634491 3.73305 3.857681 4.028863 4.188788 4.371356 4.78848 5.014937 5.212059 5.400911 5.657495 5.924634 6.564109 6.844645 7.640404 7.788932 7.795427 7.932376 7.339176 6.951279 6.895932 6.816887 6.730251 6.708791 6.530929 6.408326 6.32928 6.276681 6.274908 6.312803 6.757424 7.298316 7.779021 8.027961 8.311378 8.837266 10.74814 12.37761 13.92109 15.07006 15.98526 16.53013 16.94102 16.96108 17.08267 17.40271 17.93818 19.5799 20.64746 21.61405 22.48396 23.35829 24.23121 25.86068 26.56227 27.22826 27.90298 28.58926 29.25486 30.516 31.34613 32.43853 33.66795 34.85318 36.00763 38.6339 44.16231 47.82426 48.33572 49.1665 49.82261 50.91316 51.72519 52.47381 52.9734 53.40666 53.8736 54.2924 54.46119 54.68432 54.91206 55.09489 55.25074 
3.087108 3.422592 3.52978 3.599706 3.708409 3.905233 4.142361 4.480748 4.642227 4.808317 5.008654 5.274165 5.585646 6.012297 6.844645 7.163835 7.417191 7.552207 7.700861 7.590582 7.484749 7.113352 6.73467 6.641018 6.534384 6.432727 6.370094 6.308194 6.280411 6.339752 6.474723 6.98596 7.247711 7.521453 7.77347 7.91482 8.229749 11.13743 13.13165 14.72013 15.79376 16.44578 17.25957 17.58512 17.8206 17.9891 18.19668 18.62651 20.22012 21.14193 21.93148 22.71172 23.59049 24.43625 25.98684 26.74219 27.49164 28.25398 28.9966 29.67432 31.12575 32.33203 33.68463 34.92862 36.02096 36.87315 44.7736 47.91309 48.49347 49.27175 49.78152 50.12969 51.30309 52.06606 52.70216 53.1182 53.44753 53.75249 54.09233 54.33164 54.54294 54.73494 54.97074 55.25074 
2.874599 3.130397 3.278657 3.400943 3.515991 3.659232 3.749802 4.173441 4.331612 4.540112 4.748228 4.898355 5.585646 6.012297 6.361497 6.680127 6.827471 6.951345 7.111883 7.176372 7.119184 6.99179 6.812365 6.642675 6.442057 6.261311 6.213927 6.247336 6.28429 6.366416 6.583271 7.091827 7.260186 7.432083 7.637395 7.745945 9.318638 11.5034 13.74506 15.34527 16.24441 16.7302 17.58878 18.01015 18.37117 18.64102 18.89514 19.26904 20.61652 21.44497 22.12021 22.75413 23.53336 24.41419 26.00998 26.8015 27.6973 28.56413 29.32272 30.0607 32.18125 33.92112 35.79035 37.06894 37.34782 38.36813 47.9642 49.53538 49.58553 49.89813 50.15946 50.54806 51.65134 52.21406 52.66678 52.98692 53.31053 53.5708 54.0266 54.25268 54.45563 54.73494 54.97074 55.11714 
2.5564 2.893904 3.068713 3.188938 3.303809 3.447553 3.547358 3.849871 4.001211 4.100399 4.748228 4.898355 5.070844 5.649856 5.915869 6.05597 6.198313 6.422081 6.603682 6.699067 6.722547 6.715898 6.665611 6.577477 6.385338 6.202674 6.172243 6.210858 6.280778 6.340466 6.830713 7.084659 7.311839 7.513177 7.728596 8.001593 9.728981 11.98974 14.30143 15.7891 16.49468 16.97462 17.82107 18.25339 18.68954 19.03095 19.28327 19.65874 20.81211 21.42189 22.09837 22.72635 23.24469 23.85301 25.66932 26.75144 27.85475 28.79473 29.61262 30.50505 33.962 36.42434 38.47978 39.65952 40.18644 41.61521 48.52116 49.20063 49.67821 49.9944 50.41892 51.01659 51.78592 52.16413 52.53083 52.86088 53.21953 53.57376 54.1066 54.25268 54.45563 54.60491 54.73553 54.81364 
2.244997 2.566745 2.732472 2.908478 3.045132 3.145462 3.320927 3.512269 4.001211 4.100399 4.19359 4.405023 4.684077 5.131455 5.306506 5.545083 5.74035 5.835451 6.080984 6.204693 6.242047 6.307927 6.372985 6.394244 6.234726 6.175322 6.195526 6.23814 6.305826 6.452855 6.814357 7.096271 7.407261 7.746882 8.083036 8.449176 10.38239 12.41167 14.39491 15.73633 16.54258 17.03596 17.96184 18.39071 18.7922 19.12207 19.4421 19.87564 20.91973 21.44017 21.99266 22.49757 22.90559 23.35815 25.29349 26.7047 28.03995 29.08382 29.87781 30.92605 36.5991 39.09919 40.70398 42.31229 44.36918 46.68061 48.43641 48.97522 49.45848 50.09961 50.70689 51.20404 51.87548 52.15184 52.37904 52.68913 53.13599 53.57376 54.1066 54.3068 54.42683 54.49195 54.55246 54.77287 
1.915788 2.154532 2.317166 2.475439 2.64446 2.821438 3.320927 3.512269 3.558397 3.62771 3.768025 4.056679 4.352731 4.560204 4.772706 5.042242 5.188873 5.324768 5.661983 5.773633 5.822922 5.889634 6.040873 6.153558 6.239993 6.237804 6.257179 6.293717 6.349097 6.491791 6.928268 7.246559 7.592063 7.966399 8.447445 9.09117 11.05427 12.72619 14.48678 15.7814 16.5519 17.05008 17.91561 18.35811 18.6562 19.01147 19.55955 19.97777 20.99322 21.50025 21.87911 22.24665 22.67049 23.20719 25.31177 26.99573 28.53659 29.58763 30.43604 32.05202 39.50462 41.21264 42.74724 44.54741 46.27523 47.23594 48.61771 49.00624 49.50377 50.23825 50.90936 51.37999 51.90391 52.14839 52.38439 52.69418 53.13599 53.92763 54.14714 54.29542 54.39739 54.42917 54.43117 54.49433 
1.487425 1.85899 1.962105 2.073406 2.64446 2.821438 2.979041 3.217467 3.353629 3.438914 3.590524 3.812951 4.011302 4.100755 4.320825 4.526483 4.653783 4.838715 5.177535 5.299973 5.457478 5.599148 5.711352 5.844482 6.059169 6.190821 6.266274 6.334293 6.466233 6.618566 7.08515 7.382274 7.778933 8.147234 8.663314 9.592746 11.43273 12.92545 14.52511 15.67022 16.32995 16.73534 17.63132 17.99418 18.47353 19.08038 19.58869 20.08426 21.05625 21.42622 21.7925 22.24242 22.75688 23.38175 25.72505 27.5414 29.13052 30.10155 31.68116 35.30311 41.35807 42.94417 44.57254 46.01812 47.06374 47.72691 48.76283 49.15977 49.70395 50.45771 51.13715 51.69727 51.99213 52.19649 52.38439 52.69418 53.13665 53.94118 54.20288 54.27023 54.24353 54.22988 54.2052 54.31226 
0.981 1.475209 1.647679 2.073406 2.243024 2.394961 2.641481 2.791222 2.966535 3.1407 3.312591 3.455606 3.630455 3.775179 3.856402 3.990377 4.229402 4.423921 4.753314 4.874206 5.051379 5.289987 5.478168 5.5892 5.88323 6.016229 6.131722 6.309906 6.523181 6.70787 7.181676 7.495452 7.841673 8.10259 8.50313 9.396646 11.50189 12.82188 14.09831 14.97135 15.62859 16.22505 17.19388 17.72426 18.31744 18.92406 19.50934 20.08837 20.97473 21.35214 21.82594 22.34232 22.84799 23.49114 26.26638 28.12148 29.74298 31.45248 34.53908 38.69837 42.6857 44.30048 45.8444 46.98628 47.52454 48.62063 48.9902 49.36238 49.86554 50.49707 51.0802 51.62 51.99213 52.19649 52.39375 52.70583 53.16274 54.00883 54.15947 54.1674 54.13449 54.09002 54.04125 54.18168 
0 1.475209 1.647679 1.78275 1.919997 1.968815 2.190293 2.35743 2.518986 2.696119 2.886111 3.035472 3.319284 3.422053 3.488892 3.602205 3.786214 4.006877 4.388744 4.559492 4.722858 4.906528 5.129835 5.330179 5.706234 5.920093 6.072055 6.274612 6.514415 6.686701 7.197067 7.48701 7.757203 7.981003 8.276611 8.911128 11.2901 12.59558 13.60867 14.25424 14.93482 15.67141 16.97968 17.59961 18.19325 18.78566 19.40597 20.07132 21.02882 21.4491 21.8756 22.33048 22.82569 23.48787 26.94592 28.99925 30.99683 33.84017 37.72134 42.241 43.90305 45.58574 46.75156 47.30849 47.86976 48.79243 49.19578 49.58141 50.03679 50.49644 51.0802 51.62 51.97368 52.28949 52.52507 52.79947 53.20664 53.90875 54.08286 54.10222 54.00272 53.92312 53.903 54.00769 
0 0.926 1.229228 1.454212 1.548821 1.56043 1.687078 1.807839 1.997614 2.222667 2.448396 2.669964 3.01372 3.116084 3.1806 3.293615 3.475905 3.68688 4.080594 4.245322 4.414369 4.570921 4.753493 5.01088 5.443907 5.680114 5.991541 6.304183 6.539756 6.763899 7.286482 7.434176 7.647992 7.932628 8.249907 8.920238 10.98035 12.14393 13.08997 13.82549 14.65459 15.48539 16.95148 17.57888 18.17173 18.76406 19.38573 20.05781 21.0924 21.55274 21.96235 22.44562 23.00997 25.42578 27.79343 29.97568 32.83647 36.65976 39.87385 43.44503 45.06096 46.33641 47.09763 47.57228 48.07032 48.89835 49.38645 49.79535 50.03679 50.49644 50.87377 51.68513 52.15004 52.48779 52.68879 52.85793 53.14446 53.76347 53.86808 53.92197 53.87621 53.78001 53.73229 53.86722 
0 0 0.856 1 1.047457 1.097748 1.128401 1.150277 1.405182 1.764283 2.032434 2.33531 2.703541 2.831813 2.944116 3.083194 3.271883 3.486506 3.820023 3.984697 4.150699 4.340478 4.572852 4.826656 5.195642 5.406911 5.743888 6.11052 6.418493 6.723362 7.234026 7.423244 7.74385 8.085319 8.410669 9.181602 10.9653 11.928 12.78805 13.58468 14.53174 15.4619 16.97522 17.55869 18.15618 18.74986 19.36717 20.65964 21.19338 21.642 22.09776 22.62796 23.25247 26.18631 28.73908 31.54443 35.25063 39.02227 41.12854 44.46766 46.03775 46.93247 47.34775 47.8755 48.35487 49.002 49.38645 49.79535 50.11954 50.45915 50.78859 51.76389 52.27797 52.58884 52.78387 52.96203 53.17069 53.47271 53.60011 53.6925 53.67622 53.63212 53.63505 53.70238 
0 0 0 0 0 0 0 0 0.846 1.202489 1.602232 1.902845 2.393381 2.586707 2.784684 2.949612 3.116883 3.281217 3.610039 3.823573 3.979303 4.133545 4.410929 4.662908 5.042838 5.291223 5.552721 5.844723 6.215831 6.612562 7.140456 7.546371 7.915638 8.284013 8.822259 9.605318 11.01072 11.84169 12.72801 13.6233 14.49254 16.30891 16.95853 17.59608 18.24737 18.84202 19.44428 20.64776 21.1816 21.68178 22.23767 22.80124 23.50913 27.15878 29.65772 33.26531 37.38859 40.43069 42.21242 45.36691 46.49958 47.15059 47.63408 48.12846 48.54501 49.002 49.29876 49.61555 50.03448 50.47844 50.82387 51.96004 52.50387 52.75414 52.87763 53.00491 53.08414 53.27975 53.34081 53.43631 53.49692 53.49009 53.48487 53.55703 
0 0 0 0 0 0 0 0 0 0.802 0.984 1.218412 2.111449 2.331786 2.544964 2.743819 2.904778 3.071593 3.449717 3.663907 3.857168 4.054072 4.257657 4.451401 4.864837 5.121507 5.396175 5.730362 6.070466 6.359013 7.055053 7.493388 7.90297 8.348744 8.894015 10.12323 10.71345 11.61136 12.68018 13.65849 14.65526 16.40206 17.03417 17.68312 18.34613 18.91253 19.43944 20.63691 21.16654 21.72787 22.33468 22.90568 23.75955 28.08408 30.83249 35.14077 39.39733 41.80932 43.54398 46.09436 46.884 47.30831 47.79173 48.12846 48.54501 49.03181 49.20327 49.50655 50.03949 50.58427 50.96035 52.10475 52.61953 52.85068 52.91316 52.96731 53.04839 53.11911 53.18586 53.25323 53.29746 53.33077 53.32867 53.36784 
0 0 0 0 0 0 0 0 0 0 0 0.794 1.811711 2.083853 2.273568 2.493735 2.702542 2.870062 3.297839 3.514142 3.733227 3.918397 4.079599 4.25167 4.616096 4.853546 5.212049 5.533608 5.80362 6.457964 6.864311 7.299062 7.736831 8.124547 8.39864 9.352786 10.07866 11.00211 12.33312 13.82718 15.03622 16.62567 17.2157 17.82241 18.44566 18.96431 19.32784 20.59959 21.2237 21.87148 22.54662 23.28763 24.48178 29.0036 32.49881 37.06751 41.44288 44.30015 45.4353 46.40724 47.08134 47.30831 47.79173 48.23402 48.70118 49.21252 49.45143 49.80112 50.28226 50.77199 51.16093 52.1195 52.52207 52.7413 52.81342 52.81654 52.89437 52.96579 53.07754 53.13741 53.13774 53.18034 53.1841 53.13877 
0 0 0 0 0 0 0 0 0 0 0 0.802 1.487892 1.829128 2.057512 2.224831 2.437218 2.656223 3.077487 3.28492 3.497099 3.705983 3.869574 4.221107 4.420224 4.678694 4.955876 5.236251 5.569536 6.23935 6.657748 7.039303 7.434952 7.803846 7.963317 8.384722 9.019743 9.983689 11.76453 14.08031 15.60447 17.0207 17.56176 18.03415 18.41645 18.76113 19.20553 20.5527 21.27691 21.95998 22.63748 23.55959 25.14673 29.90737 34.1869 39.21423 43.89451 46.93881 46.91956 46.40724 47.08134 47.51575 47.99502 48.38155 48.70644 49.50081 49.84627 50.2135 50.71305 51.14641 51.37769 52.14349 52.41665 52.56156 52.59489 52.5997 52.68019 52.80813 52.90948 53.01218 53.0379 53.01895 52.96924 52.89528 
0 0 0 0 0 0 0 0 0 0 0 0 1.200746 1.594049 1.850736 1.998813 2.184718 2.617593 2.855561 3.055012 3.262311 3.495688 3.673047 4.074008 4.318772 4.526932 4.768614 5.089712 5.364794 6.114201 6.421992 6.782077 7.162047 7.390835 7.559467 7.973722 8.184966 8.566239 10.4432 13.87059 16.35768 17.32855 17.80096 18.18974 18.39396 18.53284 18.97977 20.31564 21.16321 21.99432 22.70603 23.69317 25.61885 31.14317 36.13179 41.76614 45.58653 46.93881 46.91956 46.86036 47.29084 47.77536 48.15471 48.47821 48.83992 49.54472 49.98778 50.51487 51.0222 51.3336 51.50716 52.03829 52.19123 52.29387 52.35231 52.40245 52.60825 52.6945 52.78127 52.84672 52.87507 52.86467 52.7783 52.6867 
0 0 0 0 0 0 0 0 0 0 0 0 1.047637 1.447059 1.705663 1.861046 2.036531 2.401014 2.644612 2.849413 3.054859 3.285898 3.468163 3.899089 4.068779 4.282465 4.539599 4.794725 5.064731 5.857796 6.115874 6.429593 6.715967 6.891968 7.140325 7.563292 7.783314 8.050287 7.954706 10.19746 16.68372 18.30252 18.02226 17.76139 17.73745 18.12822 18.6375 20.05018 20.92348 21.84664 22.70242 23.82622 26.07433 33.02798 38.55277 44.02808 45.58653 46.96009 47.19327 47.3828 47.59858 47.96767 48.29708 48.5603 48.95274 49.53583 50.0008 50.60485 51.0933 51.27096 51.65445 51.84052 51.94781 52.02191 52.10133 52.20229 52.50932 52.60204 52.69119 52.73538 52.72713 52.72115 52.57465 52.52978 
0 0 0 0 0 0 0 0 0 0 0 0 0.991 1.353137 1.617699 1.769363 1.938716 2.275201 2.463397 2.635132 2.848393 3.088567 3.247913 3.673056 3.852958 4.061299 4.317906 4.593879 4.925134 5.448584 5.835083 6.13834 6.286433 6.467708 6.722542 7.147008 7.366253 7.629691 7.85499 7.804142 8.473859 16.81804 18.72892 18.71328 17.78819 17.69243 18.05175 19.56226 20.57076 21.64189 22.62167 23.96896 26.49741 35.47124 38.55277 44.02808 46.94425 47.12665 47.43668 47.81535 47.94267 48.12631 48.32546 48.47033 49.11657 49.47934 49.95375 50.53219 50.99366 51.17051 51.46568 51.59544 51.69645 51.77209 51.86459 51.99911 52.3467 52.45283 52.53727 52.58092 52.57172 52.55537 52.42744 52.38552 
0 0 0 0 0 0 0 0 0 0 0 0 0.813 1.076556 1.412061 1.611606 1.769958 2.097724 2.265059 2.431517 2.603124 2.80776 3.044526 3.383761 3.60987 3.866134 4.119241 4.373756 4.628893 5.20869 5.511723 5.663003 5.796542 6.054567 6.304529 6.73053 6.947604 7.21127 7.429457 7.591967 7.748693 7.579381 12.20998 16.36109 16.98056 17.70745 18.02748 18.89639 19.83602 21.15695 22.47759 24.16676 26.49741 35.47124 41.89301 45.87192 47.1087 47.32446 47.76999 47.923 47.95269 48.02119 48.15781 48.28305 49.06212 49.42005 49.86329 50.35097 50.73534 50.97175 51.21944 51.29052 51.37528 51.45203 51.55627 51.73677 52.07764 52.18245 52.26101 52.33395 52.37187 52.34693 52.25253 52.18461 
0 0 0 0 0 0 0 0 0 0 0 0 0 0.804 0.98 1.264117 1.514113 1.893889 2.054895 2.224849 2.391736 2.563416 2.742924 3.149224 3.343052 3.552817 3.808365 4.090663 4.406924 4.893106 5.208856 5.310748 5.329317 5.567432 5.970686 6.308559 6.536931 6.74333 6.934902 7.171245 7.339974 7.782372 7.570543 8.518391 11.71998 15.17698 16.37048 17.85682 18.7773 20.17084 22.47759 24.16676 30.64651 39.06415 45.64797 47.42394 47.3861 47.60283 47.79781 47.84995 47.87858 47.8753 47.90094 48.12164 48.953 49.42287 49.80664 50.1199 50.41541 50.70345 50.95451 51.03653 51.08257 51.1535 51.29071 51.41726 51.76361 51.86959 51.9462 52.02795 52.10619 52.15751 52.05683 52.0251 
0 0 0 0 0 0 0 0 0 0 0 0 0 0 0.79 0.836 0.932 1.679171 1.871737 2.018443 2.186527 2.36008 2.527272 2.866605 3.088112 3.348973 3.569389 3.751494 4.016265 4.631236 4.76744 4.820428 4.951016 5.235271 5.559109 5.895033 6.120927 6.327672 6.524464 6.741497 6.828916 7.321572 7.585943 7.728221 7.56844 7.863739 13.57929 15.43189 18.7773 20.17084 21.93614 24.04902 33.49746 43.57371 47.93936 47.46141 47.71431 47.84164 47.91625 47.9193 47.8931 47.8766 47.87832 47.98203 48.89882 49.36265 49.65507 49.88853 50.14196 50.39219 50.74401 50.83936 50.89011 50.9659 51.08231 51.16373 51.4491 51.55778 51.61929 51.73083 51.85242 51.87516 51.93166 51.86508 
0 0 0 0 0 0 0 0 0 0 0 0 0 0 0 0 0 1.161102 1.509775 1.787886 1.961845 2.060952 2.227221 2.556303 2.778773 3.046669 3.265357 3.439915 3.693187 4.134784 4.293295 4.459451 4.615534 4.814236 5.145888 5.59109 5.748928 5.905184 6.106413 6.327745 6.647726 6.903257 7.093493 7.296361 7.5313 7.690893 13.57929 15.43189 16.64023 18.27805 20.33073 23.05387 36.80311 45.07715 48.00003 47.79985 47.86732 47.88113 47.96894 47.98071 47.95616 47.91188 47.92955 48.03933 48.75462 49.1129 49.36938 49.62348 49.86061 50.07202 50.52052 50.62518 50.70515 50.78942 50.86943 50.95163 51.12986 51.25908 51.41145 51.5525 51.65031 51.70547 51.7381 51.73423 
0 0 0 0 0 0 0 0 0 0 0 0 0 0 0 0 0 0.789 1.04894 1.440071 1.677273 1.755282 1.919499 2.243416 2.471859 2.684956 2.872158 3.130128 3.375887 3.782079 3.986077 4.146042 4.303815 4.507124 5.015372 5.167225 5.335499 5.500828 5.696953 5.91278 6.234612 6.417712 6.637232 6.854883 7.03208 7.690893 7.506974 8.982757 11.80216 14.25037 16.41053 20.26873 37.7949 45.88329 48.30996 48.03726 48.00078 47.96367 47.95667 47.93879 47.95036 47.966 48.00212 48.06313 48.62774 48.90214 49.14318 49.39539 49.65377 49.92161 50.37441 50.48071 50.55929 50.64429 50.72902 50.81236 51.02641 51.19855 51.34462 51.43887 51.52591 51.61306 51.55214 51.47594 
0 0 0 0 0 0 0 0 0 0 0 0 0 0 0 0 0 0 0 0.936 1.193456 1.353634 1.530225 1.937244 2.157081 2.370146 2.560467 2.799261 3.214977 3.398311 3.616204 3.831841 4.018409 4.274681 4.705008 4.789332 4.967399 5.19881 5.370413 5.511647 5.817731 6.008591 6.224009 6.854883 7.03208 7.267921 7.618537 7.705931 7.505876 8.15125 10.09995 13.29455 31.90344 41.91425 46.87155 47.92838 48.13155 48.17705 48.00957 47.82272 47.76327 47.82497 47.85175 47.91767 48.54749 48.83393 49.13159 49.42262 49.6727 49.87867 50.26856 50.38215 50.45964 50.54427 50.62908 50.7109 50.93989 51.12843 51.25873 51.33818 51.41075 51.42562 51.42365 51.30009 
0 0 0 0 0 0 0 0 0 0 0 0 0 0 0 0 0 0 0 0.784 0.798 0.789 1.198619 1.574211 1.856196 2.056457 2.246146 2.485336 2.898646 3.091988 3.244521 3.454183 3.686293 3.857164 4.36425 4.490642 4.603247 4.816372 5.0672 5.202064 5.400368 6.008591 6.224009 6.449235 6.602661 6.772902 7.204546 7.360359 7.597485 7.762788 7.572991 7.768624 18.32255 28.66177 37.35029 42.42013 45.40818 47.48229 47.76984 47.46976 47.40157 47.45901 47.48637 47.60187 48.39091 48.78798 49.2133 49.53141 49.71376 49.88754 50.19138 50.27645 50.35958 50.44714 50.52255 50.61044 50.92641 51.05825 51.14682 51.23768 51.31151 51.3021 51.24773 51.15125 
0 0 0 0 0 0 0 0 0 0 0 0 0 0 0 0 0 0 0 0 0 0 -0.0149 1.086587 1.499099 1.750017 1.933727 2.174856 2.500917 2.737952 2.942446 3.13908 3.367346 3.550539 3.970194 4.139771 4.302504 4.508994 4.755175 5.202064 5.400368 5.6083 5.822405 6.03308 6.19521 6.357646 6.766637 6.961827 7.155806 7.368112 7.598127 7.762717 8.570528 12.69427 19.7422 27.56953 34.62023 40.56453 46.44145 47.55796 47.52416 47.3478 47.18822 47.19072 47.93842 48.49148 49.1449 49.53314 49.70793 49.82019 50.01184 50.14623 50.22878 50.2803 50.42499 50.66946 50.85534 50.97348 51.05499 51.11486 51.13531 51.2064 51.13415 51.04657 
0 0 0 0 0 0 0 0 0 0 0 0 0 0 0 0 0 0 0 0 0 0 0 0 0.984 1.410082 1.700853 1.866252 2.19949 2.428704 2.636447 2.787552 2.976891 3.224764 3.63798 3.837715 3.992071 4.508994 4.755175 4.89579 5.026653 5.2576 5.457285 5.612016 5.778912 5.942926 6.35411 6.554544 6.701052 6.897869 7.157501 7.375743 7.663578 7.09057 8.406401 12.52323 18.07066 25.01646 38.40618 41.27438 42.08173 43.40388 45.68868 47.22431 47.42921 47.79423 48.63532 49.46532 49.71521 49.79273 49.87401 49.97871 50.06316 50.13147 50.24621 50.57687 50.69519 50.77861 50.87064 50.92709 50.92779 51.10387 51.06059 50.90369 
0 0 0 0 0 0 0 0 0 0 0 0 0 0 0 0 0 0 0 0 0 0 0 0 0 0.862 1.208723 1.549454 1.995645 2.153722 2.317705 2.479615 2.665664 2.899311 3.313192 3.837715 3.992071 4.188534 4.425451 4.587385 4.702595 4.884116 5.061915 5.228154 5.3953 5.56225 5.950779 6.133563 6.310966 6.525083 6.739108 6.936574 7.410439 7.630096 7.60141 7.528604 8.400394 11.43372 23.5273 29.4928 33.67597 36.5036 39.15915 44.53038 46.87966 47.62777 47.78297 48.39681 49.05906 49.77238 49.80609 49.85844 49.94242 50.02715 50.11058 50.3843 50.49327 50.57971 50.63024 50.65364 50.72474 50.73984 50.73707 50.67604 
0 0 0 0 0 0 0 0 0 0 0 0 0 0 0 0 0 0 0 0 0 0 0 0 0 0 0.82 1.125317 1.657916 1.812284 1.993026 2.176482 2.334404 2.504559 3.313192 3.516647 3.688721 3.846636 4.031863 4.252989 4.359349 4.55282 4.766231 4.926049 5.095272 5.259415 5.548292 5.73788 5.961526 6.158226 6.334568 6.587197 6.991061 7.190013 7.395041 7.652224 7.721639 8.688158 11.3152 16.67703 22.96155 28.00723 31.77082 37.19776 40.02102 42.5525 44.66796 46.32475 47.47593 49.09089 49.67434 49.844 49.86058 49.92901 50.0085 50.19477 50.28664 50.32615 50.32364 50.33099 50.32564 50.22292 50.23116 50.17015 
0 0 0 0 0 0 0 0 0 0 0 0 0 0 0 0 0 0 0 0 0 0 0 0 0 0 0 0.778 1.125891 1.238943 1.511618 1.847529 2.334404 2.504559 2.934692 3.162552 3.383203 3.543838 3.708714 3.87259 4.153235 4.255017 4.424323 4.617875 4.786622 4.949018 5.183871 5.381868 5.577888 5.749005 5.962407 6.384263 6.599295 6.770722 6.972621 7.240689 7.481516 7.760059 7.73891 8.825501 11.87118 16.83059 22.49678 29.26079 31.82576 34.57874 37.32884 39.79476 41.93132 46.00453 47.72189 49.11466 49.78986 49.83172 49.91062 49.98617 50.07957 50.12065 50.08067 49.98931 49.91521 49.83366 49.73748 49.68449 
0 0 0 0 0 0 0 0 0 0 0 0 0 0 0 0 0 0 0 0 0 0 0 0 0 0 0 0 0 0 1.511618 1.847529 2.030182 2.219926 2.627848 2.854752 3.071994 3.23266 3.40017 3.738024 3.834541 3.914516 4.086139 4.306493 4.474301 4.818484 4.907795 5.031445 5.203238 5.385954 5.603818 6.030603 6.195352 6.388855 6.601264 6.818558 7.063571 7.480865 7.666257 7.686206 8.133234 9.252464 11.44327 20.72503 23.61384 26.0111 28.70609 31.5156 34.13716 39.22836 41.74545 44.65788 47.46918 49.21851 49.74242 49.77185 49.86939 49.91587 49.8732 49.78092 49.6972 49.52548 49.35646 49.29927 
0 0 0 0 0 0 0 0 0 0 0 0 0 0 0 0 0 0 0 0 0 0 0 0 0 0 0 0 0 0 0.942 1.429532 1.755113 2.176849 2.320544 2.539307 2.762149 2.922153 3.090088 3.427066 3.548704 3.698998 3.876272 4.025784 4.158932 4.500842 4.635121 4.754938 4.900915 5.067601 5.239255 5.614509 5.819766 6.032617 6.240916 6.460861 6.65164 7.064082 7.248029 7.468924 7.68187 7.715892 7.985331 10.21595 13.84831 18.26036 21.07476 23.03916 25.47377 30.9625 33.55221 36.73461 40.91614 45.26019 48.29203 49.75342 49.70658 49.6956 49.67727 49.54683 49.30193 49.10524 49.064 49.09822 
0 0 0 0 0 0 0 0 0 0 0 0 0 0 0 0 0 0 0 0 0 0 0 0 0 0 0 0 0 0 0.868 1.189334 1.545246 1.937057 2.063376 2.23948 2.44824 2.608644 2.776012 3.11085 3.283591 3.453778 3.62521 3.773896 3.896889 4.195774 4.359397 4.472565 4.579677 4.756377 4.929164 5.258082 5.452507 5.671541 5.887958 6.069 6.240773 6.66141 6.882084 7.099313 7.268988 7.463724 7.705904 7.823504 8.683987 9.459182 10.78411 13.71599 16.65846 21.89691 24.99263 28.772 33.06876 37.59447 43.04874 48.85268 49.49193 49.67125 49.53344 49.24642 48.99119 48.79512 48.73537 48.90881 
0 0 0 0 0 0 0 0 0 0 0 0 0 0 0 0 0 0 0 0 0 0 0 0 0 0 0 0 0 0 0 0.856 1.220875 1.648817 1.806863 1.963804 2.144761 2.340832 2.508683 2.846717 3.016024 3.185201 3.354249 3.527746 3.696089 3.935336 4.098362 4.214558 4.332778 4.496415 4.614252 4.947426 5.114872 5.301013 5.51776 5.730784 5.892968 6.315544 6.525016 6.698439 6.860957 7.026669 7.211847 7.638299 7.704111 7.741676 8.032977 8.531329 9.106667 14.2764 18.0731 21.6862 25.62442 30.22762 35.03913 45.84597 47.86572 48.28936 48.48735 48.37291 48.35548 48.41028 48.54674 48.80433 
0 0 0 0 0 0 0 0 0 0 0 0 0 0 0 0 0 0 0 0 0 0 0 0 0 0 0 0 0 0 0 0 0.789 1.187639 1.46733 1.714164 1.887559 2.097697 2.263884 2.597664 2.764815 2.932631 3.099571 3.269462 3.429903 3.720319 3.905081 4.023043 4.107171 4.22998 4.372484 4.714208 4.834196 4.963064 5.145545 5.360248 5.588326 5.935956 6.109682 6.273898 6.435366 6.619344 6.857015 7.213398 7.368273 7.529364 7.692311 7.837144 8.004475 8.443943 11.28211 15.41989 19.53935 24.20361 27.92293 36.88143 43.2666 46.91272 47.02863 47.26752 47.67628 47.85879 48.13576 48.45272 
0 0 0 0 0 0 0 0 0 0 0 0 0 0 0 0 0 0 0 0 0 0 0 0 0 0 0 0 0 0 0 0 0 0 0.997 1.365459 1.623966 1.832831 1.995689 2.327155 2.500621 2.673339 2.839812 3.003778 3.173899 3.519813 3.651502 3.778652 3.892388 3.974884 4.096161 4.438391 4.586528 4.744872 4.884928 4.994306 5.192051 5.613518 5.771778 5.944322 6.115858 6.286261 6.466042 6.797432 6.963156 7.129086 7.293909 7.460101 7.778604 7.998113 8.173196 9.224652 11.81166 15.88976 25.28756 28.76992 32.89181 38.11161 43.34752 46.3193 47.06358 47.31942 47.61621 47.97341 
0 0 0 0 0 0 0 0 0 0 0 0 0 0 0 0 0 0 0 0 0 0 0 0 0 0 0 0 0 0 0 0 0 0 0 0.841 1.189771 1.557876 1.748279 2.131702 2.263894 2.403362 2.598413 2.810312 2.972691 3.314761 3.415473 3.543664 3.692765 3.764163 3.846876 4.136646 4.280292 4.459804 4.622837 4.773403 4.93366 5.267019 5.481063 5.602069 5.709116 5.878874 6.210085 6.376065 6.541761 6.70782 6.873388 7.036079 7.450629 7.641093 7.789585 8.021117 8.136517 8.599397 15.86428 21.40974 25.8924 29.72829 33.8515 38.24537 46.08944 46.8526 47.24371 47.54821 
0 0 0 0 0 0 0 0 0 0 0 0 0 0 0 0 0 0 0 0 0 0 0 0 0 0 0 0 0 0 0 0 0 0 0 0 0.803 1.088185 1.495882 1.928805 2.020885 2.137362 2.331795 2.547874 2.768641 3.106502 3.212391 3.338512 3.481756 3.573097 3.714922 3.906173 4.047876 4.186783 4.304243 4.47889 4.803005 4.98443 5.104037 5.217522 5.385324 5.553105 5.886916 6.053098 6.220184 6.386822 6.553562 6.719839 7.051251 7.287195 7.492585 7.651278 7.818056 7.976588 8.039202 11.18667 16.34667 21.50128 26.33497 30.92648 39.51976 44.17796 46.47361 47.09848 
0 0 0 0 0 0 0 0 0 0 0 0 0 0 0 0 0 0 0 0 0 0 0 0 0 0 0 0 0 0 0 0 0 0 0 0 0 0.795 1.054576 1.725927 1.851797 1.977496 2.112433 2.286809 2.49353 2.905794 3.005383 3.131141 3.273433 3.371367 3.62639 3.699313 3.843857 3.971937 4.077635 4.236039 4.497239 4.673107 4.84091 4.959013 5.065584 5.240693 5.574929 5.741577 5.907802 6.074575 6.240772 6.407606 6.739825 6.905586 7.071249 7.236507 7.402582 7.565948 7.974833 7.859953 8.851299 11.77636 16.29686 21.79318 31.03563 35.04259 40.55691 45.16492 
0 0 0 0 0 0 0 0 0 0 0 0 0 0 0 0 0 0 0 0 0 0 0 0 0 0 0 0 0 0 0 0 0 0 0 0 0 0 0.81 1.558175 1.745233 1.829566 1.887616 2.069942 2.441268 2.678841 2.808955 2.922365 3.067086 3.163318 3.419718 3.486517 3.630737 3.766315 3.871718 4.027493 4.280849 4.388063 4.51672 4.695181 4.83307 4.925392 5.261494 5.429193 5.595254 5.761666 5.927773 6.094389 6.426429 6.591475 6.755943 6.923158 7.091825 7.258861 7.583001 7.822625 7.928913 7.952526 9.057368 12.45552 22.44371 27.17711 31.28085 45.16492 
0 0 0 0 0 0 0 0 0 0 0 0 0 0 0 0 0 0 0 0 0 0 0 0 0 0 0 0 0 0 0 0 0 0 0 0 0 0 1.162596 1.450011 1.634265 1.746874 1.809852 1.922552 2.202391 2.397461 2.560499 2.719883 2.860565 2.955734 3.210229 3.345916 3.472968 3.552973 3.662804 3.822459 3.993145 4.133187 4.312801 4.443648 4.541894 4.713308 4.969268 5.108996 5.283008 5.448595 5.614743 5.780879 6.11563 6.21464 6.328995 6.539508 6.776581 6.947351 7.279547 7.434403 7.65689 7.88672 7.8565 8.007048 13.85702 27.17711 31.28085 36.21621 
0 0 0 0 0 0 0 0 0 0 0 0 0 0 0 0 0 0 0 0 0 0 0 0 0 0 0 0 0 0 0 0 0 0 0 0 0 0.805 1.302133 1.448652 1.553888 1.655934 1.739013 1.821288 2.012732 2.16447 2.337614 2.513276 2.653581 2.748132 3.002464 3.150422 3.276214 3.341915 3.448596 3.614398 3.772128 3.924797 4.050076 4.165787 4.311444 4.404259 4.740469 4.840445 4.962632 5.136515 5.301364 5.469987 5.727032 5.861132 6.034388 6.193254 6.37693 6.61975 6.967768 7.12844 7.336821 7.561864 7.741913 8.007048 13.85702 18.87187 23.66949 27.52231 
0 0 0 0 0 0 0 0 0 0 0 0 0 0 0 0 0 0 0 0 0 0 0 0 0 0 0 0 0 0 0 0 0 0 0 0 0.784 0.862 1.282729 1.401779 1.473434 1.556623 1.644566 1.718095 1.807223 1.961737 2.139274 2.313406 2.452644 2.540457 2.789279 2.938519 3.058462 3.167921 3.322151 3.407025 3.644062 3.760404 3.831879 3.952682 4.102576 4.194333 4.44943 4.584546 4.764631 4.89557 4.989837 5.153636 5.497075 5.603426 5.723737 5.899667 6.059962 6.221142 6.661409 6.823236 6.979757 7.561864 7.741913 7.86237 8.85289 11.36734 15.64093 20.48485 
0 0 0 0 0 0 0 0 0 0 0 0 0 0 0 0 0 0 0 0 0 0 0 0 0 0 0 0 0 0 0 0 0 0 0 0 0.804 0.885 1.096034 1.220331 1.294714 1.377765 1.464993 1.534283 1.608499 1.710191 1.846217 2.014948 2.176579 2.327768 2.659464 2.765705 2.895308 3.036687 3.114546 3.203771 3.469624 3.548421 3.623011 3.741939 3.897751 3.977044 4.214946 4.322716 4.439904 4.619184 4.765243 4.85471 5.177803 5.345515 5.516511 5.688174 5.834634 5.934766 6.348785 6.511356 6.979757 7.177948 7.424421 7.825723 7.882621 7.935151 9.476901 13.05163 
0 0 0 0 0 0 0 0 0 0 0 0 0 0 0 0 0 0 0 0 0 0 0 0 0 0 0 0 0 0 0 0 0 0 0 0 0.785 0.803 0.899 1.001895 1.086483 1.168566 1.257406 1.33672 1.345192 1.331156 1.475893 1.70787 1.884696 2.121458 2.461081 2.561814 2.69039 2.828954 2.926968 3.085378 3.257515 3.332646 3.465406 3.610687 3.687405 3.767701 4.007171 4.115694 4.241255 4.380475 4.471581 4.644456 4.903312 5.029339 5.196455 5.363376 5.532317 5.868066 6.348785 6.511356 6.674017 6.8651 7.094394 7.43917 7.687083 7.883866 7.705846 8.270295 
0 0 0 0 0 0 0 0 0 0 0 0 0 0 0 0 0 0 0 0 0 0 0 0 0 0 0 0 0 0 0 0 0 0 0 0 0 0 0.791 0.804 0.86 0.962 1.032911 1.034933 1.026937 1.073755 1.15566 1.312945 1.575349 1.818782 2.228908 2.362261 2.480731 2.619547 2.716618 2.879553 3.043423 3.189516 3.321606 3.397097 3.479077 3.569992 3.832605 3.900998 4.03139 4.174921 4.268897 4.514133 4.672916 4.784495 4.894365 5.07114 5.532317 5.868066 6.032662 6.200496 6.368799 6.527833 6.705389 7.139564 7.350358 7.562881 7.755318 7.798455 
0 0 0 0 0 0 0 0 0 0 0 0 0 0 0 0 0 0 0 0 0 0 0 0 0 0 0 0 0 0 0 0 0 0 0 0 0 0 0 0 0.783 0.793 0.823 0.895 0.819 0.848 0.94 1.050475 1.251934 1.510514 1.947205 2.106547 2.271259 2.443972 2.5954 2.676774 2.913198 3.030889 3.100737 3.218311 3.375828 3.53636 3.617253 3.699841 3.829427 3.971234 4.046284 4.290996 4.458754 4.57081 4.894365 5.07114 5.237513 5.55242 5.720594 5.88772 6.053365 6.225745 6.428774 6.830293 6.982307 7.209241 7.433724 7.618472 
0 0 0 0 0 0 0 0 0 0 0 0 0 0 0 0 0 0 0 0 0 0 0 0 0 0 0 0 0 0 0 0 0 0 0 0 0 0 0 0 0 0 0.779 0.789 0.779 0 0.823 0.913 1.014576 1.196817 1.628746 1.85053 2.069074 2.234694 2.384396 2.634781 2.739295 2.81055 2.942023 3.088309 3.164643 3.337948 3.41579 3.555684 3.687021 3.757354 3.840727 4.091789 4.458754 4.57081 4.697347 4.869967 5.007158 5.264916 5.43805 5.606963 5.771159 5.961389 6.188732 6.516662 6.678371 6.901795 7.12819 7.282798 
0 0 0 0 0 0 0 0 0 0 0 0 0 0 0 0 0 0 0 0 0 0 0 0 0 0 0 0 0 0 0 0 0 0 0 0 0 0 0 0 0 0 0 0 0 0 0 0.804 0.892 1.143202 1.386581 1.583757 1.789275 2.027172 2.174543 2.423194 2.523879 2.662485 2.800268 2.870475 2.975698 3.231583 3.310403 3.388001 3.473981 3.565956 3.840727 4.091789 4.183014 4.314163 4.490859 4.618425 4.724364 5.046933 5.204917 5.374428 5.543498 5.711129 5.87218 6.20749 6.368419 6.590293 6.817548 6.975314 
0 0 0 0 0 0 0 0 0 0 0 0 0 0 0 0 0 0 0 0 0 0 0 0 0 0 0 0 0 0 0 0 0 0 0 0 0 0 0 0 0 0 0 0 0 0 0 0 0.789 0.954 1.094459 1.325349 1.545169 1.704243 1.875075 2.21807 2.32239 2.45562 2.582196 2.687847 2.852796 3.011822 3.106225 3.191504 3.311042 3.565956 3.662516 3.906354 3.975295 4.115701 4.247977 4.343576 4.51994 4.767888 4.914643 5.093101 5.249228 5.389217 5.557387 5.893023 6.053317 6.27638 6.507608 6.667923 
0 0 0 0 0 0 0 0 0 0 0 0 0 0 0 0 0 0 0 0 0 0 0 0 0 0 0 0 0 0 0 0 0 0 0 0 0 0 0 0 0 0 0 0 0 0 0 0 0 0.849 0.93 1.058987 1.220743 1.412671 1.660753 1.996021 2.17308 2.296506 2.374699 2.489442 2.638722 2.815691 2.965173 3.191504 3.311042 3.456731 3.535217 3.690666 3.787283 3.924053 4.041636 4.144044 4.304227 4.54443 4.726209 4.879677 4.99621 5.118122 5.292163 5.631625 5.797337 5.994053 6.19459 6.360236 
0 0 0 0 0 0 0 0 0 0 0 0 0 0 0 0 0 0 0 0 0 0 0 0 0 0 0 0 0 0 0 0 0 0 0 0 0 0 0 0 0 0 0 0 0 0 0 0 0 0 0.828 0.915 0.984 1.106744 1.341524 1.68788 1.858581 2.028734 2.21064 2.361993 2.43317 2.815691 2.965173 3.086533 3.157938 3.240878 3.344667 3.510503 3.646944 3.759274 3.840476 3.965637 4.100046 4.341165 4.495062 4.608813 4.745192 4.916748 5.046905 5.379047 5.54703 5.711415 5.875484 6.041081 
0 0 0 0 0 0 0 0 0 0 0 0 0 0 0 0 0 0 0 0 0 0 0 0 0 0 0 0 0 0 0 0 0 0 0 0 0 0 0 0 0 0 0 0 0 0 0 0 0 0 0 0.81 0.897 0.972 1.044325 1.439264 1.640918 1.81017 1.980132 2.361993 2.43317 2.681662 2.791085 2.875476 2.969597 3.071885 3.220332 3.385204 3.4854 3.577178 3.687087 3.822948 3.897267 4.136057 4.242895 4.365324 4.534375 4.656734 4.776508 5.117169 5.288337 5.457556 5.626967 5.795069 
0 0 0 0 0 0 0 0 0 0 0 0 0 0 0 0 0 0 0 0 0 0 0 0 0 0 0 0 0 0 0 0 0 0 0 0 0 0 0 0 0 0 0 0 0 0 0 0 0 0 0 0 0.8 0.852 0.862 1.087338 1.264823 1.81017 1.980132 2.132855 2.227118 2.466796 2.573222 2.705426 2.857849 2.931616 3.00807 3.205198 3.335298 3.453717 3.526549 3.60252 3.688051 3.944686 4.035103 4.163446 4.305761 4.39285 4.744077 4.874132 5.021854 5.193013 5.360131 5.528011 
0 0 0 0 0 0 0 0 0 0 0 0 0 0 0 0 0 0 0 0 0 0 0 0 0 0 0 0 0 0 0 0 0 0 0 0 0 0 0 0 0 0 0 0 0 0 0 0 0 0 0 0 0 0 0 0.916 1.264823 1.483823 1.658344 1.829771 1.995332 2.259156 2.386329 2.513411 2.637422 2.718905 2.836617 3.078502 3.148014 3.248376 3.361382 3.442481 3.660851 3.748856 3.855325 3.988947 4.115787 4.241972 4.536012 4.632073 4.760732 4.936803 5.107728 5.282998 
0 0 0 0 0 0 0 0 0 0 0 0 0 0 0 0 0 0 0 0 0 0 0 0 0 0 0 0 0 0 0 0 0 0 0 0 0 0 0 0 0 0 0 0 0 0 0 0 0 0 0 0 0 0 0 0.916 0.965 1.118482 1.341231 1.491227 1.678444 2.043792 2.236421 2.358428 2.434085 2.558074 2.778706 2.887751 2.984744 3.097261 3.222147 3.297252 3.501944 3.594795 3.711031 3.811601 3.916156 4.08201 4.32691 4.429745 4.557564 4.741621 4.895311 5.007199 
0 0 0 0 0 0 0 0 0 0 0 0 0 0 0 0 0 0 0 0 0 0 0 0 0 0 0 0 0 0 0 0 0 0 0 0 0 0 0 0 0 0 0 0 0 0 0 0 0 0 0 0 0 0 0 0.825 0.835 0.9 1.022214 1.12621 1.563597 1.792466 1.989311 2.118847 2.25241 2.413399 2.604021 2.745634 2.849622 2.919001 3.013299 3.136668 3.347282 3.443049 3.515779 3.620224 3.76041 3.871045 4.117826 4.224297 4.355468 4.502804 4.611332 4.760543 
0 0 0 0 0 0 0 0 0 0 0 0 0 0 0 0 0 0 0 0 0 0 0 0 0 0 0 0 0 0 0 0 0 0 0 0 0 0 0 0 0 0 0 0 0 0 0 0 0 0 0 0 0 0 0 0 0 0.789 0.854 0.947 1.316657 1.49912 1.681547 1.874501 2.049463 2.198483 2.453619 2.556278 2.657586 2.765479 2.863584 2.988123 3.19355 3.293557 3.372166 3.47383 3.579761 3.666781 3.930206 4.007879 4.14063 4.311714 4.440341 4.557391 
0 0 0 0 0 0 0 0 0 0 0 0 0 0 0 0 0 0 0 0 0 0 0 0 0 0 0 0 0 0 0 0 0 0 0 0 0 0 0 0 0 0 0 0 0 0 0 0 0 0 0 0 0 0 0 0 0 0 0.785 0.843 1.051975 1.179644 1.402519 1.631985 1.806776 1.996234 2.24005 2.339545 2.477342 2.626085 2.696249 2.776605 3.042765 3.131707 3.204117 3.313879 3.442873 3.530431 3.719041 3.849415 3.977953 4.113124 4.263155 4.353377 
