NCOLS 83
NROWS 57
XLLCORNER 616413.99
YLLCORNER 4621855.4
CELLSIZE 10
NODATA_VALUE -9999
1472.872 1472.932 1472.93 1472.929 1472.904 1472.81 1472.658 1472.209 1471.94 1471.553 1470.882 1470.446 1469.884 1468.556 1467.858 1466.985 1466.071 1463.952 1462.56 1461.029 1457.294 1455.218 1453.63 1451.689 1451.418 1451.132 1450.92 1450.572 1450.381 1450.208 1449.919 1449.718 1449.651 1449.527 1449.295 1449.197 1449.194 1449.209 1449.249 1449.288 1449.528 1449.684 1449.829 1449.965 1450.474 1450.77 1451.224 1452.254 1452.576 1452.818 1453.225 1453.361 1453.428 1453.518 1453.64 1453.63 1453.63 1453.511 1453.503 1453.501 1453.904 1453.867 1453.799 1453.792 1453.736 1453.667 1453.663 1453.425 1453.433 1453.422 1453.205 1453.068 1452.978 1452.822 1452.5 1452.322 1452.092 1451.714 1451.499 1451.342 1450.916 1450.771 1450.601 
1473.19 1473.234 1473.228 1473.231 1473.201 1473.111 1472.961 1472.619 1472.383 1472.145 1471.384 1470.95 1470.392 1469.776 1468.382 1467.557 1466.488 1464.521 1463.218 1461.524 1457.651 1455.738 1454.097 1452.791 1451.532 1451.301 1451.01 1450.556 1450.339 1450.192 1449.996 1449.815 1449.689 1449.575 1449.418 1449.348 1449.345 1449.33 1449.344 1449.427 1449.679 1449.832 1449.986 1450.183 1450.628 1450.917 1451.339 1452.317 1452.802 1453.156 1453.556 1453.745 1453.839 1453.991 1454.137 1454.143 1454.137 1454.108 1454.049 1454.008 1453.904 1453.867 1454.405 1454.402 1454.286 1454.289 1454.273 1454.121 1454.026 1453.938 1453.773 1453.662 1453.495 1453.333 1453.02 1452.823 1452.512 1452.132 1451.885 1451.66 1451.497 1451.074 1450.926 
1473.19 1473.435 1473.444 1473.513 1473.441 1473.443 1473.374 1473.179 1473.006 1472.767 1471.992 1471.583 1471.099 1470.489 1469.021 1468.062 1467.058 1465.039 1463.829 1462.177 1458.345 1456.5 1454.765 1453.41 1451.683 1451.507 1451.204 1450.682 1450.42 1450.272 1449.935 1449.828 1449.684 1449.664 1449.452 1449.444 1449.443 1449.509 1449.514 1449.591 1449.833 1449.99 1450.144 1450.283 1450.795 1451.088 1451.463 1452.279 1452.812 1453.305 1453.805 1454.043 1454.219 1454.367 1454.569 1454.63 1454.624 1454.683 1454.7 1454.575 1454.472 1454.414 1454.405 1454.402 1454.915 1454.88 1454.802 1454.693 1454.54 1454.441 1454.286 1454.099 1454.005 1453.849 1453.498 1453.229 1452.918 1452.542 1452.296 1452.059 1451.818 1451.455 1451.227 
1473.39 1473.435 1473.735 1473.755 1473.891 1473.97 1473.973 1473.725 1473.641 1473.466 1472.655 1472.338 1471.908 1471.229 1469.731 1468.748 1467.661 1465.693 1464.443 1462.942 1459.084 1457.092 1455.439 1454.033 1451.951 1451.617 1451.313 1450.808 1450.506 1450.293 1450.063 1449.903 1449.751 1449.688 1449.596 1449.538 1449.537 1449.598 1449.666 1449.735 1449.964 1450.137 1450.243 1450.428 1450.936 1451.186 1451.571 1452.343 1452.857 1453.351 1453.668 1454.256 1454.481 1454.688 1454.981 1455.033 1455.049 1455.174 1455.191 1455.269 1455.131 1454.997 1454.93 1454.919 1454.915 1455.417 1455.416 1455.265 1455.123 1454.878 1454.775 1454.583 1454.427 1454.341 1454.009 1453.744 1453.43 1452.944 1452.7 1452.472 1452.313 1451.781 1451.618 
1473.568 1473.648 1473.735 1473.755 1474.246 1474.373 1474.38 1474.367 1474.23 1474.005 1473.66 1473.218 1472.743 1472.21 1470.63 1469.678 1468.666 1466.178 1465.071 1463.723 1459.916 1457.948 1456.225 1454.748 1452.373 1451.704 1451.399 1450.806 1450.539 1450.379 1450.029 1449.944 1449.852 1449.77 1449.686 1449.723 1449.721 1449.759 1449.76 1449.9 1449.972 1450.283 1450.413 1450.646 1451.047 1451.344 1451.689 1452.444 1453.036 1453.512 1453.908 1454.509 1454.773 1455.092 1455.384 1455.454 1455.56 1455.758 1455.78 1455.826 1455.784 1455.578 1455.552 1455.547 1455.479 1455.417 1455.416 1455.865 1455.736 1455.512 1455.327 1455.102 1454.934 1454.769 1454.46 1454.261 1453.937 1453.395 1453.221 1452.978 1452.74 1452.263 1452.028 
1473.676 1473.784 1473.962 1474.117 1474.246 1474.373 1474.873 1474.961 1474.893 1474.803 1474.229 1473.989 1473.65 1473.125 1471.593 1470.683 1469.592 1467.177 1465.834 1464.417 1462.691 1458.722 1456.915 1455.29 1452.666 1451.789 1451.5 1450.798 1450.519 1450.308 1450.194 1450.03 1449.952 1449.872 1449.839 1449.855 1449.848 1449.927 1450 1450.046 1450.17 1450.458 1450.612 1450.791 1451.236 1451.545 1451.803 1452.581 1453.147 1453.686 1454.161 1454.869 1455.203 1455.473 1455.804 1455.912 1456.069 1456.256 1456.3 1456.281 1456.272 1456.347 1456.194 1456.161 1456.036 1456.042 1456.017 1455.865 1455.736 1456.198 1455.971 1455.615 1455.446 1455.286 1454.979 1454.743 1454.354 1453.86 1453.651 1453.488 1453.258 1452.671 1452.423 
1473.868 1474.022 1474.229 1474.334 1474.718 1474.797 1474.873 1474.961 1475.497 1475.396 1475.186 1474.688 1474.356 1473.917 1472.782 1471.924 1470.829 1468.137 1466.709 1465.217 1463.551 1459.5 1457.398 1455.687 1452.933 1451.935 1451.432 1450.757 1450.426 1450.277 1450.199 1450.143 1450.053 1449.979 1449.957 1449.96 1450.017 1450.079 1450.166 1450.215 1450.299 1450.691 1450.88 1451.02 1451.495 1451.741 1451.96 1452.807 1453.288 1453.821 1454.331 1455.204 1455.564 1455.813 1456.314 1456.473 1456.586 1456.872 1456.929 1456.915 1456.931 1456.969 1456.888 1456.838 1456.675 1456.64 1456.547 1456.377 1456.301 1456.198 1456.564 1456.203 1455.968 1455.809 1455.453 1455.178 1454.869 1454.622 1454.138 1453.899 1453.662 1453.196 1452.921 
1473.775 1474.191 1474.362 1474.581 1474.957 1475.175 1475.278 1475.469 1475.497 1475.903 1475.768 1475.353 1475.129 1474.911 1474.059 1473.31 1472.363 1469.43 1467.755 1466.118 1464.44 1460.114 1457.855 1456.001 1452.973 1451.938 1451.421 1450.626 1450.456 1450.372 1450.225 1450.188 1450.151 1450.007 1450.034 1450.167 1450.233 1450.217 1450.348 1450.418 1450.544 1450.984 1451.198 1451.399 1451.737 1451.937 1452.272 1453.184 1453.694 1454.27 1454.73 1455.551 1455.935 1456.32 1456.863 1457.052 1457.145 1457.429 1457.513 1457.533 1457.578 1457.579 1457.545 1457.601 1457.346 1457.253 1457.191 1457.09 1456.891 1456.72 1456.564 1456.203 1456.605 1456.432 1456.059 1455.791 1455.488 1455.24 1454.645 1454.413 1454.177 1453.666 1453.321 
1473.927 1474.307 1474.515 1474.68 1475.183 1475.443 1475.68 1476.019 1475.982 1475.903 1475.768 1476.313 1476.177 1476.026 1475.472 1475.007 1474.097 1470.805 1468.858 1466.885 1464.872 1460.573 1458.179 1456.02 1452.803 1451.72 1451.215 1450.465 1450.365 1450.289 1450.194 1450.259 1450.182 1450.161 1450.186 1450.283 1450.343 1450.442 1450.554 1450.689 1450.78 1451.271 1451.597 1451.811 1452.129 1452.428 1452.823 1453.221 1454.157 1454.73 1455.195 1456.02 1456.411 1456.834 1457.362 1457.578 1457.762 1457.914 1458.074 1458.138 1458.156 1458.253 1458.227 1458.24 1458.048 1457.931 1457.883 1457.745 1457.504 1457.338 1457.176 1456.825 1456.605 1456.432 1456.583 1456.34 1456.08 1455.774 1455.162 1454.926 1454.684 1454.016 1453.634 
1473.973 1474.349 1474.509 1474.767 1475.428 1475.785 1476.026 1476.328 1476.396 1476.399 1476.336 1476.313 1476.177 1476.919 1476.904 1476.677 1475.694 1472.058 1469.843 1467.569 1465.384 1460.814 1458.272 1455.723 1452.382 1451.485 1450.911 1450.369 1450.249 1450.198 1450.265 1450.181 1450.185 1450.188 1450.35 1450.399 1450.608 1450.746 1451.005 1451.083 1451.15 1451.556 1451.951 1452.282 1452.815 1453.118 1453.443 1453.861 1454.842 1455.262 1455.708 1456.611 1456.984 1457.354 1457.924 1458.148 1458.381 1458.577 1458.699 1458.808 1458.881 1458.914 1458.874 1458.921 1458.816 1458.698 1458.527 1458.446 1458.132 1457.978 1457.833 1457.486 1457.298 1457.052 1456.583 1456.34 1456.622 1456.37 1455.751 1455.423 1455.106 1454.381 1453.938 
1474.043 1474.381 1474.552 1474.839 1475.443 1475.738 1476.073 1476.53 1476.673 1476.74 1476.761 1476.914 1476.968 1476.919 1477.421 1477.503 1476.901 1475.301 1470.972 1468.457 1466.037 1461.284 1458.339 1455.32 1451.625 1451.026 1450.69 1450.53 1450.16 1450.192 1450.27 1450.228 1450.198 1450.343 1450.524 1450.685 1450.919 1451.214 1451.428 1451.498 1451.567 1451.921 1452.336 1452.782 1453.506 1453.861 1454.215 1454.6 1455.525 1455.963 1456.469 1457.207 1457.595 1457.973 1458.613 1458.807 1458.992 1459.231 1459.36 1459.482 1459.594 1459.589 1459.582 1459.574 1459.529 1459.418 1459.282 1459.171 1458.876 1458.709 1458.634 1458.178 1457.92 1457.703 1457.323 1457.004 1456.622 1457.002 1456.332 1455.945 1455.621 1454.777 1454.349 
1474.121 1474.474 1474.654 1474.849 1475.384 1475.673 1476.035 1476.305 1476.744 1476.828 1476.908 1477.029 1477.048 1477.131 1477.421 1477.503 1477.49 1476.554 1472.123 1469.543 1467.041 1461.819 1458.41 1455.088 1451.242 1450.745 1450.475 1450.307 1450.328 1450.19 1450.26 1450.381 1450.381 1450.463 1450.88 1451.123 1451.419 1451.665 1451.826 1451.891 1451.953 1452.557 1452.99 1453.384 1454.23 1454.592 1454.97 1455.394 1456.286 1456.75 1457.236 1458.001 1458.334 1458.715 1459.329 1459.534 1459.723 1459.907 1460.089 1460.203 1460.312 1460.335 1460.346 1460.302 1460.244 1460.157 1460.064 1459.9 1459.637 1459.445 1459.314 1458.96 1458.679 1458.508 1458.277 1457.645 1457.321 1457.002 1456.332 1456.533 1456.136 1455.185 1454.767 
1474.26 1474.5 1474.762 1474.908 1475.354 1475.639 1475.974 1476.297 1476.728 1476.878 1476.979 1477.121 1477.196 1477.311 1477.416 1477.485 1477.49 1476.554 1473.274 1470.57 1467.859 1462.207 1458.586 1454.968 1451.185 1450.755 1450.493 1450.401 1450.348 1450.48 1450.404 1450.413 1450.511 1450.661 1451.196 1451.564 1451.856 1452.073 1452.427 1452.489 1452.621 1453.212 1453.726 1454.088 1454.89 1455.338 1455.771 1456.214 1457.214 1457.64 1458.033 1458.901 1459.234 1459.555 1460.113 1460.321 1460.496 1460.647 1460.807 1460.926 1461.035 1461.055 1461.073 1461.018 1460.976 1460.839 1460.776 1460.615 1460.354 1460.226 1459.999 1459.728 1459.486 1459.218 1459 1458.361 1457.964 1457.628 1456.953 1456.533 1456.136 1455.714 1455.259 
1474.255 1474.56 1474.825 1474.975 1475.366 1475.57 1475.946 1476.281 1476.609 1476.771 1476.932 1477.098 1477.168 1477.372 1477.569 1477.528 1477.362 1477.335 1473.274 1470.57 1468.688 1462.801 1458.873 1455.033 1451.153 1450.89 1450.67 1450.441 1450.428 1450.476 1450.4 1450.469 1450.545 1450.861 1451.53 1451.849 1452.09 1452.525 1453.087 1453.202 1453.341 1454.052 1454.464 1454.906 1455.348 1456.143 1456.604 1457.113 1458.085 1458.576 1458.945 1459.731 1460.083 1460.378 1460.688 1461.065 1461.204 1461.298 1461.51 1461.585 1461.698 1461.748 1461.735 1461.727 1461.645 1461.49 1461.446 1461.325 1461.069 1460.91 1460.786 1460.468 1460.27 1459.995 1459.81 1459.188 1458.785 1458.386 1457.586 1457.06 1456.657 1455.714 1455.259 
1474.248 1474.634 1474.822 1475.011 1475.381 1475.604 1475.875 1476.098 1476.508 1476.631 1476.785 1477.168 1477.319 1477.381 1477.563 1477.551 1477.674 1477.675 1474.242 1471.391 1468.688 1463.185 1459.206 1455.171 1451.126 1450.828 1450.597 1450.585 1450.452 1450.569 1450.504 1450.673 1450.82 1450.993 1451.43 1452.138 1452.6 1453.057 1453.756 1453.951 1454.16 1454.792 1455.193 1455.639 1456.09 1457.002 1457.529 1458.05 1459.075 1459.515 1459.88 1460.634 1460.992 1461.282 1461.54 1461.822 1461.918 1462.04 1462.236 1462.287 1462.304 1462.442 1462.466 1462.443 1462.359 1462.188 1462.098 1461.986 1461.711 1461.56 1461.453 1461.165 1461.018 1460.889 1460.678 1460.004 1459.625 1459.213 1458.255 1457.77 1457.281 1456.266 1455.744 
1474.371 1474.716 1474.883 1475.119 1475.542 1475.739 1475.907 1475.97 1476.352 1476.456 1476.61 1477.098 1477.322 1477.441 1477.567 1477.79 1477.834 1477.705 1474.881 1472.022 1469.208 1463.185 1459.206 1455.144 1452.182 1450.752 1450.593 1450.58 1450.503 1450.414 1450.571 1450.708 1450.98 1451.3 1451.672 1452.494 1453.028 1453.487 1454.255 1454.608 1454.897 1455.505 1455.965 1456.557 1457.021 1457.902 1458.385 1458.982 1459.914 1460.367 1460.804 1461.526 1461.844 1462.131 1462.296 1462.644 1462.704 1462.798 1462.944 1463.013 1463.045 1463.084 1463.125 1463.159 1463.124 1462.943 1462.805 1462.644 1462.394 1462.221 1462.058 1461.902 1461.779 1461.7 1461.587 1460.895 1460.539 1460.063 1459.038 1458.463 1457.911 1457.342 1456.305 
1474.532 1474.82 1474.988 1475.225 1475.583 1476.015 1476.178 1476.218 1476.24 1476.355 1476.517 1477.048 1477.403 1477.623 1477.702 1477.955 1477.913 1477.695 1475.671 1472.647 1469.578 1463.173 1459.14 1455.144 1452.182 1450.712 1450.666 1450.586 1450.526 1450.612 1450.7 1450.985 1451.221 1451.603 1451.907 1452.935 1453.453 1453.908 1454.781 1455.152 1455.521 1456.298 1456.786 1457.313 1457.758 1458.781 1459.299 1459.828 1460.944 1461.368 1461.745 1462.462 1462.728 1462.953 1463.162 1463.484 1463.542 1463.607 1463.721 1463.752 1463.831 1463.885 1463.891 1463.917 1463.917 1463.742 1463.591 1463.378 1462.985 1462.833 1462.718 1462.701 1462.624 1462.56 1462.454 1461.899 1461.452 1460.982 1459.773 1459.165 1458.6 1457.97 1456.944 
1474.562 1474.931 1475.109 1475.401 1475.746 1476.254 1476.468 1476.506 1476.3 1476.317 1476.409 1477.074 1477.483 1477.717 1477.798 1478.035 1477.968 1477.772 1476.201 1473.194 1469.901 1462.949 1458.88 1454.956 1451.927 1450.712 1450.666 1450.496 1450.666 1450.665 1450.885 1451.2 1451.52 1451.836 1452.29 1453.362 1453.876 1454.331 1455.308 1455.696 1456.143 1456.986 1457.523 1458.061 1458.657 1459.718 1460.257 1460.851 1461.844 1462.236 1462.679 1462.997 1463.616 1463.9 1464.071 1464.147 1464.226 1464.302 1464.322 1464.322 1464.35 1464.444 1464.319 1464.324 1464.324 1464.276 1464.225 1464.061 1463.59 1463.454 1463.39 1463.417 1463.443 1463.455 1463.323 1462.888 1462.405 1461.901 1460.514 1459.841 1459.168 1458.54 1457.455 
1474.694 1474.994 1475.216 1475.483 1475.791 1476.333 1476.505 1476.63 1476.5 1476.449 1476.443 1477.203 1477.567 1477.862 1477.983 1478.152 1478.07 1477.956 1476.437 1473.507 1470.029 1462.788 1458.768 1454.807 1451.642 1450.619 1450.561 1450.496 1450.803 1450.941 1451.031 1451.547 1451.847 1452.191 1452.712 1453.865 1454.325 1454.852 1455.88 1456.328 1456.778 1457.223 1458.264 1458.788 1459.316 1460.509 1461.107 1461.71 1462.84 1463.227 1463.547 1463.931 1464.305 1464.413 1464.568 1464.707 1464.765 1464.778 1464.822 1464.76 1464.763 1464.747 1464.495 1464.505 1464.505 1464.492 1464.444 1464.412 1464.21 1464.095 1464.023 1464.051 1464.13 1464.164 1464.129 1463.789 1463.365 1462.802 1461.278 1460.442 1459.701 1459.067 1457.965 
1474.851 1475.07 1475.337 1475.618 1475.876 1476.384 1476.566 1476.713 1476.764 1476.722 1476.808 1477.491 1477.866 1478.078 1478.212 1478.395 1478.408 1478.339 1476.891 1474.01 1470.24 1462.577 1458.376 1454.381 1451.412 1450.588 1450.588 1450.621 1450.803 1450.941 1451.348 1451.652 1452.355 1452.837 1453.365 1454.469 1455.047 1455.495 1456.503 1456.98 1457.504 1457.961 1459 1459.525 1460.05 1461.287 1461.954 1462.555 1463.713 1464.09 1464.301 1464.478 1464.674 1464.813 1464.897 1465.068 1465.124 1465.115 1465.089 1465.112 1465.031 1464.895 1464.708 1464.721 1464.72 1464.624 1464.619 1464.672 1464.585 1464.499 1464.422 1464.412 1464.52 1464.462 1464.425 1464.303 1463.98 1463.415 1461.763 1460.898 1460.199 1459.575 1458.479 
1474.872 1475.184 1475.439 1475.696 1475.925 1476.382 1476.626 1476.869 1477.053 1477.19 1477.344 1477.547 1478.222 1478.324 1478.358 1478.673 1478.73 1478.719 1477.51 1474.704 1470.592 1466.515 1457.901 1453.857 1451.049 1450.597 1450.67 1450.799 1450.949 1451.083 1451.348 1451.652 1452.999 1453.468 1453.994 1455.063 1455.572 1456.03 1457.086 1457.59 1458.043 1458.568 1459.555 1460.159 1460.688 1461.969 1462.707 1463.304 1464.264 1464.53 1464.742 1464.892 1465.155 1465.23 1465.312 1465.27 1465.356 1465.347 1465.204 1465.185 1465.154 1464.988 1464.906 1464.863 1464.854 1464.752 1464.778 1464.802 1464.634 1464.578 1464.556 1464.504 1464.536 1464.488 1464.456 1464.28 1464.01 1463.496 1462.823 1461.208 1460.477 1459.848 1458.844 
1475.022 1475.163 1475.532 1475.763 1475.992 1476.443 1476.692 1477.008 1477.385 1477.623 1477.818 1477.993 1478.485 1478.633 1478.578 1478.935 1479.013 1479.104 1477.969 1475.25 1470.979 1466.48 1457.44 1453.335 1450.852 1450.827 1450.985 1450.986 1451.152 1451.357 1451.656 1451.975 1452.999 1453.468 1454.642 1455.705 1456.237 1456.756 1457.712 1458.225 1458.67 1459.114 1460.16 1460.701 1461.305 1462.559 1463.265 1463.934 1464.679 1464.951 1465.163 1465.317 1465.524 1465.63 1465.561 1465.564 1465.456 1465.461 1465.309 1465.232 1465.178 1465.151 1464.991 1464.891 1464.958 1464.735 1464.71 1464.716 1464.701 1464.627 1464.527 1464.498 1464.452 1464.489 1464.398 1464.167 1463.878 1463.312 1462.67 1461.344 1460.695 1460.1 1459.105 
1475.238 1475.313 1475.639 1475.873 1476.103 1476.588 1476.862 1477.113 1477.723 1477.917 1478.101 1478.291 1478.745 1478.9 1478.888 1479.161 1479.215 1479.303 1478.204 1475.857 1471.432 1466.513 1457.13 1453.128 1451.074 1451.346 1451.356 1451.408 1451.583 1451.766 1452.045 1452.494 1453.582 1454.116 1454.642 1456.433 1456.944 1457.398 1458.354 1458.855 1459.308 1459.756 1460.794 1461.321 1461.846 1462.987 1463.679 1464.262 1464.591 1465.279 1465.484 1465.639 1465.802 1465.872 1465.861 1465.718 1465.638 1465.568 1465.484 1465.332 1465.255 1465.193 1465.035 1464.945 1464.914 1464.822 1464.749 1464.708 1464.658 1464.549 1464.492 1464.439 1464.385 1464.364 1464.293 1464.003 1463.6 1463.046 1462.419 1461.306 1460.733 1460.266 1459.437 
1475.363 1475.484 1475.723 1475.965 1476.2 1476.699 1477.007 1477.287 1477.96 1478.222 1478.362 1478.592 1478.948 1479.055 1479.229 1479.436 1479.454 1479.3 1478.399 1476.353 1471.537 1466.427 1457.077 1453.478 1452.101 1451.887 1451.823 1451.87 1452.066 1452.3 1452.712 1453.16 1454.31 1454.835 1455.363 1456.433 1456.944 1458.135 1458.679 1459.52 1460.045 1460.5 1461.396 1461.856 1462.379 1463.495 1464.031 1464.401 1464.857 1465.52 1465.787 1465.866 1466.05 1465.971 1465.975 1465.886 1465.739 1465.674 1465.671 1465.435 1465.365 1465.288 1465.071 1465.04 1464.9 1464.799 1464.678 1464.484 1464.389 1464.35 1464.353 1464.328 1464.305 1464.261 1464.276 1463.578 1463.11 1462.605 1462.158 1461.185 1460.775 1460.396 1459.715 
1475.547 1475.686 1476.01 1476.237 1476.405 1476.879 1477.189 1477.491 1478.239 1478.57 1478.756 1478.927 1479.142 1479.278 1479.474 1479.641 1479.493 1479.282 1478.68 1476.467 1471.535 1466.377 1457.847 1454.649 1453.328 1452.573 1452.439 1452.589 1452.721 1453.103 1453.476 1453.903 1454.935 1455.454 1456.001 1457.065 1457.599 1458.135 1458.679 1460.347 1460.79 1461.238 1462.209 1462.583 1463.031 1463.972 1464.449 1464.829 1465.281 1465.873 1466.012 1466.163 1466.188 1466.167 1466.087 1465.931 1465.849 1465.773 1465.71 1465.441 1465.375 1465.3 1465.151 1465.074 1464.921 1464.557 1464.396 1464.229 1464.206 1464.224 1464.231 1464.247 1464.049 1463.937 1463.785 1462.978 1462.581 1462.179 1461.846 1461.155 1460.888 1460.534 1459.957 
1475.743 1475.889 1476.219 1476.383 1476.529 1477.093 1477.401 1477.774 1478.16 1478.805 1479.029 1479.235 1479.43 1479.596 1479.701 1479.669 1479.572 1479.503 1479.247 1476.599 1471.588 1466.047 1459.254 1456.714 1455.115 1453.748 1453.548 1453.572 1453.629 1453.992 1454.302 1454.667 1455.648 1456.141 1456.732 1457.818 1458.333 1458.866 1459.411 1460.347 1461.633 1462.083 1462.932 1463.329 1463.76 1464.497 1464.872 1465.25 1465.624 1466.193 1466.302 1466.295 1466.245 1466.184 1466.182 1466.029 1465.956 1465.871 1465.719 1465.511 1465.375 1465.302 1465.038 1464.883 1464.656 1464.265 1464.216 1464.195 1464.145 1464.062 1464.056 1463.953 1463.626 1463.388 1463.092 1462.755 1462.206 1462.001 1461.691 1461.166 1460.945 1460.726 1460.206 
1476.126 1476.136 1476.377 1476.474 1476.689 1477.315 1477.781 1478.092 1478.474 1479.082 1479.306 1479.537 1479.783 1479.81 1479.817 1479.796 1479.771 1479.637 1479.42 1476.793 1471.536 1465.56 1460.186 1458.401 1456.93 1455.146 1454.782 1454.693 1454.724 1454.876 1455.203 1455.55 1456.4 1456.955 1457.506 1458.61 1459.079 1459.622 1460.236 1461.18 1461.633 1462.083 1463.71 1464.112 1464.392 1465.021 1465.412 1465.769 1466.075 1466.392 1466.493 1466.417 1466.287 1466.268 1466.192 1466.148 1466.03 1465.883 1465.803 1465.517 1465.364 1465.219 1464.834 1464.573 1464.422 1464.247 1464.098 1464.03 1463.888 1463.751 1463.661 1463.45 1463.134 1462.936 1462.68 1462.479 1462.024 1461.824 1461.623 1461.218 1460.998 1460.852 1460.422 
1476.348 1476.337 1476.64 1476.854 1477.07 1477.715 1478.127 1478.489 1478.798 1479.399 1479.623 1479.851 1480.033 1480.106 1480.196 1480.062 1480.049 1479.872 1479.589 1476.612 1471.056 1464.982 1460.625 1459.368 1458.145 1456.558 1456.091 1455.897 1455.845 1455.865 1456.17 1456.464 1457.164 1457.68 1458.247 1459.387 1459.938 1460.49 1461.077 1462.029 1462.469 1462.918 1463.71 1464.112 1464.994 1465.217 1465.977 1466.197 1466.475 1466.611 1466.618 1466.685 1466.38 1466.377 1466.286 1466.132 1465.96 1465.872 1465.724 1465.414 1465.264 1465.113 1464.734 1464.418 1464.215 1464.204 1463.85 1463.727 1463.646 1463.417 1463.314 1463.075 1462.81 1462.602 1462.437 1462.287 1462.02 1461.821 1461.612 1461.357 1461.17 1461.009 1460.681 
1476.644 1476.71 1476.984 1477.198 1477.567 1478.125 1478.494 1478.823 1479.266 1479.691 1479.926 1480.153 1480.379 1480.424 1480.587 1480.42 1480.173 1480.041 1479.661 1476.232 1470.464 1464.708 1461.108 1460.113 1459.186 1457.819 1457.297 1456.973 1456.83 1456.776 1456.979 1457.281 1457.945 1458.34 1458.824 1459.479 1460.786 1461.402 1461.925 1462.925 1463.297 1463.732 1464.43 1464.715 1464.994 1465.217 1466.415 1466.656 1466.731 1466.784 1466.689 1466.597 1466.561 1466.441 1466.287 1466.216 1465.878 1465.855 1465.632 1465.379 1465.165 1465.01 1464.384 1464.272 1464.185 1464.052 1463.734 1463.583 1463.447 1463.203 1463.011 1462.922 1462.667 1462.445 1462.296 1462.135 1461.979 1461.861 1461.677 1461.47 1461.323 1461.21 1460.927 
1477.241 1477.234 1477.545 1477.768 1478.005 1478.705 1479.005 1479.31 1479.637 1480.099 1480.334 1480.564 1480.648 1480.72 1480.812 1480.86 1480.553 1480.09 1479.596 1475.826 1470.165 1464.832 1461.371 1460.717 1459.955 1459.274 1458.247 1457.887 1457.749 1457.722 1457.8 1458.067 1458.589 1458.976 1459.528 1460.096 1461.489 1462.205 1462.762 1463.751 1464.091 1464.441 1465.032 1465.299 1465.533 1465.82 1466.415 1466.887 1467.004 1466.906 1466.862 1466.736 1466.554 1466.406 1466.191 1466.18 1465.805 1465.657 1465.508 1465.107 1464.917 1464.618 1464.284 1464.162 1464.086 1463.94 1463.638 1463.47 1463.246 1463.031 1462.854 1462.725 1462.619 1462.429 1462.281 1462.192 1461.935 1461.862 1461.767 1461.547 1461.424 1461.396 1461.243 
1477.782 1477.848 1478.005 1478.233 1478.606 1478.852 1479.439 1479.743 1480.048 1480.418 1480.647 1480.807 1480.947 1481.04 1481.098 1481.033 1481.041 1480.545 1479.577 1475.22 1469.917 1465.026 1461.675 1461.243 1460.558 1459.96 1459.012 1458.7 1458.568 1458.536 1458.572 1458.798 1459.261 1459.593 1460.106 1460.63 1462.041 1462.876 1463.524 1464.475 1464.763 1465.034 1465.612 1465.856 1466.159 1466.381 1466.819 1466.887 1467.004 1466.993 1466.847 1466.975 1466.588 1466.398 1466.177 1466 1465.665 1465.442 1465.289 1464.96 1464.693 1464.402 1464.244 1464.137 1463.982 1463.832 1463.494 1463.272 1463.111 1462.96 1462.851 1462.69 1462.552 1462.365 1462.271 1462.119 1462.027 1461.946 1461.865 1461.764 1461.685 1461.68 1461.579 
1478.113 1478.258 1478.586 1478.811 1479.05 1479.348 1479.845 1480.155 1480.462 1480.89 1481.047 1481.188 1481.269 1481.248 1481.322 1481.319 1481.212 1480.784 1479.674 1474.616 1469.734 1465.288 1462.072 1461.572 1460.961 1460.456 1459.701 1459.42 1459.289 1459.149 1459.238 1459.427 1459.818 1460.163 1460.632 1461.118 1462.529 1463.365 1464.063 1465.006 1465.343 1465.586 1466.216 1466.45 1466.739 1466.978 1467.154 1467.245 1467.164 1466.993 1466.847 1466.891 1466.804 1466.303 1466.127 1465.825 1465.443 1465.211 1464.979 1464.579 1464.337 1464.279 1464.209 1464.038 1463.868 1463.642 1463.316 1463.178 1463.097 1462.841 1462.774 1462.681 1462.519 1462.424 1462.284 1462.255 1462.087 1461.97 1461.956 1461.939 1461.923 1461.913 1461.888 
1478.548 1478.769 1479.165 1479.425 1479.568 1479.783 1480.373 1480.665 1480.896 1481.268 1481.377 1481.6 1481.561 1481.533 1481.609 1481.565 1481.28 1480.764 1479.522 1474.347 1469.816 1465.88 1462.448 1461.875 1461.325 1460.854 1460.126 1459.915 1459.882 1459.716 1459.789 1459.943 1460.384 1460.654 1461.063 1461.545 1462.91 1463.736 1464.392 1465.501 1465.84 1466.142 1466.434 1466.966 1467.132 1467.319 1467.481 1467.446 1467.451 1467.251 1467.088 1466.891 1466.804 1466.089 1465.764 1465.534 1465.032 1464.864 1464.579 1464.315 1464.251 1464.188 1464.192 1463.816 1463.656 1463.43 1463.142 1463.069 1462.995 1462.838 1462.761 1462.685 1462.605 1462.343 1462.286 1462.284 1462.177 1462.036 1462.049 1462.132 1462.132 1462.185 1462.225 
1478.859 1479.088 1479.646 1479.868 1480.08 1480.221 1480.878 1481.089 1481.312 1481.73 1481.85 1481.932 1481.969 1481.916 1481.916 1481.776 1481.333 1480.733 1479.407 1474.656 1470.436 1466.478 1462.667 1462.118 1461.602 1461.113 1460.502 1460.319 1460.325 1460.203 1460.243 1460.405 1460.579 1461.085 1461.364 1461.85 1463.209 1464.003 1464.643 1465.852 1466.215 1466.54 1466.901 1467.48 1467.569 1467.626 1467.717 1467.665 1467.621 1467.388 1467.22 1466.897 1466.621 1466.089 1465.1 1464.787 1464.509 1464.401 1464.354 1464.218 1464.176 1464.164 1464.013 1463.669 1463.466 1463.393 1463.183 1463.154 1462.998 1462.834 1462.756 1462.678 1462.602 1462.432 1462.367 1462.36 1462.362 1462.317 1462.238 1462.315 1462.436 1462.563 1462.759 
1479.282 1479.505 1479.95 1480.21 1480.506 1480.735 1481.216 1481.509 1481.733 1482.154 1482.269 1482.335 1482.413 1482.294 1482.219 1482.14 1481.446 1480.624 1479.642 1475.806 1471.694 1467.156 1464.277 1462.184 1461.645 1461.345 1460.877 1460.727 1460.674 1460.578 1460.644 1460.752 1460.944 1461.446 1461.732 1462.172 1463.535 1464.229 1464.922 1466.11 1466.554 1467.004 1467.42 1467.865 1468.062 1468.144 1467.937 1467.997 1467.844 1467.498 1467.209 1466.821 1466.385 1465.541 1465.1 1464.787 1464.184 1464.171 1464.161 1464.121 1464.039 1463.943 1463.722 1463.393 1463.28 1463.277 1463.138 1463.084 1463.083 1462.933 1462.855 1462.775 1462.696 1462.525 1462.476 1462.552 1462.452 1462.472 1462.527 1462.507 1462.91 1463.224 1463.401 
1479.59 1479.818 1480.114 1480.708 1480.927 1481.149 1481.709 1481.929 1482.15 1482.499 1482.71 1482.848 1482.933 1482.722 1482.712 1482.59 1481.524 1480.944 1480.011 1477.225 1473.569 1468.389 1464.77 1462.269 1461.778 1461.489 1461.215 1461.08 1460.996 1460.889 1461 1461.131 1461.253 1461.778 1462.108 1462.56 1463.786 1464.374 1465.071 1466.436 1466.943 1467.432 1467.799 1468.348 1468.496 1468.539 1468.4 1468.4 1468.289 1467.554 1467.121 1466.45 1465.783 1464.78 1464.496 1464.252 1464.184 1464.171 1464.054 1463.951 1463.826 1463.74 1463.612 1463.387 1463.36 1463.207 1463.266 1463.143 1462.997 1462.984 1462.883 1462.877 1462.801 1462.707 1462.76 1462.686 1462.647 1462.762 1462.758 1462.863 1463.515 1463.986 1464.077 
1479.908 1480.142 1480.429 1481.047 1481.35 1481.656 1482.119 1482.343 1482.569 1482.978 1483.119 1483.268 1483.429 1483.241 1483.192 1482.824 1482.005 1481.346 1480.547 1478.231 1475.153 1469.692 1465.15 1462.375 1461.967 1461.657 1461.423 1461.216 1461.143 1461.31 1461.371 1461.419 1461.526 1462.031 1462.364 1462.81 1464.032 1464.582 1465.272 1466.714 1467.319 1467.835 1468.346 1468.837 1469.004 1469.028 1468.884 1468.656 1468.466 1468.104 1466.798 1465.986 1465.076 1464.126 1464.145 1464.156 1464.168 1464.131 1464.054 1464.043 1463.709 1463.587 1463.594 1463.461 1463.379 1463.314 1463.24 1463.191 1463.192 1463.119 1462.953 1462.885 1462.882 1462.885 1462.865 1462.784 1462.757 1462.803 1462.957 1463.178 1463.855 1464.291 1464.435 
1480.254 1480.547 1480.774 1481.44 1481.668 1481.967 1482.496 1482.675 1482.979 1483.383 1483.589 1483.875 1483.964 1483.899 1483.692 1483.373 1482.815 1482.104 1481.233 1478.803 1475.924 1470.958 1465.864 1462.612 1462.252 1461.959 1461.537 1461.394 1461.386 1461.547 1461.563 1461.628 1461.761 1462.2 1462.51 1463.065 1464.343 1464.993 1465.719 1466.355 1467.773 1468.416 1468.96 1469.485 1469.599 1469.64 1469.323 1469.009 1468.7 1468.217 1466.54 1465.147 1464.23 1464.154 1464.123 1464.063 1464.014 1463.925 1463.85 1463.792 1463.709 1463.707 1463.683 1463.552 1463.504 1463.494 1463.294 1463.31 1463.303 1463.229 1463.171 1463.098 1463.091 1463.045 1462.979 1462.978 1463.007 1463.119 1463.261 1463.337 1463.95 1464.326 1464.537 
1480.562 1480.862 1481.17 1481.775 1482.085 1482.38 1482.844 1483.1 1483.395 1483.907 1484.196 1484.405 1484.558 1484.694 1484.605 1484.283 1483.628 1482.834 1482.109 1479.287 1476.528 1472.151 1467.087 1462.921 1462.539 1462.1 1461.759 1461.71 1461.718 1461.654 1461.725 1461.763 1462.035 1462.411 1462.774 1463.391 1464.631 1465.439 1466.187 1466.875 1468.427 1469.093 1469.671 1470.276 1470.405 1470.387 1469.906 1469.438 1469.038 1468.396 1466.114 1464.345 1464.145 1464.03 1463.96 1463.95 1463.939 1463.85 1463.807 1463.882 1463.688 1463.707 1463.683 1463.612 1463.602 1463.544 1463.601 1463.562 1463.634 1463.636 1463.517 1463.503 1463.419 1463.252 1463.164 1463.092 1463.173 1463.221 1463.383 1463.528 1464.045 1464.261 1464.699 
1480.562 1480.862 1481.479 1482.095 1482.379 1482.6 1483.214 1483.498 1483.72 1483.933 1484.61 1484.838 1485.14 1485.519 1485.48 1485.378 1484.608 1483.963 1482.949 1481.932 1477.547 1473.918 1468.607 1463.158 1462.646 1462.343 1462.046 1461.9 1461.787 1461.893 1461.819 1462.02 1462.146 1462.643 1463.02 1463.636 1464.996 1465.86 1466.717 1467.526 1469.235 1469.939 1470.552 1471.254 1471.466 1471.438 1470.63 1470.003 1469.467 1468.67 1466.198 1464.685 1464.211 1464.047 1463.96 1463.882 1463.927 1463.885 1463.889 1463.871 1463.787 1463.765 1463.634 1463.612 1463.602 1463.948 1464.051 1464.059 1464.028 1463.944 1463.896 1463.805 1463.723 1463.609 1463.587 1463.499 1463.405 1463.481 1463.491 1463.635 1464.038 1464.276 1464.803 
1480.872 1481.177 1481.479 1482.408 1482.697 1482.934 1483.519 1483.827 1484.119 1484.351 1485.042 1485.362 1485.745 1486.324 1486.643 1486.618 1485.85 1485.095 1484.018 1482.526 1478.694 1475.768 1470.716 1463.884 1463.062 1462.653 1462.162 1461.95 1461.942 1461.97 1462.03 1462.092 1462.278 1462.877 1463.295 1463.916 1465.6 1466.59 1467.483 1468.35 1470.204 1470.927 1471.525 1472.31 1472.468 1472.438 1471.556 1470.945 1470.104 1469.082 1466.453 1464.857 1464.22 1464.04 1463.965 1463.918 1463.893 1463.886 1463.874 1463.811 1463.811 1463.83 1463.838 1463.785 1463.864 1463.948 1464.444 1464.638 1464.513 1464.396 1464.273 1464.157 1464.068 1463.986 1463.887 1463.81 1463.727 1463.638 1463.792 1463.869 1464.085 1464.31 1464.989 
1481.188 1481.492 1481.812 1482.408 1482.697 1483.335 1483.834 1484.119 1484.354 1484.653 1485.279 1485.676 1486.134 1487.064 1487.577 1488.095 1487.126 1486.113 1485.245 1484.134 1479.938 1477.069 1472.835 1464.925 1463.411 1462.954 1462.241 1462.042 1462.062 1462.07 1462.103 1462.247 1462.463 1463.208 1463.683 1464.298 1466.341 1467.393 1468.405 1469.466 1471.376 1472.095 1472.748 1473.57 1473.668 1473.579 1473.22 1471.777 1470.928 1469.742 1466.786 1465.222 1464.351 1464.069 1464.017 1464.023 1463.998 1463.932 1463.93 1463.951 1463.964 1464.015 1464.032 1464.21 1464.29 1464.394 1464.444 1464.638 1466.405 1466.14 1465.527 1465.205 1465.014 1464.521 1464.277 1464.249 1464.073 1463.893 1463.887 1463.883 1464.062 1464.385 1465.374 
1481.513 1481.839 1482.189 1482.711 1483.029 1483.335 1483.834 1484.451 1484.74 1485.043 1485.65 1485.982 1486.43 1487.498 1488.055 1488.577 1488.144 1487.205 1486.588 1485.706 1481.602 1478.757 1475.388 1466.157 1463.741 1463.064 1462.345 1462.15 1462.16 1462.079 1462.378 1462.543 1462.897 1463.634 1464.117 1464.94 1465.979 1468.243 1469.427 1470.627 1472.658 1473.423 1474.053 1474.826 1475.002 1474.909 1474.311 1472.58 1471.548 1470.315 1467.395 1465.914 1464.89 1464.078 1464.067 1464.054 1463.989 1464.159 1464.241 1464.39 1464.587 1464.636 1464.735 1465.2 1465.595 1465.934 1466.318 1466.547 1466.405 1466.14 1467.707 1467.278 1466.894 1466.117 1465.72 1465.33 1464.755 1464.184 1464.106 1464.099 1464.186 1464.72 1466.08 
1481.87 1482.196 1482.45 1483.05 1483.337 1483.623 1484.149 1484.451 1484.74 1485.128 1485.775 1486.159 1486.536 1487.485 1488.01 1488.461 1488.901 1488.88 1488.7 1487.754 1484.479 1481.618 1477.949 1468 1464.576 1463.291 1462.546 1462.246 1462.187 1462.239 1462.724 1463.146 1463.513 1464.218 1464.877 1465.744 1466.849 1469.284 1470.567 1471.843 1473.984 1474.684 1475.233 1475.781 1475.808 1475.652 1475.011 1473.219 1472.115 1470.971 1468.52 1467.192 1465.916 1464.668 1464.64 1464.74 1464.826 1465.176 1465.473 1465.8 1466.505 1466.743 1467.03 1467.703 1468.109 1468.543 1468.832 1468.922 1468.756 1468.479 1467.707 1467.278 1469.293 1468.112 1467.545 1466.922 1466.356 1465.095 1464.67 1464.568 1465.642 1466.574 1467.102 
1482.213 1482.463 1482.833 1483.419 1483.63 1483.853 1484.138 1484.701 1484.847 1485.128 1485.832 1486.15 1486.536 1487.449 1487.907 1488.351 1488.679 1489.288 1489.419 1489.393 1488.491 1485.871 1480.375 1469.945 1465.496 1462.852 1462.266 1462.18 1462.181 1462.245 1463.194 1463.687 1464.115 1465.216 1465.919 1466.843 1467.895 1470.369 1471.731 1473.027 1475.256 1476.008 1476.395 1476.738 1476.663 1476.47 1475.947 1474.146 1473.038 1471.869 1469.969 1469.06 1467.985 1466.763 1466.695 1466.962 1467.145 1467.681 1468.081 1468.437 1469.188 1469.582 1470.059 1471.029 1471.486 1471.863 1472.124 1472.229 1471.992 1471.619 1470.593 1469.995 1469.293 1471.446 1469.709 1468.769 1468.084 1466.978 1466.509 1466.27 1467.628 1467.987 1468.162 
1482.563 1482.891 1483.181 1483.723 1483.945 1484.173 1484.393 1484.884 1485.037 1485.254 1485.832 1486.15 1486.548 1487.403 1487.769 1488.155 1488.557 1489.182 1489.406 1489.578 1490.068 1488.074 1481.77 1470.86 1466.009 1463.001 1462.194 1462.186 1462.19 1462.33 1463.739 1464.384 1465.029 1466.341 1466.97 1467.925 1469.038 1471.534 1472.912 1474.207 1476.447 1477.057 1477.458 1477.886 1477.844 1477.464 1476.895 1474.984 1473.619 1472.832 1471.688 1471.148 1470.689 1470.196 1470.126 1470.084 1470.249 1470.792 1471.244 1471.651 1472.519 1472.983 1473.468 1474.08 1475.174 1475.465 1475.664 1475.584 1475.38 1474.971 1473.852 1473.041 1472.213 1471.446 1469.709 1471.336 1470.518 1469.5 1469.135 1468.964 1469.19 1469.265 1469.281 
1482.906 1483.279 1483.636 1484.039 1484.286 1484.489 1484.7 1485 1485.161 1485.369 1485.85 1486.175 1486.548 1487.403 1487.574 1487.976 1488.445 1489.112 1489.42 1489.667 1489.16 1486.054 1481.312 1471.135 1466.297 1463.159 1462.238 1462.185 1462.182 1462.259 1463.581 1464.574 1465.641 1467.262 1467.979 1468.924 1470.043 1472.512 1473.839 1475.134 1477.246 1477.953 1478.43 1478.62 1478.601 1478.146 1477.505 1475.423 1474.175 1473.687 1473.437 1473.304 1473.022 1472.97 1473.236 1473.228 1473.557 1474.135 1474.536 1475.084 1475.904 1476.262 1476.743 1477.372 1478.356 1478.603 1478.779 1478.621 1478.334 1477.978 1476.785 1475.907 1475.01 1474.109 1472.211 1471.336 1470.518 1471.69 1471.316 1471.055 1470.677 1470.489 1470.233 
1483.346 1483.704 1484.11 1484.419 1484.662 1484.802 1484.923 1485.159 1485.315 1485.464 1485.924 1486.246 1486.566 1487.242 1487.574 1487.976 1488.354 1489.058 1489.42 1489.659 1488.369 1484.914 1480.838 1471.302 1466.525 1463.397 1462.292 1462.186 1462.171 1462.174 1463.275 1464.089 1464.867 1466.336 1468.355 1469.436 1470.706 1473.268 1474.524 1475.822 1477.837 1478.645 1479.136 1479.426 1479.258 1478.777 1477.919 1475.732 1474.912 1474.665 1474.942 1474.999 1474.923 1475.001 1475.416 1475.823 1476.434 1477.242 1477.687 1478.318 1479.199 1479.596 1480.085 1480.637 1481.559 1481.771 1481.89 1481.705 1481.462 1481 1479.472 1478.515 1477.499 1476.512 1474.529 1473.62 1472.842 1471.69 1471.316 1472.724 1472.059 1471.687 1471.442 
1484.024 1484.4 1484.61 1484.864 1484.976 1485.073 1485.152 1485.201 1485.358 1485.467 1485.836 1486.145 1486.499 1487.071 1487.48 1487.891 1488.354 1489.023 1489.3 1489.467 1488.032 1484.456 1480.569 1476.362 1466.525 1463.359 1462.284 1462.185 1462.185 1462.188 1462.766 1463.452 1464.141 1465.551 1468.296 1469.795 1471.163 1473.845 1475.06 1476.295 1478.405 1479.102 1479.668 1480.119 1480.147 1479.619 1478.734 1476.284 1475.792 1475.763 1476.397 1476.717 1477.014 1477.36 1478.1 1478.73 1479.473 1480.611 1481.181 1481.793 1482.957 1483.434 1483.826 1484.224 1484.838 1484.98 1485.103 1485.087 1484.78 1484.221 1482.391 1481.276 1480.005 1478.828 1476.458 1475.572 1474.825 1473.502 1473.086 1472.724 1473.542 1472.689 1472.433 
1484.841 1485.169 1485.327 1485.383 1485.341 1485.309 1485.323 1485.397 1485.487 1485.493 1485.854 1485.996 1486.204 1486.524 1487.315 1487.775 1488.241 1489.023 1489.3 1489.391 1488.251 1484.795 1480.77 1476.524 1466.955 1463.601 1462.322 1462.185 1462.185 1462.19 1462.575 1463.054 1463.817 1465.066 1468.407 1470.065 1471.588 1474.339 1475.596 1476.737 1478.77 1479.56 1480.28 1480.822 1480.99 1480.789 1480.079 1477.896 1477.555 1477.685 1478.664 1479.261 1479.905 1480.432 1481.594 1482.285 1483.063 1484.475 1485.092 1485.708 1486.755 1487.234 1487.757 1487.958 1488.184 1488.307 1488.401 1488.44 1488.091 1487.49 1486.71 1484.28 1482.788 1481.362 1478.519 1477.26 1476.236 1474.896 1474.516 1473.966 1473.542 1472.689 1473.203 
1485.78 1486.03 1486.207 1486.129 1485.696 1485.573 1485.491 1485.411 1485.457 1485.485 1485.718 1485.895 1486.082 1486.433 1487.186 1487.595 1488.038 1488.866 1489.204 1489.391 1488.251 1485.703 1481.498 1477.343 1467.633 1463.942 1462.345 1462.19 1462.185 1462.185 1462.408 1462.99 1463.843 1465.177 1468.571 1470.314 1471.917 1474.783 1476.056 1477.262 1479.33 1480.17 1480.903 1481.574 1482.215 1482.229 1481.944 1481.155 1481.087 1481.215 1481.531 1482.758 1483.493 1484.185 1485.609 1486.325 1487.079 1488.357 1489 1489.594 1490.094 1490.903 1491.412 1491.543 1491.608 1491.621 1491.599 1491.359 1491 1490.417 1489.698 1487.215 1485.595 1483.98 1480.661 1479.193 1477.848 1475.817 1475.256 1474.798 1474.403 1473.625 1473.203 
1486.891 1487.115 1487.083 1486.807 1486.082 1485.762 1485.584 1485.327 1485.365 1485.45 1485.551 1485.781 1486.004 1486.303 1487 1487.45 1487.85 1488.754 1489.107 1489.389 1488.669 1485.703 1481.498 1478.165 1469.142 1465.451 1462.972 1462.184 1462.185 1462.185 1462.356 1462.984 1464.079 1465.514 1468.947 1470.779 1472.455 1475.256 1476.599 1477.801 1478.883 1480.875 1481.81 1482.567 1483.544 1483.81 1483.955 1484.33 1484.45 1484.615 1485.09 1486.578 1487.283 1487.953 1489.29 1489.97 1490.686 1492.048 1492.74 1493.388 1493.984 1494.793 1495.082 1495.216 1495.139 1494.92 1494.739 1493.982 1493.438 1492.827 1491.954 1489.727 1488.238 1486.677 1483.117 1481.326 1479.689 1476.962 1476.055 1475.461 1475.047 1474.276 1473.877 
1487.844 1488.03 1487.993 1487.799 1486.351 1485.896 1485.536 1485.211 1485.216 1485.264 1485.401 1485.555 1485.713 1485.982 1486.78 1487.172 1487.642 1488.549 1488.956 1489.355 1489.139 1486.755 1482.461 1478.165 1470.617 1466.702 1463.964 1462.166 1462.185 1462.178 1462.152 1463.31 1464.346 1465.93 1469.476 1471.227 1472.902 1475.864 1477.153 1478.436 1479.589 1481.757 1482.855 1483.69 1485.014 1485.533 1485.857 1486.349 1486.821 1487.399 1487.947 1489.619 1490.394 1491.089 1492.512 1493.304 1494.14 1495.743 1496.59 1497.427 1498.222 1498.903 1499.134 1499.164 1498.77 1498.153 1497.723 1496.583 1495.862 1495.063 1494.105 1491.739 1490.471 1489.125 1485.686 1483.679 1481.777 1478.434 1477.112 1476.127 1475.572 1474.752 1474.355 
1488.616 1488.705 1488.73 1488.537 1486.454 1485.887 1485.501 1485.021 1484.946 1484.953 1485.031 1485.295 1485.485 1485.695 1486.577 1486.988 1487.423 1488.372 1488.851 1489.246 1489.488 1487.834 1483.566 1479.424 1470.617 1466.702 1465.14 1462.078 1462.185 1462.189 1462.311 1463.713 1464.912 1466.501 1470.076 1471.871 1473.47 1476.569 1477.901 1479.19 1480.476 1482.996 1484.008 1484.838 1486.179 1486.749 1487.236 1488.233 1488.928 1489.738 1490.577 1492.302 1493.122 1494.039 1495.755 1496.622 1497.51 1499.257 1500.174 1501.05 1501.731 1502.416 1502.546 1502.475 1501.784 1501.046 1500.485 1499.157 1498.223 1497.175 1496.127 1493.723 1492.342 1490.999 1488.079 1486.13 1483.99 1481.987 1478.479 1477.146 1476.238 1475.22 1474.728 
1488.581 1488.417 1488.346 1488.17 1486.351 1485.662 1485.29 1484.68 1484.585 1484.603 1484.647 1484.842 1485.1 1485.396 1486.265 1486.727 1487.13 1488.112 1488.669 1489.121 1489.465 1488.562 1484.714 1480.275 1471.913 1468.128 1465.14 1462.078 1462.175 1462.196 1462.398 1464.141 1465.557 1467.164 1470.619 1472.461 1474.214 1477.367 1478.783 1480.161 1481.603 1484.16 1485.16 1485.986 1487.401 1487.997 1488.728 1490.447 1491.316 1492.184 1493.059 1495.054 1495.994 1496.953 1498.902 1499.878 1500.747 1502.552 1503.385 1504.199 1504.855 1505.441 1505.463 1505.305 1504.318 1503.72 1503.074 1502.422 1500.458 1499.295 1498.117 1495.637 1494.201 1492.762 1489.905 1488.269 1486.25 1484.095 1480.082 1478.472 1477.121 1475.666 1475.11 
1487.837 1487.376 1487.212 1487.048 1485.893 1485.296 1484.87 1484.234 1484.176 1484.146 1484.14 1484.324 1484.593 1484.953 1485.792 1486.245 1486.746 1487.818 1488.429 1488.922 1489.291 1488.885 1485.641 1480.99 1472.776 1469.275 1466.383 1462.575 1462.175 1462.196 1462.515 1464.417 1465.994 1467.7 1471.295 1473.13 1474.873 1478.17 1479.821 1481.346 1482.868 1485.494 1486.431 1487.325 1488.929 1489.91 1490.859 1491.81 1493.851 1494.872 1495.892 1497.906 1498.835 1499.858 1501.823 1502.863 1503.865 1504.889 1506.649 1507.426 1508.044 1508.513 1508.404 1508.172 1507.008 1506.259 1505.446 1504.663 1502.561 1501.373 1500.125 1497.373 1495.966 1494.486 1491.412 1489.864 1488.131 1486.104 1481.819 1479.905 1478.412 1476.142 1475.49 
1487.311 1486.526 1486.166 1485.905 1485.135 1484.708 1484.298 1483.735 1483.657 1483.589 1483.578 1483.821 1484.044 1484.384 1485.236 1485.684 1486.234 1487.369 1488.021 1488.668 1489.187 1489.217 1486.464 1481.373 1473.274 1470.126 1467.306 1463.005 1462.081 1462.18 1462.515 1464.637 1466.364 1468.222 1472.014 1473.9 1475.661 1477.426 1481.017 1482.845 1484.453 1486.846 1487.804 1488.779 1490.969 1492.029 1493.144 1494.247 1496.59 1497.682 1498.722 1500.771 1501.543 1502.577 1504.776 1505.871 1506.973 1508.084 1510.038 1510.878 1511.426 1511.833 1511.558 1511.11 1509.63 1508.709 1507.801 1506.799 1504.5 1503.273 1501.992 1499.086 1497.555 1496.04 1492.823 1491.259 1489.63 1487.924 1483.569 1481.423 1479.668 1476.769 1475.855 
