NCOLS 88
NROWS 114
XLLCORNER 772875.31
YLLCORNER 3877126.5
CELLSIZE 10
NODATA_VALUE -9999
1415.749 1419.276 1423.017 1425.909 1430.162 1430.483 1429.6 1428.111 1426.055 1421.564 1422.793 1419.61 1414.855 1408.026 1400.264 1386.646 1380.977 1375.991 1371.683 1367.799 1359.75 1355.516 1350.744 1345.448 1339.831 1334.116 1323.484 1317.882 1310.958 1303.548 1296.653 1285.354 1281.278 1277.639 1273.288 1268.009 1262.169 1249.996 1246.268 1247.287 1251.787 1256.784 1265.48 1270.234 1277.861 1283.811 1289.855 1300.457 1305.236 1307.945 1309.044 1309.227 1308.853 1307.378 1306.146 1305.248 1304.637 1304.027 1301.97 1300.484 1298.873 1296.984 1295.081 1292.763 1284.824 1280.906 1277.446 1273.725 1269.957 1262.787 1258.473 1253.809 1249.127 1244.773 1240.912 1237.355 1240.594 1245.745 1257.183 1260.224 1263.248 1264.755 1265.183 1264.959 1263.563 1261.579 1255.389 1251.457 
1414.528 1418.687 1423.473 1427.617 1434.724 1436.131 1435.689 1433.875 1431.162 1425.71 1422.793 1421.861 1417.703 1411.947 1404.695 1391.049 1385.274 1380.418 1375.95 1371.656 1363.281 1358.797 1354.231 1348.666 1342.524 1336.858 1325.373 1319.108 1311.995 1305.107 1299.207 1290.766 1287.618 1283.911 1279.546 1273.689 1266.193 1253.497 1251.012 1251.572 1254.64 1258.917 1267.371 1272.346 1277.861 1285.482 1291.36 1296.836 1306.288 1309.375 1311.216 1312.126 1312.584 1312.385 1311.931 1311.453 1310.967 1310.37 1309.429 1306.448 1304.838 1302.811 1300.605 1298.267 1292.268 1287.544 1282.583 1278.453 1274.974 1271.481 1263.817 1259.585 1254.932 1250.398 1246.552 1244.315 1247.682 1252.646 1257.183 1266.904 1268.189 1270.555 1271.033 1270.71 1269.629 1268.371 1261.853 1256.691 
1412.971 1417.672 1423.644 1429.078 1438.172 1440.911 1440.98 1438.914 1435.587 1428.8 1425.531 1421.861 1419.246 1414.244 1408.048 1394.589 1388.689 1383.737 1379.059 1374.457 1365.568 1360.824 1356.342 1350.715 1344.366 1338.277 1325.972 1319.265 1313.5 1308.555 1304.447 1297.554 1294.493 1290.609 1285.047 1277.744 1269.997 1258.671 1255.489 1254.47 1256.627 1261.083 1269.947 1274.886 1279.88 1285.482 1292.881 1298.189 1307.084 1310.476 1313.055 1314.845 1316.043 1317.568 1317.927 1317.799 1317.417 1316.558 1315.126 1311.802 1309.933 1307.871 1305.634 1303.278 1298.001 1294.191 1289.144 1283.985 1279.755 1276.232 1268.695 1264.696 1260.482 1256.215 1252.065 1250.09 1253.913 1258.872 1263.829 1266.904 1274.835 1276.35 1276.375 1276.039 1274.763 1273.285 1267.901 1263.377 
1411.244 1415.887 1422.712 1429.388 1439.053 1442.154 1442.887 1441.518 1438.408 1434.446 1427.273 1423.323 1419.246 1415.282 1409.832 1397.193 1391.188 1386.053 1381.361 1376.543 1371.456 1361.873 1357.315 1351.612 1344.936 1338.024 1326.151 1320.544 1316.438 1313.613 1310.967 1308.024 1299.497 1294.799 1288.579 1281.466 1275.285 1266.295 1261.495 1258.458 1259.737 1263.943 1268.464 1278.239 1282.909 1287.708 1292.881 1300.383 1308.529 1312.102 1314.835 1317.163 1319.283 1321.075 1323.575 1324.068 1324.066 1323.162 1321.317 1316.777 1314.803 1312.876 1310.746 1308.523 1306.156 1299.296 1295.282 1290.492 1285.448 1281.074 1273.576 1269.654 1265.885 1262.558 1259.115 1256.147 1259.005 1264.945 1270.975 1273.579 1274.835 1282.451 1282.06 1281.345 1280.001 1278.229 1275.549 1269.344 
1409.422 1413.318 1420.427 1428.366 1437.269 1440.563 1442.528 1442.073 1439.342 1435.616 1428.069 1424.171 1420.014 1415.282 1410.523 1399.177 1393.354 1388.118 1383.404 1378.384 1372.5 1361.87 1357.145 1350.866 1343.556 1336.01 1326.421 1324.318 1322.131 1320.032 1317.477 1313.301 1302.353 1297.263 1291.698 1286.029 1280.921 1272.057 1267.385 1263.591 1263.696 1267.195 1271.888 1282.301 1286.872 1291.126 1295.642 1300.383 1311.155 1314.364 1317.237 1320.36 1323.322 1325.648 1329.595 1330.719 1331.108 1330.469 1328.586 1323.084 1320.401 1318.037 1315.839 1313.421 1310.72 1304.056 1300.347 1296.391 1291.772 1286.843 1278.499 1274.885 1271.818 1269.46 1266.985 1264.458 1266.573 1272.658 1278.002 1280.041 1280.958 1282.451 1288.062 1286.342 1284.607 1282.524 1279.702 1274.261 
1406.893 1411 1417.86 1425.637 1430.857 1438.311 1440.916 1441.19 1439.187 1435.855 1428.242 1424.288 1420.145 1415.559 1410.523 1405.663 1394.806 1389.431 1384.281 1378.931 1372.891 1361.601 1356.557 1349.629 1342.092 1335.034 1329.124 1329.613 1330.098 1328.004 1323.665 1318.024 1304.738 1300.347 1296.271 1291.801 1286.903 1277.122 1272.035 1267.599 1266.743 1270.139 1275.765 1286.355 1290.923 1295.635 1300.339 1304.257 1311.155 1317.454 1321.42 1325.243 1328.219 1330.59 1334.715 1335.764 1336.065 1335.595 1334.337 1329.964 1327.03 1324.019 1321.166 1318.399 1315.597 1308.913 1305.206 1301.463 1297.533 1293.121 1284.046 1280.631 1278.19 1276.526 1275.238 1274.13 1276.165 1280.891 1284.659 1286.519 1287.463 1288.938 1288.062 1293.853 1290.116 1286.922 1284.251 1277.802 
1404.348 1408.948 1414.64 1421.695 1428.208 1435.377 1437.927 1438.987 1438.06 1435.317 1428.204 1424.224 1419.911 1415.318 1410.57 1405.663 1395.372 1389.969 1384.51 1378.818 1372.832 1361.246 1355.288 1347.954 1341.895 1338.669 1337.494 1337.989 1336.423 1333.369 1327.921 1320.657 1308.75 1304.533 1300.595 1296.645 1292.225 1287.068 1276.524 1271.892 1270.783 1274.046 1279.6 1290.601 1295.754 1301.102 1305.583 1308.807 1311.534 1317.454 1327.939 1331.298 1333.84 1336.163 1340.132 1341.057 1341.288 1340.881 1339.97 1338.438 1333.003 1329.804 1326.729 1323.786 1320.741 1313.878 1310.251 1306.472 1302.875 1299.175 1295.38 1288.565 1285.442 1283.689 1282.928 1282.504 1284.756 1288.186 1291.032 1292.767 1293.851 1295.265 1296.342 1293.853 1298.381 1293.542 1289.59 1285.599 
1402.373 1407.038 1412.027 1418.114 1424.546 1432.034 1434.631 1436.316 1436.378 1434.474 1428.209 1424.331 1419.62 1414.828 1410.37 1405.868 1395.791 1390.483 1384.669 1378.717 1372.921 1361.223 1355.346 1349.826 1346.135 1345.284 1346.107 1345.278 1342.475 1337.432 1330.967 1323.546 1312.598 1308.543 1304.252 1300.146 1295.964 1291.08 1281.276 1277.853 1276.026 1277.922 1283.028 1294.886 1301.353 1306.496 1310.189 1313.02 1315.733 1323.523 1327.939 1337.148 1339.682 1342.063 1346.052 1347.023 1347.238 1346.75 1345.874 1344.452 1339.092 1335.959 1332.512 1329.141 1326 1319.063 1315.478 1312.083 1309.002 1306.326 1303.699 1297.339 1294.763 1292.253 1290.405 1289.613 1291.834 1294.959 1297.821 1299.724 1300.502 1302.054 1303.608 1301.983 1298.381 1301.284 1297.58 1294.774 
1400.755 1405.239 1410.079 1415.348 1420.719 1428.857 1431.849 1434.009 1434.832 1433.874 1431.535 1425.27 1420.153 1414.966 1410.362 1405.792 1395.791 1391.088 1385.02 1378.925 1373.365 1368.029 1358.079 1355.227 1354.567 1354.936 1354.771 1349.969 1345.022 1339.262 1332.979 1326.706 1321.231 1312.416 1307.896 1303.513 1298.826 1293.849 1285.533 1281.955 1279.629 1281.214 1286.341 1292.635 1305.966 1310.617 1314.257 1317.696 1321.54 1331.126 1334.517 1337.148 1345.612 1348.14 1350.286 1353.265 1353.498 1352.997 1351.731 1349.915 1345.369 1342.591 1339.368 1335.801 1332.157 1328.519 1321.38 1318.151 1315.413 1312.963 1310.509 1304.234 1301.551 1299.325 1297.495 1296.377 1296.165 1301.284 1304.599 1306.854 1307.45 1308.527 1308.578 1307.586 1305.079 1301.284 1306.21 1303.239 
1399.176 1403.53 1407.996 1412.381 1416.735 1425.558 1428.914 1431.513 1433.296 1433.673 1432.429 1427.133 1421.765 1416.022 1410.849 1405.882 1396.167 1391.088 1386.436 1380.49 1375.319 1370.733 1364.444 1363.109 1362.521 1362.177 1361.002 1353.83 1347.581 1341.421 1335.429 1329.858 1325.184 1316.801 1311.8 1306.783 1301.93 1297.302 1289.979 1286.578 1284.299 1285.132 1289.37 1295.953 1309.507 1314.555 1318.717 1322.832 1327.657 1336.863 1340.063 1342.862 1345.612 1354.139 1356.104 1358.62 1358.753 1358.319 1357.296 1355.763 1351.783 1349.348 1346.539 1343.39 1339.926 1336.053 1328.953 1325.715 1322.444 1319.147 1316.047 1309.89 1306.952 1304.778 1303.485 1302.827 1302.801 1307.631 1310.586 1313.092 1313.844 1314.85 1315.46 1314.411 1312.342 1309.729 1306.21 1313.658 
1397.611 1401.837 1405.689 1409.322 1412.755 1416.386 1425.695 1428.837 1431.097 1432.833 1433.204 1428.85 1423.916 1417.869 1411.888 1406.199 1396.752 1392.123 1386.436 1384.182 1379.613 1376.267 1372.493 1371.571 1370.527 1369.339 1366.9 1356.663 1350.41 1343.689 1337.939 1333.098 1328.543 1320.021 1314.927 1309.369 1304.442 1300.79 1294.908 1291.889 1289.694 1288.855 1291.738 1298.761 1312.502 1317.893 1322.986 1327.822 1332.71 1342.2 1345.873 1349.162 1351.903 1354.139 1361.305 1363.257 1363.338 1363.069 1362.496 1361.614 1358.558 1356.487 1354.165 1351.241 1347.969 1344.594 1337.445 1334.049 1330.554 1326.498 1322.406 1315.709 1312.797 1310.479 1309.568 1309.507 1309.792 1313.913 1315.902 1319.032 1320.246 1321.577 1324.179 1323.363 1321.928 1319.842 1316.706 1313.658 
1395.82 1399.461 1403.107 1406.61 1409.834 1413.084 1422.351 1426.344 1429.012 1431.135 1432.83 1430.489 1426.35 1420.156 1413.48 1407.192 1401.742 1394.04 1389.425 1384.182 1386.126 1383.511 1381.095 1379.364 1377.375 1374.56 1370.792 1366.019 1353.347 1346.055 1340.085 1335.572 1331.303 1321.688 1316.7 1311.669 1307.238 1304.666 1303.688 1297.968 1293.47 1290.666 1293.7 1301.71 1315.537 1321.166 1326.736 1332.345 1337.804 1342.982 1351.725 1355.054 1357.63 1359.649 1366.536 1368.235 1368.355 1368.257 1368.077 1367.891 1367.231 1363.605 1361.465 1358.845 1355.794 1352.461 1345.8 1342.097 1338.037 1333.618 1329.321 1325.502 1319.93 1318.453 1317.445 1317.788 1319.519 1320.899 1322.711 1326.338 1327.193 1328.512 1330.27 1330.804 1330.053 1328.807 1326.888 1324.082 
1393.696 1397.387 1400.797 1404.334 1407.968 1411.566 1419.818 1423.892 1427.147 1429.563 1431.459 1431.832 1428.641 1422.606 1415.672 1409.162 1403.76 1396.758 1393.161 1389.569 1386.126 1391.037 1387.061 1384.689 1382.336 1379.044 1374.447 1369.048 1356.52 1348.965 1342.244 1337.361 1333.359 1323.684 1318.545 1314.793 1312.401 1310.62 1309.246 1305.568 1300.066 1294.284 1296.017 1304.149 1317.829 1324.323 1330.332 1336.086 1341.838 1347.571 1356.593 1359.588 1362.208 1364.617 1366.536 1373.816 1374.238 1374.47 1374.451 1374.25 1373.686 1371.011 1369.03 1366.453 1363.515 1360.285 1353.481 1349.949 1345.8 1341.082 1336.272 1332.279 1327.681 1326.396 1325.68 1326.45 1328.384 1328.928 1329.675 1333.135 1333.482 1334.718 1336.036 1337.715 1336.786 1335.125 1333.479 1331.497 
1387.842 1395.814 1399.535 1403.178 1406.865 1410.485 1417.96 1421.887 1425.373 1428.012 1429.997 1431.608 1430.172 1425.383 1418.746 1412.349 1407.319 1400.239 1397.39 1394.881 1392.845 1391.037 1394.084 1388.946 1385.604 1381.94 1377.297 1371.495 1359.4 1352.515 1344.939 1339.325 1335.396 1331.059 1321.978 1318.521 1316.977 1316.287 1315.042 1310.229 1306.755 1302.675 1301.518 1305.551 1312.556 1326.833 1333.117 1338.945 1344.77 1350.562 1359.961 1363.382 1366.391 1369.141 1371.448 1372.963 1380.285 1381.015 1381.28 1381.19 1380.77 1378.938 1377.053 1374.58 1371.704 1368.319 1364.641 1357.893 1353.584 1348.509 1343.633 1339.756 1335.453 1334.273 1333.878 1335.015 1336.848 1337.306 1337.942 1340.918 1341.226 1342.284 1343.455 1344.614 1344.076 1342.145 1340.564 1339.248 
1386.68 1394.66 1398.664 1402.669 1406.141 1409.312 1416.247 1419.968 1423.465 1426.402 1428.675 1430.41 1431.57 1428.774 1423.065 1416.796 1411.847 1404.762 1402.195 1399.987 1397.958 1396.023 1394.084 1392.125 1388.66 1384.414 1379.524 1373.817 1361.91 1356.206 1348.589 1342.161 1337.97 1334.246 1327.747 1325.002 1322.797 1321.334 1320.001 1314.575 1310.695 1306.544 1303.938 1306.278 1313.305 1327.878 1334.577 1340.813 1346.757 1352.359 1362.495 1366.577 1370.08 1373.511 1376.33 1378.089 1380.285 1388.005 1388.857 1389.021 1388.58 1386.932 1385.254 1382.945 1379.575 1375.584 1371.852 1364.327 1360.283 1355.878 1350.951 1346.731 1342.816 1341.768 1341.537 1342.669 1344.698 1346.123 1346.158 1348.796 1349.227 1350.051 1351.14 1352.013 1351.867 1351.053 1349.004 1345.659 
1385.167 1392.967 1397.274 1401.505 1405.054 1408.14 1414.799 1418.258 1421.667 1424.751 1427.194 1429.102 1431.666 1430.808 1427.495 1422.321 1416.939 1410.115 1407.593 1405.035 1402.436 1399.84 1397.307 1392.125 1391.29 1386.942 1381.801 1376.155 1364.645 1359.423 1353.497 1347.127 1342.331 1339.279 1333.112 1330.516 1328.161 1326.04 1324.026 1319.074 1315.749 1311.24 1306.855 1307.756 1314.265 1328.524 1335.396 1341.661 1347.482 1352.981 1363.892 1368.681 1372.883 1376.999 1380.271 1382.42 1386.528 1388.005 1395.587 1396.177 1396.165 1395.298 1393.51 1390.648 1386.941 1382.878 1378.798 1370.371 1366.292 1362.221 1358.244 1354.861 1350.409 1348.942 1347.94 1349.295 1352.292 1354.444 1354.19 1356.229 1356.79 1357.869 1359.876 1359.589 1358.616 1357.224 1355.111 1352.228 
1383.544 1390.787 1395.213 1399.591 1403.41 1406.773 1410.031 1416.721 1420.027 1423.038 1425.682 1427.942 1431.379 1432.203 1430.598 1427.464 1423.339 1418.888 1413.622 1410.831 1407.067 1403.204 1400.119 1394.654 1391.29 1389.678 1384.546 1379.067 1373.746 1363.75 1358.543 1353.308 1348.711 1344.82 1338.255 1335.432 1332.909 1330.534 1328.236 1325.974 1320.508 1317.244 1313.977 1312.625 1315.146 1328.545 1335.62 1341.963 1347.517 1352.761 1358.475 1369.523 1374.09 1378.454 1382.26 1385.607 1391.665 1394.073 1395.587 1402.107 1402.549 1403.08 1400.955 1397.472 1393.752 1389.68 1385.005 1375.997 1372.063 1368.348 1365.423 1362.969 1360.407 1356.307 1355.927 1358.014 1360.863 1362.448 1362.948 1363.993 1364.42 1365.037 1366.277 1366.675 1364.979 1363.533 1361.214 1357.974 
1382.223 1389.631 1393.734 1397.805 1401.645 1405.212 1408.628 1415.385 1418.672 1421.691 1424.453 1426.902 1431.096 1432.948 1432.647 1430.809 1428.233 1424.974 1419.084 1416.392 1412.681 1407.755 1403.137 1397.087 1393.802 1389.678 1388.014 1382.936 1377.946 1368.747 1363.991 1359.541 1355.459 1351.467 1343.518 1340.433 1337.73 1335.387 1333.112 1330.642 1325.312 1321.866 1318.405 1315.793 1316.168 1328.2 1335.178 1341.569 1347.041 1352.161 1358.011 1369.637 1374.313 1378.747 1383.006 1387.105 1394.882 1398.739 1401.173 1402.107 1406.858 1407.241 1406.092 1403.015 1399.217 1395.257 1390.91 1381.526 1377.467 1374.446 1372.221 1370.307 1368.255 1364.112 1364.402 1366.829 1369.418 1370.471 1370.357 1370.716 1370.819 1371.423 1372.609 1372.755 1370.364 1368.908 1366.856 1364.231 
1381.048 1384.635 1392.151 1395.898 1399.78 1403.555 1407.124 1414.048 1417.327 1420.568 1423.608 1426.358 1428.834 1433.556 1434.618 1433.688 1431.535 1428.997 1423.33 1420.621 1417.464 1412.829 1407.452 1403.061 1396.453 1392.586 1388.014 1387.333 1382.7 1373.95 1369.804 1366.014 1362.21 1358.314 1354.376 1346.132 1342.74 1340.729 1339.164 1336.858 1330.904 1327.92 1324.692 1321.062 1319.39 1322.108 1334.488 1340.918 1346.45 1351.57 1357.387 1369.207 1374.048 1378.628 1383.209 1387.64 1396.923 1401.823 1404.923 1406.303 1406.858 1410.567 1410.381 1408.014 1404.454 1400.442 1396.336 1387.476 1383.067 1380.141 1378.041 1376.019 1374.113 1370.081 1371.715 1374.798 1377.258 1378.086 1377.604 1377.687 1377.44 1377.91 1378.786 1378.842 1375.598 1374.007 1372.493 1370.427 
1379.611 1382.982 1389.675 1393.629 1397.764 1401.746 1405.521 1412.704 1416.06 1419.578 1422.991 1426.001 1428.715 1434.031 1436.491 1436.636 1434.988 1432.795 1427.171 1424.23 1420.985 1417.052 1412.27 1407.224 1399.455 1395.789 1391.807 1387.333 1387.161 1379.206 1375.479 1371.971 1368.524 1364.934 1361.139 1353.396 1350.071 1347.623 1345.782 1343.828 1338.147 1334.725 1331.445 1328.414 1326.165 1325.727 1333.86 1340.272 1345.956 1351.125 1356.779 1368.641 1373.643 1378.468 1383.307 1388.111 1392.989 1402.921 1406.374 1408.693 1409.95 1410.567 1415.043 1413.409 1410.295 1406.245 1401.909 1397.587 1389.287 1386.288 1383.971 1381.748 1379.562 1377.929 1379.734 1382.594 1384.883 1385.646 1385.322 1384.114 1383.898 1384.143 1384.913 1385.914 1383.718 1380.794 1378.484 1377.815 
1377.912 1381.17 1387.964 1391.618 1395.735 1399.869 1403.777 1411.493 1415.179 1418.769 1422.314 1425.6 1428.528 1434.562 1437.135 1438.759 1438.951 1437.353 1431.29 1428.12 1424.785 1421.022 1416.652 1411.896 1402.917 1399.248 1395.65 1391.495 1387.161 1384.483 1380.819 1377.221 1373.86 1370.736 1367.484 1360.27 1357.256 1354.686 1352.486 1350.396 1345.233 1341.944 1338.446 1334.943 1331.646 1329.125 1334.27 1339.677 1345.546 1351.116 1356.507 1368.041 1373.246 1378.234 1383.26 1388.335 1393.564 1403.631 1407.221 1410.048 1412.164 1413.805 1415.043 1418.266 1416.28 1413.055 1408.811 1403.952 1395.205 1392.492 1390.192 1388 1385.927 1385.072 1387.271 1389.902 1392.056 1392.978 1392.917 1391.195 1390.846 1390.943 1391.601 1392.089 1391.685 1389.377 1385.746 1383.216 
1376.221 1379.351 1386.283 1389.68 1393.837 1398.183 1402.29 1406.432 1414.548 1418.247 1421.911 1425.403 1428.601 1434.945 1438.368 1440.499 1441.136 1440.553 1438.6 1432.142 1428.988 1425.267 1421.029 1416.809 1407.743 1403.565 1399.788 1395.739 1391.688 1388.091 1386.15 1382.439 1378.896 1375.811 1373.007 1366.923 1364.341 1361.835 1359.479 1357.446 1355.094 1348.186 1344.977 1341.827 1338.726 1336.359 1338.52 1342.245 1347.19 1352.238 1357.208 1362.458 1372.763 1377.98 1383.161 1388.376 1393.924 1404.518 1408.08 1411.117 1413.815 1416.244 1418.146 1418.266 1421.899 1419.586 1416.597 1412.338 1403.638 1400.233 1397.161 1394.694 1393.37 1393.42 1395.541 1397.265 1398.717 1399.636 1400.081 1399.392 1398.45 1398.107 1397.613 1396.988 1396.237 1391.792 1388.207 1385.464 
1374.81 1377.953 1385.04 1388.55 1392.429 1396.79 1401.227 1405.455 1413.888 1417.655 1421.412 1425.198 1428.641 1434.996 1438.204 1441.039 1442.607 1442.648 1441.443 1435.94 1432.745 1429.261 1425.375 1421.434 1413.425 1409.014 1404.803 1400.797 1396.923 1393.246 1386.15 1387.985 1384.614 1381.568 1378.838 1373.549 1371.129 1368.879 1366.525 1364.058 1361.213 1353.759 1350.397 1347.432 1345.145 1343.843 1344.353 1348.007 1352.088 1355.467 1359.025 1363.244 1373.002 1378.231 1383.319 1388.488 1394.389 1405.508 1409.25 1412.532 1415.672 1418.784 1421.308 1423.199 1421.899 1425.331 1423.046 1420.458 1413.352 1409.316 1405.643 1402.561 1400.538 1399.841 1401.609 1403.326 1404.933 1405.679 1405.932 1405.12 1403.958 1403.027 1401.462 1400.07 1398.267 1392.331 1389.159 1386.102 
1373.921 1377.305 1380.698 1387.433 1391.189 1395.584 1400.235 1404.58 1412.589 1416.441 1420.591 1424.947 1428.626 1431.475 1437.705 1440.872 1443.813 1444.914 1443.859 1439.483 1436.318 1432.907 1429.249 1425.478 1421.844 1414.715 1410.91 1406.675 1402.316 1398.377 1391.452 1393.672 1390.911 1388.107 1385.288 1379.953 1377.638 1375.42 1373.212 1370.848 1367.843 1359.39 1355.361 1352.493 1351.659 1352.137 1352.526 1355.301 1358.569 1361.472 1363.778 1365.997 1374.035 1378.903 1383.704 1388.708 1394.969 1406.484 1410.353 1413.926 1417.709 1421.643 1424.905 1427.871 1427.094 1425.331 1428.813 1426.432 1421.459 1418.96 1415.43 1411.244 1407.857 1406.12 1407.128 1408.446 1409.401 1410.014 1410.368 1410.155 1409.018 1407.574 1405.335 1402.861 1400.293 1393.378 1389.822 1386.448 
1373.131 1376.564 1379.881 1386.258 1389.845 1394.22 1399.124 1403.666 1411.212 1414.926 1419.268 1423.8 1427.593 1430.543 1436.622 1439.711 1443.212 1446.521 1447.383 1442.866 1439.964 1436.617 1433.025 1429.25 1425.603 1419.943 1417.079 1413.67 1409.202 1404.074 1396.518 1393.672 1396.476 1394.115 1391.7 1389.383 1384.877 1382.497 1380.072 1377.465 1374.113 1365.095 1360.874 1358.126 1357.606 1358.596 1359.782 1362.783 1365.891 1368.273 1369.51 1370.93 1375.742 1379.809 1384.611 1389.562 1395.987 1403.134 1411.45 1415.429 1420.047 1424.608 1428.049 1431.271 1431.308 1430.531 1428.813 1432.694 1430.073 1424.846 1422.491 1420.196 1417.501 1414.893 1412.691 1412.868 1413.37 1414.027 1414.777 1415.138 1413.37 1411.565 1408.718 1405.181 1401.51 1394.376 1390.516 1387.101 
1372.216 1375.426 1378.548 1385.155 1388.658 1392.968 1397.942 1402.62 1410.126 1413.622 1417.76 1422.047 1425.873 1429.142 1435.219 1438.214 1441.765 1445.779 1448.783 1447.318 1444.155 1440.522 1436.911 1433.302 1429.832 1424.622 1422.36 1419.984 1416.757 1412.146 1402.036 1398.873 1396.476 1399.361 1397.667 1395.994 1392.452 1390.259 1387.247 1384.005 1380.444 1370.713 1366.322 1363.951 1363.591 1364.951 1367.209 1370.883 1373.801 1375.826 1376.354 1376.37 1378.708 1382.214 1386.526 1391.645 1397.935 1404.315 1412.988 1417.711 1423.153 1427.615 1430.554 1434.692 1435.767 1435.657 1434.615 1432.694 1436.469 1430.701 1428.071 1425.657 1423.614 1421.537 1418.113 1417.74 1417.994 1418.586 1419.265 1419.451 1416.821 1414.556 1411.251 1406.553 1402.499 1395.031 1391.383 1387.787 
1371.272 1374.295 1377.292 1384.034 1387.728 1391.935 1396.815 1401.626 1405.599 1412.78 1416.649 1420.53 1424.255 1427.606 1433.503 1436.434 1439.355 1443.27 1448.277 1452.133 1449.446 1445.425 1441.315 1437.775 1434.758 1429.628 1427.48 1425.328 1422.956 1420.035 1416.017 1405.914 1401.888 1399.361 1404.446 1402.351 1398.754 1396.439 1393.287 1389.701 1385.945 1381.76 1372.308 1369.49 1369.206 1371.008 1373.992 1379.788 1382.266 1384.158 1384.735 1384.406 1384.169 1387.064 1390.214 1395.095 1400.979 1406.33 1415.208 1420.792 1426.255 1430.237 1432.999 1435.568 1439.9 1440.398 1440.089 1438.892 1436.469 1436.456 1433.957 1431.62 1429.758 1428.271 1426.746 1424.21 1423.815 1423.707 1422.657 1421.484 1418.146 1415.826 1411.318 1406.794 1402.784 1399.043 1392.329 1388.513 
1371.272 1373.293 1376.148 1382.946 1386.859 1390.973 1395.567 1400.336 1404.384 1411.437 1415.089 1418.733 1422.374 1425.851 1431.677 1434.424 1437.063 1439.736 1443.961 1449.814 1453.637 1451.361 1446.809 1442.242 1439.4 1434.992 1432.878 1430.803 1428.607 1426.285 1423.688 1415.734 1410.773 1406.998 1404.446 1409.672 1404.926 1401.994 1398.747 1395.321 1391.602 1387.462 1379.588 1377.259 1376.342 1377.437 1380.673 1388.359 1390.799 1392.821 1393.793 1393.434 1392.403 1392.453 1395.405 1399.785 1404.514 1408.987 1418.308 1424.135 1428.896 1432.486 1435.453 1438.198 1443.142 1444.495 1444.848 1444.097 1442.166 1436.456 1440.089 1437.927 1436.072 1434.535 1433.112 1430.396 1429.224 1427.665 1425.283 1421.132 1416.318 1413.875 1410.779 1406.715 1402.633 1399.266 1392.863 1389.189 
1370.48 1373.293 1375.227 1378.299 1385.654 1389.554 1393.632 1397.881 1401.906 1409.384 1413.043 1416.68 1420.453 1424.221 1430.112 1432.362 1434.699 1436.791 1439.123 1443.411 1454.018 1453.476 1450.458 1446.382 1443.146 1439.961 1437.92 1436.006 1434.177 1432.226 1430.017 1424.7 1421.251 1417.065 1412.941 1409.672 1411.123 1408.035 1404.656 1401.187 1397.618 1393.726 1386.555 1384.141 1383.356 1384.57 1387.785 1395.752 1398.867 1400.822 1402.286 1402.033 1400.007 1398.799 1400.496 1403.798 1407.948 1412.081 1421.748 1427.076 1431.422 1434.891 1438.016 1441.099 1446.561 1448.886 1449.728 1449.245 1447.738 1442.446 1446.439 1443.911 1441.934 1440.386 1438.926 1435.404 1433.336 1430.771 1427.298 1422.882 1416.768 1414.304 1411.053 1405.958 1402.359 1399.297 1393.431 1390.046 
1369.65 1372.378 1375.227 1377.346 1384.141 1387.56 1391.293 1395.482 1399.757 1407.544 1411.23 1414.827 1418.584 1422.399 1425.875 1430.839 1432.75 1434.603 1436.488 1438.425 1446.484 1449.299 1446.96 1445.351 1446.6 1447.77 1445.282 1442.457 1440.007 1437.977 1436.026 1431.685 1428.918 1425.67 1421.714 1417.665 1414.237 1414.632 1411.29 1407.666 1403.977 1400.198 1393.687 1391.999 1391.086 1391.721 1394.014 1397.47 1405.543 1408.185 1409.57 1409.218 1407.493 1405.254 1406.533 1408.926 1412.061 1415.781 1420.074 1429.887 1434.153 1437.747 1441.128 1444.489 1450.353 1452.998 1454.357 1454.455 1453.446 1451.447 1446.439 1449.33 1447.065 1445.174 1443.646 1439.762 1436.457 1432.121 1427.626 1422.516 1418.899 1414.045 1410.055 1405.069 1401.307 1398.901 1393.615 1390.504 
1368.607 1371.412 1374.286 1377.346 1382.566 1385.945 1389.681 1393.774 1398.123 1405.972 1409.546 1413.202 1416.85 1420.495 1424.05 1429.268 1430.955 1432.576 1434.302 1436.006 1439.554 1441.812 1442.959 1444.717 1447.74 1450.449 1451.644 1450.067 1447.257 1444.422 1442.193 1437.913 1435.437 1432.751 1429.327 1425.355 1421.459 1414.632 1417.68 1414.157 1410.486 1406.829 1400.189 1398.164 1397.227 1397.411 1398.782 1401.864 1412.092 1415.709 1416.916 1416.957 1416.205 1413.267 1413.359 1414.428 1416.688 1420.01 1423.746 1432.987 1437.408 1441.179 1444.75 1448.214 1455.187 1458.272 1459.86 1460.119 1458.976 1456.82 1451.862 1449.33 1450.997 1448.613 1446.366 1441.683 1437.376 1432.048 1426.962 1421.696 1418.555 1413.424 1408.616 1403.969 1400.459 1397.929 1393.006 1389.393 
1367.658 1370.447 1373.266 1376.271 1382.566 1384.341 1388.196 1392.086 1396.095 1400.322 1407.918 1411.476 1414.767 1418.143 1421.752 1427.805 1429.687 1431.137 1432.439 1433.891 1435.576 1438.516 1439.956 1442.342 1446.002 1449.847 1453.054 1453.116 1452.266 1450.558 1448.38 1446.078 1441.354 1438.833 1435.797 1432.194 1428.323 1420.995 1417.68 1419.994 1416.595 1412.938 1409.34 1404.081 1402.868 1402.488 1403.326 1406.882 1417.572 1420.246 1421.787 1422.646 1422.594 1421.696 1420.687 1421.189 1422.375 1424.612 1428.052 1436.894 1441.118 1444.972 1448.573 1452.643 1457.349 1463.6 1464.669 1464.63 1463.496 1461.356 1455.391 1453.207 1450.997 1449.937 1446.932 1443.88 1435.984 1430.412 1425.644 1421.513 1418.317 1412.775 1407.874 1403.2 1399.584 1396.569 1393.547 1386.186 
1366.89 1369.475 1372.077 1374.87 1380.815 1384.341 1386.172 1389.711 1393.709 1398.23 1406.092 1409.415 1412.459 1415.616 1419.182 1425.827 1428.004 1429.539 1430.792 1432.082 1433.536 1436.345 1437.978 1439.995 1443.291 1447.558 1452.739 1453.812 1454.049 1453.628 1452.69 1451.348 1447.295 1444.705 1441.78 1438.222 1434.241 1426.683 1423.248 1419.994 1422.318 1419.469 1416.409 1411.658 1410.181 1409.91 1411.102 1414.23 1422.144 1424.88 1427.039 1428.77 1429.592 1429.383 1428.517 1428.023 1428.036 1429.788 1433.398 1441.535 1445.344 1448.848 1453.608 1459.15 1463.545 1467.484 1467.971 1467.079 1465.706 1464.05 1457.544 1455.238 1452.817 1449.937 1445.34 1441.702 1432.628 1427.49 1423.359 1420.06 1416.987 1411.327 1406.782 1402.424 1398.055 1394.106 1390.679 1381.745 
1365.604 1368.086 1370.603 1373.275 1379.005 1382.57 1386.172 1387.525 1391.386 1396.014 1404.299 1407.482 1410.491 1413.61 1416.858 1423.009 1425.685 1427.512 1428.784 1430.055 1431.512 1434.509 1436.066 1437.762 1440.204 1443.861 1451.469 1453.228 1454.387 1455.05 1454.979 1454.377 1452.196 1450.486 1447.668 1443.928 1439.843 1432.177 1428.657 1425.181 1422.318 1426.956 1424.762 1420.334 1419.158 1419.007 1419.427 1421.079 1427.172 1430.329 1433.464 1436.068 1437.684 1438.118 1436.557 1435.707 1435.419 1436.15 1438.629 1446.277 1449.371 1455.018 1461.083 1465.433 1468.154 1470.53 1469.79 1468.135 1466.178 1463.94 1457.538 1454.865 1452.223 1448.96 1445.34 1438.406 1428.583 1424.361 1420.826 1417.74 1414.406 1408.718 1404.723 1400.799 1396.561 1392.255 1388.264 1379.121 
1364.017 1366.459 1369.076 1371.814 1374.578 1380.841 1384.235 1387.525 1389.762 1394.137 1402.649 1405.748 1408.687 1411.686 1414.49 1416.905 1421.314 1423.733 1426.097 1428.057 1429.617 1432.51 1434.146 1435.807 1437.587 1440.243 1444.142 1451.854 1453.489 1454.695 1455.871 1456.365 1455.433 1454.408 1452.604 1449.579 1445.517 1441.201 1434.358 1431.261 1428.895 1426.956 1432.69 1429.099 1427.791 1427.369 1427.514 1428.439 1430.641 1437.587 1441.051 1443.528 1445.138 1445.998 1444.825 1443.596 1442.761 1443.213 1445.186 1448.074 1457.741 1463.388 1467.628 1470.527 1472.409 1473.353 1470.795 1467.512 1464.666 1462.004 1458.953 1452.749 1449.653 1446.169 1442.438 1438.406 1424.392 1420.546 1417.325 1414.426 1410.889 1407.962 1401.797 1398.854 1395.482 1391.709 1387.077 1378.294 
1362.597 1365.054 1367.67 1370.299 1372.961 1379.228 1382.472 1385.9 1389.762 1392.487 1400.894 1404.221 1406.715 1409.118 1411.408 1413.09 1416.211 1418.941 1422.125 1425.246 1427.612 1430.587 1432.081 1433.625 1435.412 1437.435 1440.04 1447.766 1451.021 1452.865 1454.339 1455.866 1457.604 1457.232 1455.931 1453.807 1450.62 1446.768 1440.838 1438.654 1436.482 1434.487 1432.69 1436.221 1435.008 1434.28 1434.036 1434.934 1437.358 1443.989 1447.127 1450.026 1452.5 1453.988 1453.533 1452.78 1451.861 1451.667 1452.463 1455.337 1465.815 1469.537 1472.741 1475.247 1476.678 1473.882 1469.617 1465.646 1462.372 1459.308 1456.124 1449.725 1446.173 1442.502 1438.515 1433.81 1424.392 1416.186 1413.164 1410.073 1406.307 1403.411 1397.994 1395.815 1393.313 1389.943 1385.673 1377.224 
1361.295 1363.632 1365.937 1368.339 1371.028 1377.316 1380.517 1384.202 1388.295 1390.448 1394.551 1402.234 1404.648 1406.451 1407.895 1409.09 1412.066 1414.247 1417.569 1421.22 1424.428 1427.003 1430.197 1431.511 1433.045 1434.874 1436.858 1442.581 1446.268 1449.072 1451.208 1453.096 1454.928 1458.329 1458.585 1457.124 1454.587 1452.043 1448.02 1446.039 1443.945 1441.864 1439.763 1437.742 1442.343 1441.268 1440.567 1441.089 1443.269 1449.773 1453.091 1456.02 1458.568 1460.417 1461.143 1460.405 1459.873 1459.716 1460.88 1463.74 1470.956 1474.339 1476.834 1478.447 1478.396 1475.797 1467.022 1463.109 1459.568 1456.095 1452.694 1445.825 1442.23 1438.185 1433.499 1428.527 1419.728 1416.186 1408.448 1405.253 1401.451 1398.547 1393.398 1391.644 1389.517 1386.346 1382.664 1374.976 
1359.786 1361.841 1363.902 1366.038 1368.625 1375.049 1378.21 1381.908 1386.162 1390.448 1391.944 1398.682 1401.615 1403.547 1404.614 1405.182 1407.641 1410.456 1413.648 1417.136 1420.593 1423.687 1428.023 1429.244 1430.556 1432.111 1433.951 1438.489 1441.353 1444.33 1447.066 1449.551 1451.885 1456.748 1458.864 1459.755 1458.7 1456.703 1453.984 1452.592 1451.075 1449.27 1447.206 1445.241 1442.343 1449.702 1448.5 1448.411 1449.669 1455.533 1458.879 1461.88 1464.674 1466.682 1467.358 1466.826 1466.531 1466.36 1466.913 1468.877 1475.001 1477.313 1479.004 1479.124 1477.211 1473.489 1463.856 1459.901 1456.072 1452.334 1448.731 1441.319 1437.441 1432.836 1427.839 1422.847 1418.243 1411.414 1408.448 1400.474 1396.796 1393.741 1388.626 1386.929 1384.742 1381.995 1378.883 1375.554 
1357.983 1359.983 1362.021 1364.13 1366.641 1372.825 1375.892 1379.27 1383.533 1388.033 1391.944 1394.912 1397.577 1399.182 1400.036 1400.587 1402.868 1406.331 1410.05 1413.543 1416.772 1419.712 1424.21 1425.974 1427.566 1429.278 1431.186 1435.399 1437.646 1439.96 1442.623 1445.598 1448.45 1453.382 1456.261 1458.961 1460.657 1460.672 1458.451 1458.47 1458.73 1458.44 1457.467 1455.778 1451.38 1449.702 1457.405 1456.384 1456.801 1461.846 1464.886 1467.774 1470.579 1472.609 1473.082 1471.414 1470.769 1471.027 1471.956 1473.443 1477.863 1479.533 1479.777 1478.248 1475.075 1470.619 1460.882 1456.437 1452.212 1448.147 1444.159 1436.223 1431.907 1427.094 1421.838 1416.784 1412.688 1406.956 1403.877 1400.474 1391.87 1388.727 1383.727 1381.901 1379.735 1377.675 1375.027 1372.084 
1356.037 1358.285 1360.461 1362.648 1364.993 1367.599 1373.633 1376.965 1380.985 1385.254 1388.972 1394.912 1393.098 1394.036 1394.365 1394.928 1396.456 1402.736 1406.538 1410.037 1413.129 1415.679 1419.317 1421.169 1423.447 1426.044 1428.445 1430.448 1434.517 1436.541 1438.542 1441.309 1444.896 1450.304 1452.579 1455.671 1458.848 1461.012 1461.903 1463.001 1463.952 1464.791 1465.208 1464.63 1461.082 1459.352 1457.405 1464.374 1464.247 1465.304 1470.549 1473.574 1477.161 1479.778 1479.435 1475.134 1474.37 1474.324 1475.168 1476.961 1479.323 1481.912 1479.961 1476.84 1472.821 1467.8 1457.478 1452.657 1447.901 1443.329 1439.078 1435.021 1426.157 1420.826 1415.751 1411.536 1408.181 1402.635 1399.127 1395.402 1391.87 1383.318 1380.759 1376.665 1374.892 1373.237 1370.975 1368.241 
1354.626 1356.922 1358.981 1361.099 1363.25 1365.429 1371.509 1375.168 1378.945 1382.559 1385.834 1391.308 1393.098 1389.311 1389.203 1389.39 1391.037 1398.993 1403.053 1406.253 1409.008 1411.363 1413.865 1415.227 1418.111 1421.63 1424.841 1427.465 1431.667 1434.039 1436.448 1439.389 1442.667 1447.944 1449.995 1452.298 1455.341 1458.436 1460.721 1464.054 1465.21 1466.043 1466.738 1467.216 1467.198 1466.594 1465.358 1469.175 1469.431 1470.61 1475.514 1478.748 1482.404 1486.443 1487.565 1480.515 1478.891 1478.735 1480.157 1482.906 1485.391 1483.053 1479.189 1475.104 1470.397 1464.933 1453.892 1448.356 1442.596 1437.867 1433.974 1429.795 1419.433 1414.605 1410.672 1407.274 1404.077 1397.311 1393.537 1390.006 1386.673 1383.318 1375.796 1371.592 1370.274 1368.651 1366.411 1363.566 
1350.484 1355.55 1357.478 1359.432 1361.496 1363.658 1369.646 1373.224 1376.841 1380.046 1382.645 1384.988 1388.706 1389.311 1385.14 1385.502 1387.135 1394.793 1399.331 1402.969 1405.6 1407.215 1408.071 1410.593 1413.455 1417.101 1420.642 1423.674 1428.72 1431.152 1435.012 1439.013 1441.827 1443.87 1447.885 1449.878 1452.106 1454.819 1457.747 1463.377 1465.03 1466.005 1466.951 1467.921 1468.781 1469.723 1469.445 1469.175 1473.23 1474.421 1478.494 1481.704 1484.299 1486.562 1488.859 1486.742 1485.656 1485.84 1487.45 1489.258 1489.769 1484.677 1478.522 1473.202 1468.211 1462.482 1450.469 1443.636 1437.84 1433.098 1428.829 1424.354 1414.185 1410.109 1406.63 1403.124 1399.232 1391.367 1388.027 1385.09 1382.146 1378.464 1375.796 1366.869 1365.573 1364.012 1361.637 1358.738 
1348.539 1353.66 1355.814 1357.72 1359.752 1362.081 1367.453 1370.637 1373.921 1376.756 1378.977 1380.935 1384.316 1385.094 1385.14 1380.944 1382.882 1390.615 1394.948 1399.034 1402.311 1403.797 1403.554 1404.941 1408.771 1413.108 1416.817 1419.882 1425.167 1427.884 1432.22 1437.419 1441.071 1442.706 1445.91 1447.735 1449.684 1451.892 1454.645 1461.59 1464.254 1465.398 1466.165 1467.232 1468.45 1471.101 1471.851 1472.438 1473.23 1475.577 1478.933 1481.052 1483.392 1485.634 1488.283 1490.652 1490.368 1490.257 1490.871 1491.351 1491.051 1485.654 1478.646 1472.429 1466.765 1460.653 1454.296 1440.406 1434.489 1429.25 1424.602 1419.997 1410.953 1406.782 1402.934 1398.93 1394.255 1389.787 1383.504 1380.412 1377.706 1374.371 1371.26 1366.869 1361.491 1359.655 1357.06 1353.766 
1346.328 1351.189 1353.797 1356.017 1358.038 1360.247 1365.076 1367.567 1370.392 1372.77 1374.855 1377.216 1380.723 1381.079 1380.736 1380.944 1378.222 1386.821 1391.007 1394.656 1397.634 1398.955 1398.775 1400.43 1404.198 1408.917 1413.186 1416.358 1421.331 1424.026 1427.28 1433.225 1438.877 1441.262 1443.945 1445.667 1447.488 1449.49 1451.707 1457.686 1461.04 1463.464 1464.641 1465.19 1465.984 1469.349 1471.263 1472.901 1474.255 1475.577 1478.456 1480.455 1482.578 1484.812 1487.06 1489.626 1492.735 1492.779 1492.961 1492.844 1492.041 1487.328 1479.166 1472.012 1465.991 1459.713 1453.119 1438.745 1432.43 1426.821 1421.995 1417.427 1409.119 1405.084 1400.75 1396.31 1391.767 1387.74 1381.269 1377.558 1373.66 1370.867 1367.845 1363.586 1361.491 1354.856 1351.828 1347.927 
1343.483 1348.076 1351.043 1353.899 1356.25 1358.328 1360.476 1364.706 1367.1 1368.905 1370.19 1372.058 1376.445 1376.74 1376.461 1376.518 1378.222 1378.625 1387.285 1390.706 1392.654 1393.347 1393.808 1397.988 1401.445 1405.282 1408.993 1412.148 1414.818 1420.301 1423.542 1427.742 1433.14 1437.909 1441.803 1443.479 1445.244 1447.094 1448.941 1450.698 1455.702 1458.565 1460.625 1461.802 1462.734 1466.527 1468.933 1470.973 1472.636 1474.416 1476.511 1479.562 1481.848 1484.197 1486.468 1488.924 1493.609 1494.442 1494.701 1494.35 1493.215 1491.285 1479.407 1471.769 1465.239 1458.915 1452.472 1438.167 1432.476 1427.151 1422.361 1418.021 1413.739 1405.575 1401.073 1396.437 1391.976 1388.27 1381.872 1378.056 1372.834 1369.476 1366.461 1363.971 1357.2 1349.45 1345.709 1341.993 
1339.737 1344.389 1347.739 1351.08 1354.046 1356.271 1358.011 1361.845 1363.707 1364.925 1365.47 1366.475 1370.99 1371.906 1372.067 1372.808 1374.97 1378.625 1383.393 1386.72 1388.534 1388.828 1389.473 1395.333 1398.822 1401.885 1404.789 1407.734 1410.629 1416.969 1420.301 1423.652 1427.517 1431.877 1439.471 1441.462 1443.087 1444.713 1446.325 1447.918 1451.333 1453.361 1455.579 1457.69 1459.631 1464.269 1466.602 1468.896 1471.099 1473.19 1475.279 1479.562 1480.945 1483.588 1486.441 1488.951 1492.737 1494.485 1496.046 1496.606 1495.068 1491.949 1480.127 1472.183 1464.901 1458.768 1453.35 1440.473 1435.02 1429.603 1424.761 1420.359 1415.954 1407.195 1402.691 1398.177 1393.712 1389.891 1383.175 1379.545 1374.498 1370.55 1366.802 1362.419 1353.237 1349.45 1341.799 1338.962 
1336.149 1338.461 1344.037 1347.49 1350.779 1353.524 1355.672 1358.752 1360.057 1360.95 1361.582 1362.53 1364.261 1367.266 1367.111 1368.252 1371.608 1375.883 1383.393 1382.393 1383.851 1385.169 1387.038 1392.67 1395.081 1397.721 1400.597 1403.615 1406.868 1414.069 1417.205 1420.081 1423.082 1426.341 1434.812 1438.748 1441.037 1442.605 1444.082 1445.53 1448.549 1450.091 1451.642 1453.828 1456.656 1462.187 1464.688 1467.005 1469.39 1471.775 1474.083 1478.697 1480.945 1482.807 1485.904 1488.439 1490.963 1492.407 1494.467 1497.069 1496.919 1493.109 1481.752 1473.858 1465.931 1459.869 1455.13 1444.443 1439.296 1433.712 1428.313 1423.188 1418.194 1408.951 1404.628 1400.225 1395.624 1391.677 1384.288 1380.643 1376.314 1372.149 1368.3 1363.656 1353.856 1346.681 1341.799 1340.229 
1333.1 1335.528 1340.578 1343.488 1346.631 1349.741 1352.62 1356.276 1356.951 1357.284 1357.516 1358.108 1359.304 1361.919 1362.777 1364.823 1368.662 1373.211 1380.519 1382.393 1379.958 1381.95 1384.363 1386.851 1391.059 1393.331 1396.452 1400.076 1403.736 1410.534 1413.393 1416.184 1419.111 1422.1 1425.086 1433.497 1438.007 1440.655 1442.123 1443.436 1446.29 1447.763 1449.342 1451.232 1453.785 1456.859 1462.602 1465.081 1467.532 1470.172 1472.932 1477.956 1480.094 1482.807 1483.894 1486.326 1487.837 1488.782 1490.419 1493.555 1495.626 1494.113 1483.343 1476.032 1467.658 1461.453 1457.384 1453.1 1443.548 1438.389 1432.764 1426.974 1420.913 1410.035 1405.744 1401.315 1396.869 1392.942 1389.292 1381.74 1378.147 1374.544 1370.527 1366.255 1357.04 1350.172 1344.488 1340.229 
1330.244 1332.45 1337.025 1339.593 1342.31 1345.171 1348.065 1352.31 1353.048 1352.904 1352.578 1352.841 1353.699 1355.96 1358.634 1362.475 1366.642 1370.605 1377.226 1378.608 1379.958 1378.939 1381.303 1383.239 1386.857 1389.053 1392.616 1396.781 1400.621 1406.537 1409.308 1412.433 1415.551 1418.414 1421.139 1426.996 1431.981 1436.79 1439.827 1441.461 1444.169 1445.782 1447.485 1449.339 1451.518 1454.179 1460.182 1463.024 1465.702 1468.443 1471.481 1477.272 1479.176 1481.276 1483.894 1482.684 1484.416 1485.98 1487.009 1490.107 1493.797 1494.194 1484.692 1478.071 1471.38 1465.434 1460.695 1456.725 1447.939 1442.457 1436.069 1429.291 1422.256 1410.648 1406.137 1401.556 1397.521 1393.767 1389.882 1383.358 1380.036 1376.682 1372.675 1368.812 1359.831 1354.403 1348.81 1343.227 
1327.321 1328.881 1332.744 1335.185 1337.987 1340.586 1342.968 1345.1 1346.802 1346.782 1346.448 1346.081 1346.406 1351.158 1355.26 1360.056 1364.834 1368.502 1370.84 1374.386 1376.442 1378.939 1378.063 1379.621 1382.531 1385.576 1389.39 1393.174 1396.583 1399.659 1405.265 1408.535 1411.903 1415.017 1417.78 1423.041 1426.051 1430.486 1435.187 1438.676 1440.815 1443.799 1445.568 1447.447 1449.479 1451.809 1457.521 1460.586 1463.588 1466.466 1469.629 1473.155 1477.815 1479.083 1480.693 1482.684 1480.58 1484.148 1485.935 1488.227 1491.441 1493.02 1490.72 1480.363 1474.768 1469.293 1464.374 1459.871 1450.349 1444.106 1437.431 1430.529 1423.25 1416.442 1407.19 1402.856 1399.036 1395.395 1391.523 1385.466 1382.259 1378.442 1374.866 1371.529 1367.251 1357.298 1351.52 1345.282 
1321.888 1323.812 1328.151 1330.378 1333.174 1335.881 1338.169 1339.824 1340.437 1340.2 1339.74 1339.436 1340.073 1347.677 1352.965 1357.626 1362.173 1365.625 1367.089 1370.16 1372.741 1375.621 1378.063 1375.316 1377.857 1380.892 1385.109 1389.15 1392.505 1395.551 1401.279 1404.833 1408.404 1411.579 1414.383 1419.258 1422.094 1425.235 1429.174 1433.58 1437.488 1442.029 1443.7 1445.563 1447.539 1449.601 1454.532 1457.697 1460.945 1464.085 1467.202 1470.431 1475.309 1476.496 1477.45 1478.744 1480.58 1482.713 1484.929 1487.101 1489.941 1491.825 1490.775 1482.135 1477.38 1472.154 1466.762 1461.609 1451.343 1445.292 1438.61 1431.804 1425.248 1419.011 1409.776 1405.786 1402.011 1398.442 1394.602 1387.802 1384.852 1380.877 1377.207 1373.644 1369.701 1359.851 1353.667 1346.593 
1316.787 1317.911 1323.671 1326.354 1329.181 1331.763 1333.514 1334.428 1334.531 1333.308 1332.016 1331.878 1334.334 1344.778 1350.482 1355.074 1358.442 1360.837 1362.43 1366.21 1368.959 1371.645 1373.81 1375.316 1374.216 1376.571 1380.374 1384.756 1388.642 1391.981 1398.871 1402.34 1405.543 1408.453 1411 1415.431 1418.015 1421 1424.283 1428.091 1432.51 1440.087 1441.923 1443.615 1445.528 1447.462 1451.641 1454.51 1457.918 1461.335 1464.412 1467.145 1471.512 1473.147 1474.387 1475.757 1477.685 1482.713 1483.993 1486.295 1488.754 1490.672 1490.625 1483.509 1479.169 1474.332 1468.256 1462.234 1452.255 1446.655 1440.438 1434.135 1428.227 1422.846 1413.457 1409.433 1405.539 1401.89 1398.056 1390.636 1387.121 1383.232 1379.321 1375.478 1371.817 1362.545 1356.365 1348.959 
1314.792 1315.393 1317.091 1322.311 1325.019 1327.358 1328.851 1329.572 1328.985 1327.868 1326.988 1327.665 1331.172 1336.807 1346.91 1351.264 1354.097 1355.727 1357.578 1362.737 1365.426 1367.684 1369.419 1370.906 1372.433 1373.433 1377.141 1381.226 1385.306 1389.237 1396.546 1399.976 1403.16 1405.789 1407.968 1410.011 1414.01 1416.552 1419.768 1423.284 1427.124 1436.447 1439.838 1441.867 1443.521 1445.346 1447.285 1451.47 1454.709 1458.245 1461.333 1463.701 1467.54 1469.888 1471.972 1473.895 1476.137 1478.806 1483.993 1485.414 1487.715 1489.496 1489.876 1484.127 1480.057 1475.664 1469.476 1463.123 1458.396 1448.562 1443.382 1438.224 1432.668 1427.147 1418.01 1413.692 1409.564 1405.597 1401.494 1397.244 1388.843 1384.974 1381.061 1377.336 1373.7 1365.051 1359.131 1351.949 
1312.856 1313.203 1314.419 1318.569 1320.464 1321.861 1322.95 1323.533 1322.704 1321.765 1321.94 1324.745 1329.349 1334.226 1343.097 1345.931 1347.979 1350.299 1353.361 1359.186 1361.595 1363.61 1365.23 1366.676 1368.215 1370.393 1374.538 1378.554 1382.602 1386.828 1394.074 1397.255 1400.435 1403.243 1405.411 1407.182 1410.836 1412.85 1415.769 1419.303 1422.921 1431.449 1436.129 1439.573 1441.704 1443.393 1445.283 1449.541 1452.313 1455.132 1457.804 1460.129 1464.544 1467.385 1470.407 1473.082 1475.552 1478.084 1483.026 1485.414 1486.534 1488.293 1488.77 1483.957 1480.251 1476.209 1470.728 1464.892 1460.116 1450.992 1446.625 1442.307 1437.517 1432.417 1423.125 1418.017 1413.086 1408.519 1403.99 1399.464 1390.598 1386.551 1382.697 1379.005 1375.35 1367.034 1361.162 1354.374 
1310.347 1309.804 1310.506 1314.099 1315.599 1316.504 1317.386 1317.792 1317.152 1315.801 1317.299 1321.496 1326.883 1331.497 1337.98 1340.077 1341.521 1344.364 1348.695 1352.796 1357.57 1359.117 1360.788 1362.504 1364.25 1370.393 1371.983 1376.029 1379.976 1383.97 1387.83 1394.174 1397.056 1400.037 1402.521 1404.296 1407.712 1410.013 1412.67 1415.788 1419.332 1422.965 1431.524 1436.071 1439.365 1441.517 1443.387 1447.839 1450.016 1451.931 1454.171 1456.862 1459.702 1465.916 1469.032 1472.196 1475.227 1477.712 1481.797 1484.22 1486.534 1486.575 1487.459 1486.478 1480.328 1476.763 1472.115 1466.998 1462.344 1453.884 1449.894 1445.616 1441.401 1437.02 1432.08 1421.282 1415.575 1410.644 1406.026 1401.383 1391.739 1387.626 1383.697 1379.873 1376.39 1368.357 1362.559 1355.922 
1307.633 1306.092 1305.94 1308.51 1309.53 1310.231 1310.424 1310.22 1309.646 1309.651 1313.801 1318.947 1323.664 1327.647 1333.128 1334.813 1336.695 1339.699 1343.72 1347.836 1353.051 1354.528 1356.221 1358.383 1361.023 1367.801 1371.983 1373.573 1377.435 1381.129 1384.5 1390.535 1392.869 1395.354 1398.008 1400.427 1404.476 1406.965 1409.812 1412.649 1415.788 1419.591 1428.278 1432.705 1436.412 1439.378 1441.796 1445.895 1447.717 1449.441 1451.226 1453.713 1457.182 1464.479 1467.537 1470.882 1474.285 1476.91 1480.573 1482.695 1484.816 1486.575 1485.669 1485.804 1480.668 1477.504 1473.478 1468.902 1464.374 1456.25 1452.712 1448.748 1444.329 1439.793 1434.736 1423.154 1416.849 1411.59 1407.219 1402.792 1392.25 1388.031 1384.081 1380.181 1376.635 1373.164 1363.031 1355.947 
1305.368 1303.621 1302.75 1303.686 1304.198 1304.291 1303.911 1303.454 1303.075 1304.849 1310.205 1315.912 1320.031 1322.912 1327.846 1329.365 1331.431 1335.021 1339.313 1342.999 1347.798 1349.854 1352.052 1354.911 1358.523 1365.864 1369.719 1373.573 1374.599 1377.94 1380.661 1385.797 1388.117 1390.34 1392.991 1395.949 1401.316 1404.124 1407.206 1410.235 1413.13 1416.661 1425.937 1430.153 1434.036 1437.695 1440.572 1444.072 1445.75 1447.428 1449.098 1451.045 1454.048 1462.423 1465.845 1469.155 1472.487 1475.387 1479.344 1480.94 1482.759 1484.327 1485.669 1484.36 1481.172 1478.264 1474.83 1470.663 1466.238 1458.19 1454.394 1450.749 1445.978 1440.775 1435.628 1423.891 1417.636 1412.268 1407.528 1402.815 1392.216 1387.913 1383.845 1379.689 1375.709 1372.192 1362.147 1354.733 
1302.657 1301.191 1300.005 1299.379 1298.811 1298.484 1298.01 1297.43 1297.35 1302.012 1306.686 1311.429 1315.365 1318.303 1320.25 1323.405 1326.679 1330.64 1334.535 1337.971 1342.442 1344.615 1348.507 1352.904 1356.825 1360.461 1367.651 1371.064 1374.599 1373.764 1376.139 1380.632 1383.388 1386.151 1388.921 1392.114 1395.635 1402.096 1405.235 1408.256 1411.336 1414.843 1423.69 1427.99 1431.954 1435.694 1438.887 1441.145 1444.077 1445.555 1447.198 1449.048 1451.438 1459.671 1463.964 1467.307 1470.389 1473.441 1476.025 1479.057 1480.241 1481.866 1483.544 1482.693 1481.222 1478.8 1476.054 1472.232 1467.862 1463.694 1455.133 1451.161 1446.312 1441 1435.634 1424.272 1418.05 1412.621 1407.634 1402.578 1397.094 1387.293 1383.04 1378.432 1373.972 1369.758 1359.275 1351.103 
1299.293 1298.357 1297 1295.337 1293.35 1292.802 1292.301 1291.693 1292.008 1298.603 1302.92 1306.921 1310.104 1312.582 1314.375 1317.742 1321.659 1325.986 1329.641 1332.992 1338.772 1341.395 1345.945 1351.231 1355.411 1358.481 1365.082 1368.185 1371.065 1373.764 1371.076 1376.018 1379.092 1382.417 1385.979 1389.664 1393.273 1400.217 1403.502 1406.543 1409.636 1413.003 1421.28 1425.881 1429.817 1433.371 1436.695 1439.333 1442.409 1443.779 1445.34 1447.19 1449.249 1456.218 1461.279 1465.104 1468.05 1471.038 1473.901 1476.581 1477.017 1478.526 1480.788 1482.693 1481.074 1479.075 1476.818 1473.409 1468.922 1464.298 1455.049 1450.62 1445.454 1440.042 1434.714 1424.021 1417.861 1412.253 1406.631 1401.105 1395.511 1386.137 1381.547 1376.617 1370.962 1366.359 1354.885 1346.291 
1296.109 1295.498 1294.277 1292.261 1288.91 1288.003 1286.96 1286.373 1287.477 1290.642 1298.177 1301.834 1304.806 1306.934 1308.548 1313.286 1316.62 1321.268 1326.45 1330.722 1333.994 1340.29 1344.444 1349.124 1353.223 1356.212 1361.368 1364.367 1366.964 1369.046 1371.076 1368.263 1375.257 1379.09 1383.216 1387.332 1391.078 1398.15 1401.727 1404.918 1407.967 1411.195 1414.656 1423.254 1427.371 1430.557 1433.374 1436.141 1440.535 1442.019 1443.51 1445.226 1447.204 1449.399 1456.937 1461.973 1465.579 1468.21 1470.748 1473.691 1474.366 1475.751 1478.08 1480.542 1481.074 1479.006 1477.088 1474.042 1469.548 1464.539 1454.378 1449.216 1443.818 1438.41 1433.133 1422.147 1416.284 1410.621 1404.44 1398.6 1393.181 1383.751 1379.296 1374.433 1368.448 1363.447 1349.426 1342.795 
1292.718 1291.88 1290.251 1288.034 1285.04 1283.698 1281.771 1280.146 1281.208 1285.2 1292.706 1295.381 1298.047 1300.672 1302.631 1309.54 1314.274 1319.193 1324.591 1329.376 1332.84 1339.563 1343.41 1346.835 1350.032 1352.945 1356.702 1358.789 1361.302 1363.743 1365.887 1368.263 1372.125 1376.678 1380.816 1384.813 1388.75 1395.937 1399.59 1403.146 1406.244 1409.151 1412.146 1419.491 1423.736 1427.018 1429.579 1432.112 1437.514 1439.935 1441.622 1443.233 1445.161 1447.207 1452.028 1457.047 1462.552 1466.032 1467.812 1471.242 1472.597 1474.083 1475.981 1478.205 1480.068 1479.006 1477.027 1474.246 1469.754 1464.41 1453.362 1447.707 1441.794 1436.16 1430.946 1425.725 1413.933 1407.86 1401.891 1396.393 1390.702 1381.697 1377.37 1372.853 1367.101 1361.287 1353.314 1340.264 
1286.343 1284.817 1283.408 1282.208 1280.697 1279.66 1277.855 1276.671 1277.174 1279.448 1285.798 1288.642 1291.317 1294.062 1298.078 1309.041 1314.65 1319.521 1323.99 1328.296 1331.863 1338.289 1341.728 1344.47 1346.656 1348.543 1351.348 1352.717 1354.998 1357.713 1360.53 1363.686 1372.125 1374.259 1378.568 1382.441 1386.156 1393.281 1397.175 1401.242 1404.588 1407.257 1409.858 1415.54 1419.145 1422.732 1425.399 1427.272 1432.815 1436.22 1439.156 1441.362 1443.187 1445.051 1449.08 1451.684 1457.202 1462.843 1465.842 1469.137 1470.85 1472.528 1474.272 1476.144 1478.03 1478.502 1477.027 1474.01 1469.498 1464.054 1452.166 1446.029 1439.644 1433.701 1428.052 1422.505 1411.441 1404.853 1399.422 1394.72 1389.143 1380.066 1375.701 1371.255 1365.044 1358.34 1350.726 1339.235 
1279.163 1278.031 1277.243 1276.357 1275.353 1274.416 1273.993 1271.849 1271.026 1273.279 1279.042 1281.698 1285.276 1290.045 1296.149 1302.855 1314.338 1318.981 1322.9 1326.503 1329.793 1335.553 1338.712 1341.228 1342.987 1344.051 1344.598 1346.239 1348.545 1351.894 1355.947 1360.453 1369.611 1374.259 1376.062 1379.933 1383.409 1386.8 1394.236 1398.644 1402.513 1405.326 1407.615 1412.685 1415.627 1418.504 1421.167 1423.331 1425.172 1431.751 1435.905 1439.291 1441.578 1443.258 1446.898 1448.916 1451.514 1457.009 1462.894 1465.699 1469.083 1470.819 1472.536 1474.24 1475.948 1477.713 1476.703 1474.01 1468.785 1463.643 1457.966 1444.822 1437.816 1431.13 1425.092 1419.785 1408.96 1402.495 1397.636 1393.844 1388.774 1384.05 1375.115 1370.208 1363.086 1355.195 1347.572 1338.426 
1279.163 1273.453 1272.122 1270.71 1269.084 1268.963 1271.068 1269.6 1267.532 1268.349 1273.097 1276.129 1280.355 1286.421 1293.494 1300.412 1312.355 1317.143 1320.864 1324.178 1327.515 1332.58 1334.822 1336.627 1338.006 1338.873 1339.271 1340.514 1342.374 1347.044 1352.78 1357.868 1367.343 1371.767 1376.062 1377.031 1380.594 1383.814 1390.9 1395.337 1399.569 1402.817 1405.273 1410.134 1412.786 1415.503 1418.021 1420.302 1422.478 1427.222 1431.523 1436.217 1439.703 1441.801 1445.064 1446.906 1448.868 1451.974 1457.304 1462.839 1467.297 1468.968 1470.681 1472.352 1474.015 1476.557 1475.927 1473.162 1468.785 1463.314 1457.928 1444.803 1437.598 1429.618 1423.166 1418.633 1407.613 1401.183 1397.124 1393.61 1388.771 1384.706 1375.352 1369.491 1362.588 1353.81 1344.998 1339.401 
1274.714 1273.453 1267.065 1265.601 1264.989 1268.661 1270.3 1269.087 1266.714 1265.881 1266.683 1270.654 1275.993 1282.641 1289.746 1296.943 1309.01 1314.051 1318.27 1321.581 1324.479 1327.136 1331.221 1332.105 1332.633 1333.21 1333.864 1336.872 1339.152 1343.772 1350.046 1355.721 1365.068 1369.228 1373.145 1377.031 1377.342 1380.664 1387.818 1392.007 1396.081 1399.684 1402.692 1407.667 1410.238 1412.93 1415.507 1417.839 1419.935 1424.404 1427.313 1431.872 1436.811 1440.175 1443.371 1445.017 1446.97 1449.079 1452.424 1457.65 1465.456 1467.209 1468.884 1470.558 1472.188 1474.88 1474.884 1472.078 1467.957 1463.314 1458.216 1445.447 1438.037 1429.173 1422.614 1418.56 1408.359 1402.643 1398.629 1395.037 1391.042 1386.154 1377.045 1371.198 1366.204 1358.749 1349.859 1344.583 
1270.324 1268.72 1261.056 1259.941 1261.016 1268.768 1269.653 1268.266 1265.143 1263.058 1263.482 1266.625 1271.57 1278.261 1285.559 1292.72 1305.095 1310.381 1315.421 1319.01 1321.364 1323.698 1327.182 1327.68 1327.983 1328.482 1329.177 1333.838 1337.589 1341.989 1347.69 1353.423 1357.922 1366.185 1370.029 1373.789 1377.342 1377.193 1384.726 1389.083 1392.969 1396.371 1399.585 1402.574 1407.657 1410.312 1413.001 1415.428 1417.524 1421.832 1424.381 1427.617 1432.261 1437.135 1440.31 1443.338 1445.002 1446.957 1449.21 1452.705 1462.79 1465.395 1467.095 1468.821 1470.472 1471.845 1473.542 1471.31 1467.67 1463.385 1458.216 1446.272 1439.205 1430.923 1424.337 1420.085 1415.949 1406.965 1402.476 1398.116 1393.279 1387.397 1378.982 1374.17 1368.125 1362.371 1358.383 1356.237 
1265.226 1262.959 1261.056 1254.978 1257.434 1268.689 1269.574 1267.756 1263.262 1259.127 1258.485 1263.468 1267.706 1274.022 1281.268 1288.136 1300.417 1305.632 1310.724 1315.425 1318.775 1320.678 1322.886 1323.356 1323.534 1324.369 1325.95 1331.835 1336.121 1340.753 1345.566 1350.196 1354.334 1362.458 1366.589 1370.317 1373.793 1377.193 1380.777 1385.334 1389.488 1392.968 1396.201 1399.397 1404.973 1407.546 1410.158 1412.614 1414.82 1419.137 1421.627 1424.363 1427.901 1432.404 1436.887 1441.647 1443.088 1444.756 1446.796 1449.241 1458.312 1462.846 1465.29 1466.93 1468.601 1470.131 1471.938 1470.926 1467.97 1463.826 1458.825 1446.272 1442.389 1436.254 1429.527 1423.901 1419.825 1411.803 1407.076 1401.823 1396.196 1390.13 1380.874 1375.386 1371.523 1369.302 1367.867 1368.086 
1259.247 1257.031 1255.503 1254.978 1255.571 1261.57 1268.852 1266.647 1261.663 1256.785 1255.115 1260.343 1264.568 1270.193 1276.984 1283.801 1289.958 1300.846 1305.627 1310.379 1314.637 1317.604 1319.057 1318.927 1318.644 1319.16 1321.93 1326.447 1334.42 1338.891 1342.951 1346.483 1350.03 1358.012 1362.698 1366.94 1370.484 1373.698 1377.006 1380.723 1385.114 1389.186 1392.726 1395.985 1402.154 1404.81 1407.258 1409.645 1411.938 1414.118 1418.652 1421.337 1424.365 1428.033 1432.309 1439.252 1441.012 1442.509 1444.219 1446.383 1449.203 1458.503 1462.843 1465.162 1466.678 1468.315 1470.263 1470.42 1468.235 1464.541 1459.956 1454.219 1442.389 1442.048 1435.749 1429.425 1424.327 1416.382 1411.729 1405.897 1400.194 1395.461 1390.622 1381.896 1379.114 1376.472 1376.267 1376.057 
1253.23 1251.015 1250.271 1251.654 1255.571 1259.387 1264.522 1263.464 1260.091 1255.862 1253.527 1257.02 1261.327 1266.345 1272.741 1279.654 1285.833 1296.225 1300.592 1304.335 1307.753 1310.692 1313.456 1313.784 1314.235 1316.065 1319.976 1324.997 1332.867 1336.067 1339.397 1342.246 1345.109 1353.572 1358.55 1363.301 1367.212 1370.402 1373.438 1380.723 1380.504 1384.865 1388.909 1392.427 1398.918 1401.965 1404.61 1406.943 1409.161 1411.316 1415.663 1418.178 1421.165 1424.371 1427.746 1434.795 1437.573 1439.79 1441.515 1443.268 1445.724 1453.508 1458.468 1462.592 1464.985 1466.445 1468.563 1469.185 1468 1465.277 1461.551 1456.756 1447.112 1442.048 1441.602 1435.057 1429.333 1420.267 1415.628 1410.11 1405.175 1400.914 1396.541 1388.364 1385.626 1384.949 1384.247 1382.3 
1250.214 1244.997 1244.932 1248.725 1254.373 1259.387 1259.989 1259.682 1258.457 1254.793 1250.947 1253.456 1257.921 1262.946 1268.427 1274.677 1281.011 1290.938 1294.876 1298.09 1300.767 1302.93 1305.915 1307.295 1311.042 1315.515 1319.544 1323.71 1331.267 1332.845 1334.186 1336.635 1340.156 1349.782 1354.983 1359.491 1363.397 1366.805 1369.921 1376.521 1380.504 1380.272 1384.544 1388.614 1395.558 1398.764 1401.816 1404.379 1406.592 1408.789 1412.855 1414.852 1417.722 1420.991 1424.024 1430.049 1433.084 1435.716 1437.77 1439.553 1441.606 1448.39 1452.729 1457.714 1462.198 1464.793 1466.926 1467.581 1467.383 1465.727 1462.795 1458.965 1451.288 1447.416 1441.602 1440.804 1434.027 1423.631 1418.902 1414.149 1410.315 1406.895 1401.942 1395.669 1393.896 1393.455 1392.972 1390.821 
1245.31 1240.886 1242.544 1247.426 1253.026 1256.992 1259.989 1258.067 1256.754 1251.378 1245.473 1244.951 1254.172 1258.994 1263.88 1269.347 1275.214 1284.486 1288.237 1291.056 1293.333 1295.516 1297.914 1304.036 1308.894 1314.782 1319.149 1321.64 1326.803 1327.918 1328.458 1331.219 1336.018 1341 1351.412 1355.766 1359.418 1362.793 1366.09 1372.734 1376.286 1375.961 1379.976 1384.265 1388.343 1395.425 1398.795 1401.732 1404.216 1406.487 1410.734 1412.794 1415.113 1417.869 1420.886 1423.751 1428.946 1431.488 1433.824 1435.781 1437.428 1441.635 1446.395 1451.451 1456.694 1461.58 1464.389 1466.021 1466.436 1465.45 1463.077 1460.005 1453.615 1451.307 1447.25 1440.804 1438.685 1432.561 1422.694 1418.098 1414.507 1412.447 1408.169 1401.931 1400.457 1399.214 1398.539 1397.626 
1238.106 1236.183 1240.775 1246.051 1250.782 1254.449 1258.151 1258.067 1252.072 1246.638 1242.237 1242.152 1250.588 1255.322 1259.943 1264.359 1268.719 1277.484 1280.857 1283.717 1286.544 1289.34 1292.61 1302.195 1307.203 1312.315 1316.628 1318.787 1320.105 1321.816 1324.516 1328.38 1333.051 1337.932 1347.576 1351.81 1355.394 1358.649 1361.93 1368.786 1372.31 1375.961 1375.733 1379.856 1384.219 1392.179 1395.802 1399.169 1402.097 1404.496 1408.966 1411.103 1413.118 1415.437 1418.171 1420.994 1425.858 1428.151 1430.356 1432.356 1434.081 1437.601 1440.256 1444.936 1450.129 1455.474 1460.658 1464.672 1464.976 1464.744 1463.055 1460.348 1455.033 1452.663 1450.418 1445.554 1438.685 1435.996 1427.098 1423.372 1420.505 1418.21 1413.995 1406.891 1404.488 1402.981 1401.458 1399.625 
1231.308 1232.292 1238.148 1243.983 1248.205 1251.293 1253.752 1254.951 1252.072 1242.017 1238.521 1239.286 1247.57 1251.94 1256.064 1259.805 1263.168 1266.309 1273.015 1276.592 1280.502 1284.85 1289.425 1299.369 1304.76 1308.399 1310.481 1312.118 1313.499 1317.223 1320.713 1325.158 1329.751 1334.287 1343.687 1347.429 1350.852 1354.133 1357.425 1360.93 1368.102 1371.818 1375.733 1376.522 1380.783 1389.483 1393.2 1396.946 1400.152 1402.685 1405.006 1409.747 1411.855 1413.838 1416.123 1418.687 1423.345 1425.474 1427.522 1429.511 1431.35 1433.131 1437.221 1439.374 1443.682 1449.027 1454.193 1462.512 1463.586 1463.703 1462.744 1460.611 1458.059 1453.44 1451.182 1447.683 1442.066 1435.996 1431.932 1428.811 1426.162 1422.935 1419.026 1415.108 1408.352 1405.745 1403.616 1400.854 
1223.713 1228.873 1234.959 1240.709 1244.905 1247.668 1249.547 1249.781 1247.047 1242.017 1232.57 1235.485 1245.138 1248.871 1252.044 1255.087 1257.874 1260.398 1266.312 1271.055 1276.269 1281.252 1285.976 1294.761 1299.123 1302.555 1304.654 1305.557 1306.62 1312.98 1316.312 1320.266 1324.859 1329.239 1338.793 1342.563 1345.735 1349.054 1352.465 1356.055 1364.2 1367.605 1372.021 1376.522 1379.365 1388.095 1391.836 1395.499 1398.734 1401.566 1404.188 1408.639 1410.655 1412.586 1414.649 1416.875 1421.172 1423.271 1425.159 1427.153 1429.154 1431 1435.073 1437.102 1439.783 1443.818 1448.502 1457.297 1460.371 1461.721 1461.759 1460.61 1458.451 1453.536 1450.804 1447.711 1443.346 1438.8 1431.932 1432.395 1429.181 1425.48 1421.844 1418.261 1411.865 1407.986 1404.588 1401.245 
1218.716 1225.278 1231.644 1236.702 1240.768 1243.867 1245.632 1244.587 1240.561 1234.898 1232.57 1232.649 1242.171 1245.551 1248.136 1250.467 1252.761 1255.049 1261.992 1266.779 1271.827 1277.252 1282.157 1289.793 1292.982 1295.922 1298.543 1300.717 1302.84 1309.735 1313.609 1316.371 1320.755 1325.834 1334.121 1338.661 1341.08 1344.522 1349.244 1353.376 1362.014 1365.25 1370.016 1375.128 1379.365 1387.659 1391.319 1394.709 1398.02 1401.268 1403.964 1407.673 1409.685 1411.539 1413.279 1415.1 1419.183 1421.366 1423.351 1425.247 1427.161 1429.06 1433.678 1435.748 1437.608 1440.295 1444.021 1451.971 1455.211 1457.824 1459.34 1459.894 1459.018 1453.379 1450.152 1447.004 1443.904 1441.16 1435.749 1435.315 1431.702 1427.648 1423.877 1420.82 1414.062 1409.183 1405.113 1401.232 
1215.626 1217.242 1227.421 1232.382 1235.798 1237.902 1238.961 1236.031 1231.472 1228.312 1228.923 1232.649 1233.742 1240.874 1243.854 1245.925 1248.167 1250.894 1257.987 1262.587 1266.94 1271.71 1276.741 1280.988 1287.889 1290.949 1293.266 1297.288 1301.878 1309.163 1314.28 1318.048 1322.201 1326.881 1330.989 1339.302 1341.448 1345.416 1350.827 1354.917 1362.918 1366.554 1370.781 1375.675 1379.972 1383.652 1391.15 1394.286 1397.514 1400.968 1403.766 1406.995 1408.7 1410.348 1411.953 1413.494 1415.115 1419.558 1422.05 1424.101 1425.708 1427.54 1432.447 1434.553 1436.311 1437.891 1440.367 1444.214 1451.163 1453.945 1456.385 1458.284 1458.492 1453.67 1450.521 1447.534 1444.994 1442.951 1441.129 1435.315 1433.673 1429.773 1425.243 1422.309 1415.1 1409.68 1405.186 1401.16 
1210.104 1213.395 1223.445 1227.446 1229.899 1230.808 1230.055 1224.366 1222.749 1223.565 1226.287 1229.967 1233.742 1234.999 1238.241 1241.15 1244.39 1247.845 1254.641 1258.244 1262.006 1265.831 1270.163 1275.085 1285.398 1289.979 1293.928 1298.292 1302.864 1313.178 1318.648 1323.15 1327.127 1331.552 1336.573 1343.945 1346.781 1351.084 1355.03 1357.887 1365.564 1368.936 1372.602 1376.846 1380.672 1383.884 1391.15 1393.199 1396.587 1400.262 1403.218 1406.322 1407.81 1409.335 1410.815 1412.256 1413.702 1418.172 1421.624 1424.52 1426.696 1428.343 1431.602 1433.501 1435.101 1436.608 1438.042 1440.351 1447.784 1450.62 1453.451 1456 1457.328 1454.073 1451.401 1448.836 1446.322 1444.274 1442.607 1437.311 1433.673 1431.693 1427.318 1423.451 1415.186 1409.778 1405.032 1400.886 
1206.44 1209.531 1219.706 1222.951 1224.279 1223.686 1221.219 1217.487 1215.98 1220.055 1223.685 1226.561 1229.407 1234.999 1233.317 1237.351 1241.497 1244.643 1247.647 1255.097 1258.735 1263.282 1267.938 1273.71 1287.607 1292.909 1297.242 1301.797 1306.571 1311.47 1323.134 1328.12 1332.539 1337.167 1341.623 1346.838 1350.484 1354.185 1356.854 1359.284 1362.557 1369.435 1373.133 1377.095 1380.505 1383.388 1390.058 1393.199 1395.064 1398.675 1401.833 1404.094 1406.965 1408.411 1409.889 1411.368 1412.872 1417.542 1421.369 1425.193 1427.764 1429.192 1430.21 1432.653 1434.085 1435.447 1436.716 1438.257 1444.495 1447.94 1450.928 1453.658 1455.704 1456.051 1452.067 1449.835 1447.506 1445.324 1443.462 1438.312 1435.028 1431.693 1428.237 1423.94 1414.634 1409.698 1405.071 1400.772 
1204.174 1206.744 1215.559 1218.339 1218.534 1216.206 1211.976 1208.105 1211.629 1216.575 1220.006 1222.593 1225.361 1230.304 1233.317 1234.679 1239.011 1242.058 1245.695 1256.482 1260.141 1265.06 1271.06 1278.026 1292.764 1296.719 1300.758 1305.24 1309.833 1314.819 1326.811 1331.246 1335.258 1339.665 1343.282 1347.682 1351.289 1354.483 1356.642 1358.853 1361.905 1368.608 1371.953 1375.592 1378.905 1381.737 1388.121 1391.491 1395.064 1396.952 1400.357 1403.051 1406.123 1407.496 1409.099 1410.865 1412.666 1417.528 1421.251 1425.059 1427.601 1428.947 1429.968 1431.718 1432.981 1434.275 1435.454 1436.722 1441.329 1445.214 1448.955 1451.768 1453.693 1454.803 1452.428 1450.454 1448.432 1446.266 1443.977 1438.72 1435.73 1432.499 1428.237 1424.107 1418.875 1409.589 1405.31 1400.885 
1200.153 1203.486 1210.978 1212.266 1211.964 1207.252 1201.985 1201.269 1208.082 1212.126 1215.723 1219.204 1222.467 1228.273 1230.899 1234.679 1240.22 1244.389 1249.264 1260.727 1264.837 1269.724 1276.001 1283.144 1294.993 1298.542 1302.401 1306.538 1310.909 1315.736 1327.493 1331.605 1335.198 1339.176 1342.454 1346.47 1349.763 1352.541 1354.791 1357.058 1359.869 1366.718 1369.671 1372.816 1376.067 1379.207 1386.043 1389.597 1393.275 1396.952 1398.686 1401.622 1405.151 1406.43 1408.123 1410.265 1412.529 1417.555 1420.411 1423.733 1426.487 1428.146 1429.16 1431.022 1431.935 1433.074 1434.26 1435.451 1438.543 1442.3 1446.506 1449.796 1451.977 1453.339 1452.357 1450.72 1449.03 1446.755 1444.134 1438.833 1435.752 1432.671 1428.639 1424.107 1418.981 1409.721 1405.619 1400.962 
1196.14 1199.484 1203.594 1209.58 1203.616 1197.01 1195.043 1197.169 1204.648 1207.657 1211.722 1216.457 1220.655 1224.298 1230.972 1235.216 1240.22 1249.9 1255.248 1263.934 1268.408 1273.732 1279.714 1285.895 1291.445 1299.243 1303.312 1307.014 1310.719 1314.845 1325.683 1330.257 1333.652 1336.747 1339.584 1341.836 1346.224 1348.949 1351.543 1353.994 1356.614 1363.242 1366.189 1369.031 1372.336 1375.89 1379.537 1387.855 1391.714 1395.306 1398.686 1399.486 1403.705 1405.2 1406.994 1409.371 1411.964 1414.424 1419.517 1422.231 1424.711 1426.726 1428.156 1429.933 1430.848 1431.873 1432.983 1434.187 1435.495 1439.778 1443.846 1447.876 1450.516 1451.871 1451.851 1450.553 1449.044 1446.539 1443.675 1441.361 1435.64 1432.815 1428.967 1424.309 1418.981 1410.605 1406.295 1401.033 
1192.761 1195.17 1198.236 1199.517 1194.468 1191.932 1192.858 1195.056 1203.269 1206.184 1210.565 1216.28 1221.197 1225.058 1233.329 1239.111 1244.622 1249.9 1257.985 1265.765 1270.249 1275.62 1281.049 1286.44 1291.52 1298.711 1302.253 1305.843 1309.479 1312.989 1321.967 1327.023 1330.62 1333.382 1335.946 1338.199 1341.973 1344.288 1346.978 1349.787 1352.553 1358.506 1361.686 1364.554 1367.43 1371.578 1376.792 1386.175 1390.517 1393.747 1396.585 1399.486 1401.516 1403.626 1405.847 1408.299 1410.933 1413.589 1418.252 1420.41 1422.713 1424.837 1426.52 1428.714 1429.564 1430.582 1431.708 1432.963 1434.384 1437.886 1441.331 1445.428 1448.778 1450.708 1451.039 1450.217 1449.228 1445.05 1440.531 1438.844 1435.388 1433.254 1429.348 1424.841 1419.734 1410.605 1406.824 1400.91 
1188.732 1190.948 1192.775 1191.082 1188.691 1189.559 1192.1 1194.736 1198.598 1208.303 1213.215 1218.703 1223.225 1226.929 1236.183 1242.451 1247.826 1253.028 1258.515 1262.322 1271.016 1275.808 1280.444 1285.214 1289.945 1297.602 1301.137 1304.475 1308.034 1311.65 1315.137 1323.608 1327.179 1329.753 1332.031 1334.262 1338.174 1340.041 1342 1344.477 1347.475 1350.603 1356.635 1360.012 1363.616 1368.361 1374.254 1383.802 1388.206 1391.522 1393.82 1396.148 1401.516 1402.159 1404.811 1407.121 1409.601 1412.225 1416.642 1418.601 1420.695 1422.697 1424.343 1426.949 1428.108 1429.354 1430.499 1431.702 1433.147 1436.626 1438.941 1442.645 1446.642 1449.296 1450.159 1449.567 1448.216 1442.965 1437.474 1435.818 1434.928 1433.208 1429.546 1425.258 1420.809 1411.867 1406.824 1400.574 
1184.633 1186.628 1186.956 1184.2 1185.782 1188.645 1191.73 1195.051 1199.327 1210.041 1215.15 1220.079 1224.339 1228.303 1237.988 1243.688 1248.887 1253.944 1258.515 1262.267 1271.001 1275.203 1279.263 1283.881 1288.693 1296.577 1300.22 1303.772 1307.191 1310.537 1314.022 1320.988 1324.09 1326.585 1328.573 1330.472 1334.263 1335.993 1337.862 1339.905 1342.288 1345.511 1352.566 1356.503 1361.333 1366.401 1371.602 1380.421 1384.159 1387.626 1389.967 1392.093 1395.275 1402.159 1403.555 1405.741 1407.85 1410.175 1414.796 1416.753 1418.682 1420.461 1422.076 1423.595 1426.525 1428.025 1429.239 1430.404 1431.797 1435.297 1437.165 1440.234 1444.017 1447.456 1449.416 1448.877 1446.285 1441.063 1436.335 1434.397 1433.408 1431.787 1428.148 1424.432 1421.134 1417.69 1407.36 1400.574 
1181.581 1182.995 1182.556 1181.827 1184.87 1187.988 1191.234 1195.011 1199.44 1209.634 1215.235 1220.275 1224.531 1228.594 1238.411 1243.837 1248.84 1253.76 1258.234 1262.267 1270.698 1274.843 1279.119 1283.54 1288.149 1295.964 1299.161 1302.762 1306.141 1309.231 1312.639 1319.494 1321.697 1323.487 1325.315 1327.131 1330.095 1331.771 1333.869 1336.305 1338.983 1342.273 1350.698 1354.868 1359.645 1364.653 1369.233 1376.634 1379.485 1382.779 1385.872 1388.757 1392.307 1400.575 1403.555 1403.815 1405.818 1407.984 1412.716 1414.77 1416.564 1418.245 1419.912 1421.56 1424.813 1426.384 1427.831 1429.162 1430.528 1433.973 1435.93 1438.089 1441.193 1444.562 1447.005 1446.059 1442.875 1439.07 1436.281 1434.612 1432.051 1430.211 1426.516 1423.19 1420.597 1417.446 1406.018 1398.504 
1176.932 1176.796 1175.924 1176.11 1183.868 1187.07 1190.392 1194.137 1198.319 1208.016 1214.025 1219.594 1224.178 1228.37 1232.899 1243.194 1248.063 1252.802 1257.247 1261.59 1270.698 1274.102 1279.268 1283.579 1287.434 1291.443 1297.454 1300.914 1304.182 1307.022 1310.169 1317.166 1319.059 1320.54 1322.159 1323.865 1325.418 1328.259 1329.873 1332.914 1337.044 1341.171 1349.391 1353.67 1358.011 1362.872 1367.29 1370.47 1376.168 1379.521 1383.088 1386.6 1390.241 1398.117 1401.4 1403.815 1403.586 1405.758 1407.97 1412.344 1414.27 1416.082 1417.868 1419.647 1423.032 1424.661 1426.195 1427.629 1429.064 1430.733 1434.508 1436.404 1438.912 1441.723 1444.292 1443.72 1440.708 1437.765 1435.699 1434.147 1432.561 1429.43 1425.211 1422.125 1419.476 1415.733 1402.925 1395.39 
1172.829 1171.808 1171.737 1174.288 1181.801 1184.821 1189.079 1192.919 1196.336 1206.365 1212.304 1218.567 1223.651 1227.887 1232.441 1241.991 1246.62 1251.3 1255.853 1260.298 1269.423 1274.102 1278.245 1282.698 1285.951 1289.23 1295.507 1298.781 1301.629 1303.978 1306.647 1313.456 1315.707 1317.396 1318.919 1320.482 1322.327 1326.05 1327.978 1331.199 1335.778 1340.473 1348.028 1351.896 1355.88 1360.298 1364.578 1367.979 1373.956 1377.276 1380.659 1384.243 1388.124 1395.417 1398.478 1401.213 1400.858 1403.109 1405.17 1409.631 1411.813 1413.93 1416.022 1417.983 1421.354 1422.9 1424.405 1425.891 1427.426 1429.2 1433.141 1435.076 1437.022 1439.49 1442.199 1441.945 1439.194 1436.65 1434.838 1433.06 1431.354 1428.666 1424.903 1420.94 1416.984 1412.662 1399.203 1391.789 
1167.608 1167.828 1169.806 1173.811 1181.238 1184.19 1189.628 1193.726 1196.265 1200.345 1209.234 1216.338 1222.41 1227.205 1232.086 1240.594 1244.931 1249.452 1254.003 1258.458 1267.456 1272.46 1278.245 1280.672 1284.517 1287.698 1294.201 1296.997 1299.442 1301.552 1303.983 1310.022 1312.522 1314.479 1316 1317.405 1319.357 1324.926 1327.375 1330.516 1334.883 1339.628 1346.818 1350.056 1353.498 1357.501 1361.63 1365.283 1371.491 1374.612 1377.72 1381.304 1385.515 1392.876 1395.667 1398.328 1400.858 1399.842 1402.105 1406.864 1409.521 1412.081 1414.528 1416.564 1419.606 1421.167 1422.719 1424.206 1425.872 1427.865 1431.865 1433.805 1435.641 1437.694 1439.966 1440.083 1437.81 1435.599 1433.783 1431.821 1429.936 1425.677 1422.063 1417.95 1413.837 1408.654 1395.69 1388.74 
1163.962 1167.651 1171.263 1175.483 1183.817 1189.321 1194.593 1198.451 1201.995 1205.139 1206.559 1213.297 1220.315 1225.94 1231.136 1238.946 1242.922 1247.187 1251.688 1256.168 1260.498 1269.65 1275.458 1280.672 1283.601 1286.715 1293.52 1295.623 1297.296 1299.296 1302.031 1305.097 1309.976 1312.229 1314.011 1315.876 1318.317 1324.081 1326.831 1329.92 1333.869 1338.591 1342.844 1348.444 1351.59 1355.148 1358.91 1362.489 1368.689 1371.747 1374.978 1378.59 1382.645 1386.686 1392.705 1395.043 1397.441 1399.842 1398.969 1404.635 1407.424 1410.031 1412.576 1414.663 1416.125 1419.223 1421.012 1422.804 1424.674 1426.711 1430.592 1432.46 1434.388 1436.134 1437.887 1439.036 1436.601 1434.452 1432.272 1430.125 1428.102 1421.403 1417.792 1413.827 1409.999 1404.486 1398.667 1386.438 
1166.08 1170.388 1174.801 1179.356 1188.614 1194.806 1199.924 1204.901 1209.12 1210.991 1211.636 1214.838 1219.286 1224.779 1229.952 1237.154 1241.134 1244.799 1249.012 1253.65 1258.06 1266.727 1272.702 1279.101 1283.601 1285.548 1291.417 1292.925 1294.032 1296.048 1299.234 1302.712 1308.352 1310.723 1313.069 1315.47 1317.888 1323.001 1325.722 1328.523 1332.127 1336.419 1340.503 1346.782 1349.76 1353.033 1356.48 1359.83 1365.705 1368.816 1372.545 1376.476 1380.24 1383.755 1389.345 1391.323 1393.511 1396.202 1398.969 1402.849 1405.42 1407.639 1409.777 1411.771 1413.65 1417.308 1419.166 1421.235 1423.401 1425.544 1429.429 1431.311 1433.185 1434.776 1436.179 1437.009 1435.134 1432.813 1430.421 1428.302 1425.576 1416.486 1412.971 1409.337 1406.251 1401.05 1395.498 1384.726 
1169.273 1174.05 1178.809 1183.445 1187.771 1197.563 1202.518 1207.431 1212.57 1216.79 1219.839 1220.693 1222.341 1225.751 1229.264 1231.764 1239.954 1242.985 1246.391 1250.812 1255.413 1264.641 1270.378 1277.625 1282.779 1285.548 1285.829 1289.514 1290.719 1292.75 1296.482 1301.024 1307.375 1309.712 1312.256 1314.895 1317.434 1319.833 1324.662 1327.286 1330.104 1333.605 1337.803 1344.833 1347.796 1351.057 1354.373 1357.48 1360.367 1366.22 1370.1 1374.327 1378.234 1381.405 1385.944 1387.851 1389.994 1392.863 1396.192 1399.512 1402.91 1404.917 1406.73 1408.663 1410.815 1415.253 1417.239 1419.599 1422.008 1424.285 1426.437 1430.109 1431.888 1433.42 1434.489 1434.747 1432.74 1430.674 1428.593 1425.802 1421.934 1417.028 1407.657 1404.398 1401.162 1396.774 1392.276 1383.458 
1172.817 1177.834 1182.454 1186.505 1190.213 1198.844 1203.475 1208.548 1215.21 1220.965 1225.009 1227.521 1229.515 1230.765 1231.496 1232.623 1239.415 1241.614 1243.593 1247.434 1252.504 1262.54 1268.437 1275.569 1281.006 1283.793 1285.829 1286.497 1288.926 1291.321 1294.794 1299.366 1305.922 1308.539 1311.58 1314.43 1316.854 1319.066 1323.626 1326.133 1328.142 1330.457 1334.12 1342.406 1345.48 1348.785 1352.101 1355.194 1358.218 1364.451 1367.995 1372.043 1375.942 1379.024 1382.925 1384.886 1387.301 1390.069 1393.176 1396.623 1402.91 1401.381 1403.333 1405.225 1407.656 1413.067 1415.358 1417.891 1420.595 1423.107 1425.264 1429.007 1430.554 1431.864 1432.713 1432.877 1430.477 1428.409 1426.887 1423.127 1417.683 1412.683 1403.925 1400.227 1396.208 1392.485 1389.302 1382.891 
1175.814 1181.129 1185.152 1188.272 1191.738 1199.525 1203.605 1209.05 1215.981 1221.403 1227.65 1231.012 1233.109 1234.249 1235.828 1238.281 1242.054 1242.711 1242.972 1245.396 1250.171 1260.469 1266.754 1272.628 1277.597 1280.974 1282.809 1286.497 1288.065 1291.589 1294.846 1298.745 1304.827 1307.984 1311.591 1314.079 1315.805 1317.781 1322.575 1324.868 1326.884 1328.246 1330.652 1339.669 1343.049 1346.466 1349.982 1353.373 1356.615 1362.944 1366.212 1369.686 1373.202 1376.144 1379.736 1381.862 1384.386 1387.079 1389.82 1392.718 1398.882 1401.381 1399.527 1401.931 1404.61 1411.409 1414.265 1416.865 1419.371 1421.882 1424.237 1427.897 1429.357 1430.737 1431.039 1430.338 1429.198 1427.293 1424.53 1419.418 1413.124 1407.457 1399.2 1395.527 1391.948 1389.124 1386.993 1381.652 
1178.067 1182.69 1186.215 1189.149 1192.279 1199.399 1203.398 1208.683 1215.382 1220.797 1223.914 1230.977 1233.369 1234.886 1237.368 1241.051 1244.806 1245.115 1245.584 1247.002 1250.011 1254.288 1264.07 1268.529 1271.984 1274.986 1277.823 1283.591 1288.065 1292.284 1295.864 1299.692 1303.516 1309.657 1313.19 1315.049 1315.912 1317.243 1321.888 1324.299 1326.14 1327.878 1330.226 1333.739 1340.832 1344.131 1348.005 1351.761 1355.054 1361.262 1364.502 1367.682 1370.587 1373.024 1374.941 1378.762 1381.36 1383.997 1386.481 1388.886 1393.762 1396.632 1399.527 1399.88 1403.038 1406.496 1413.071 1415.841 1418.342 1420.875 1423.295 1426.864 1428.632 1429.369 1429.332 1428.727 1428.095 1425.777 1421.642 1415.828 1410.349 1404.471 1395.568 1392.148 1389.648 1387.385 1385.552 1383.34 
1179.375 1183.556 1186.601 1189.466 1192.69 1199.171 1202.884 1207.399 1213.947 1219.342 1221.886 1229.921 1232.988 1233.997 1234.784 1237.367 1244.053 1245.129 1245.764 1246.676 1248.97 1252.855 1260.179 1263.665 1266.26 1268.745 1272.884 1282.455 1287.865 1292.284 1296.652 1301.181 1305.647 1312.49 1315.971 1317.754 1318.29 1318.685 1321.365 1323.693 1326.171 1328.52 1330.952 1333.703 1340.013 1343.352 1346.688 1349.994 1353.129 1359.068 1362.425 1365.978 1368.483 1370.2 1372.03 1376.05 1378.557 1380.965 1383.182 1385.434 1389.491 1392.422 1396.315 1399.88 1401.901 1405.212 1411.745 1414.753 1417.337 1419.685 1421.869 1425.927 1427.194 1428.273 1428.539 1428.217 1427.644 1423.996 1419.528 1414.201 1409.147 1402.978 1394.591 1391.351 1389.403 1387.146 1384.833 1381.648 
1180.113 1184.01 1186.953 1189.796 1192.909 1196.028 1202.09 1205.11 1209.496 1214.081 1217.293 1223.248 1226.432 1228.215 1229.201 1230.17 1231.726 1237.799 1240.967 1243.219 1245.365 1248.865 1256.115 1259.66 1263.632 1267.194 1271.806 1277.976 1287.751 1292.479 1296.652 1301.747 1306.156 1314.545 1317.538 1318.486 1319.066 1319.453 1319.404 1322.444 1325.491 1328.525 1331.05 1333.39 1339.754 1342.888 1345.314 1347.932 1350.841 1353.591 1359.561 1362.738 1365.328 1367.3 1369.199 1373.256 1375.495 1377.655 1379.695 1381.948 1384.655 1390.849 1394.644 1398.444 1401.901 1404.033 1410.346 1413.389 1415.957 1418.224 1420.463 1422.741 1426.245 1427.453 1428.182 1428.155 1427.208 1422.432 1418.919 1414.703 1409.697 1402.911 1397.818 1392.155 1390.897 1387.911 1384.671 1380.556 
1179.989 1184.214 1186.979 1189.738 1192.958 1196.022 1201.058 1203.457 1206.344 1209.302 1211.622 1214.677 1215.824 1217.262 1218.803 1220.33 1222.89 1230.737 1233.021 1237.795 1242.391 1245.866 1255.626 1259.422 1264.03 1268.485 1273.075 1278.507 1287.799 1292.19 1296.758 1301.747 1304.703 1313.153 1316.414 1317.227 1316.905 1316.742 1317.133 1320.885 1324.238 1327.156 1329.563 1331.939 1338.256 1341.427 1343.715 1345.608 1347.961 1350.893 1356.499 1359.222 1361.809 1364.311 1366.689 1369.949 1371.77 1374.21 1376.532 1379.065 1382.603 1390.495 1393.764 1397.093 1400.624 1404.033 1408.486 1411.405 1414.084 1416.546 1419.191 1421.922 1425.796 1427.128 1427.901 1427.961 1426.975 1422.619 1419.736 1416.481 1411.967 1405.52 1400.552 1394.469 1392.842 1388.625 1384.458 1379.746 
1177.37 1182.685 1186.252 1188.711 1191.192 1193.976 1198.606 1199.915 1201.547 1202.882 1203.757 1206.314 1207.718 1209.338 1214.437 1219.461 1222.169 1230.83 1233.958 1239.405 1244.501 1248.368 1257.812 1261.244 1265.42 1269.759 1274.122 1278.793 1287.229 1291.271 1295.717 1300.514 1304.703 1308.762 1312.156 1313.675 1313.852 1313.938 1314.795 1319.452 1322.249 1324.927 1327.508 1330.114 1335.846 1338.709 1341.134 1342.938 1344.878 1347.534 1353.348 1355.987 1358.344 1360.882 1363.369 1366.037 1367.413 1370.84 1374.601 1377.944 1381.597 1389.635 1392.819 1395.709 1399.051 1402.574 1408.486 1409.206 1412.108 1414.867 1417.883 1421.127 1425.76 1427.065 1427.709 1427.715 1426.782 1422.927 1420.633 1417.926 1414.69 1409.898 1404.452 1397.001 1393.384 1389.059 1384.218 1379.183 
1170.868 1177.506 1182.354 1185.697 1187.187 1188.464 1192.643 1194.086 1194.961 1195.43 1195.322 1196.589 1206.898 1213.833 1220.302 1224.922 1228.802 1235.84 1240.946 1245.202 1248.404 1252.384 1256.86 1262.385 1265.865 1269.801 1273.947 1278.218 1285.942 1289.745 1293.714 1297.874 1301.8 1305.244 1307.333 1309.031 1310.095 1311.144 1312.855 1317.859 1320.303 1322.898 1325.53 1328.101 1330.632 1335.528 1337.72 1339.506 1341.406 1343.921 1349.944 1352.774 1354.912 1356.828 1358.983 1361.231 1365.977 1369.557 1373.705 1377.653 1381.032 1387.707 1390.862 1393.661 1396.873 1400.369 1403.484 1409.206 1410.868 1414.025 1417.214 1420.648 1425.77 1426.942 1427.493 1427.363 1426.562 1425.094 1421.018 1418.695 1416.125 1412.814 1408.718 1399.824 1393.541 1389.114 1384.607 1379.755 
1171.875 1172.789 1177.326 1181.956 1183.882 1183.749 1183.711 1185.352 1188.491 1192.298 1195.442 1199.355 1212.934 1220.432 1226.034 1230.188 1233.507 1239.771 1243.754 1246.63 1249.638 1253.439 1256.974 1262.251 1265.446 1269.185 1273.216 1277.243 1284.381 1287.836 1291.141 1294.665 1298.341 1301.709 1304.054 1305.465 1306.275 1307.626 1309.974 1315.639 1318.283 1320.866 1323.428 1325.841 1328.056 1332.403 1334.161 1336.271 1338.533 1340.76 1345.897 1348.901 1351.341 1353.031 1355.24 1358.965 1366.678 1369.669 1373.117 1376.525 1379.289 1384.981 1388.057 1390.886 1394.129 1397.749 1400.966 1407.201 1410.868 1414.316 1417.289 1420.305 1425.508 1426.76 1427.155 1426.866 1426.036 1424.724 1420.879 1418.722 1416.754 1414.708 1411.769 1402.295 1394.342 1389.083 1385.176 1380.687 
1171.875 1177.57 1180.138 1182.008 1182.421 1182.267 1181.776 1184.372 1188.289 1193.066 1197.456 1202.277 1216.68 1222.048 1227.093 1231.302 1233.938 1236.03 1241.521 1244.355 1248.119 1251.953 1255.081 1261.224 1264.881 1268.537 1272.19 1275.952 1279.601 1285.673 1288.578 1291.617 1294.872 1298.203 1304.054 1300.721 1301.86 1303.765 1306.696 1309.92 1316.348 1319.084 1321.153 1323.141 1325.287 1329.09 1330.732 1332.462 1335.189 1338.162 1340.146 1345.512 1348.997 1351.925 1354.907 1358.687 1366.985 1369.583 1371.996 1374.604 1377.042 1379.291 1385.421 1388.643 1391.988 1395.826 1399.474 1406.315 1410.698 1414.316 1417.471 1420.099 1424.967 1426.117 1426.724 1426.454 1425.486 1423.958 1420.268 1418.36 1416.682 1414.983 1412.158 1403.001 1395.324 1389.831 1385.895 1381.902 
1178.358 1177.57 1185.106 1184.667 1184.561 1184.792 1184.29 1185.672 1189.356 1193.753 1198.377 1203.255 1216.479 1221.593 1226.102 1229.741 1232.37 1234.825 1239.705 1242.59 1246.202 1249.807 1253.021 1259.714 1263.475 1267.156 1270.587 1274.176 1277.882 1283.537 1286.14 1288.745 1291.384 1294.204 1299.212 1300.721 1296.665 1299.852 1303.441 1306.837 1313.648 1316.818 1318.832 1320.294 1321.998 1325.967 1327.54 1329.183 1332.32 1335.807 1338.416 1344.416 1347.133 1351.573 1355.765 1358.624 1365.199 1367.617 1370.249 1373.139 1375.474 1377.236 1383.839 1388.146 1391.789 1395.432 1399.351 1406.827 1411.025 1414.637 1417.471 1419.871 1422.335 1425.387 1426.003 1425.858 1424.778 1423.232 1419.771 1417.901 1416.018 1414.099 1410.785 1408.005 1395.979 1390.084 1385.885 1382.086 
1183.244 1185.26 1185.106 1187.2 1188.674 1191.471 1193.502 1190.703 1191.307 1194.404 1198.95 1203.868 1215.688 1220.32 1224.317 1227.571 1230.362 1233.128 1238.413 1241.372 1244.581 1247.815 1251.089 1257.608 1261.224 1265.04 1268.392 1271.667 1275.328 1281.388 1283.543 1285.611 1287.763 1289.963 1293.301 1294.473 1296.665 1295.359 1299.295 1302.906 1308.698 1312.266 1315.135 1316.779 1318.176 1324.595 1328.298 1331.005 1332.911 1334.418 1336.262 1341.427 1344.126 1348.765 1353.168 1356.757 1364.436 1367.045 1369.928 1372.878 1375.056 1376.727 1383.653 1388.733 1392.728 1396.204 1400.046 1407.787 1411.727 1414.981 1417.483 1419.871 1421.79 1424.829 1425.343 1425.53 1424.874 1423.062 1419.308 1417.256 1414.985 1412.193 1407.9 1404.818 1395.246 1389.993 1384.927 1380.726 
1180.578 1182.594 1185.919 1187.2 1191.146 1194.071 1196.661 1196.337 1195.536 1197.105 1201.08 1205.875 1210.565 1219.556 1222.962 1225.897 1228.747 1231.508 1236.894 1239.703 1242.528 1245.459 1248.596 1251.824 1258.072 1261.677 1265.159 1268.455 1271.942 1278.569 1280.798 1282.541 1284.068 1285.445 1286.695 1288.957 1291.667 1295.359 1294.102 1296.937 1302.36 1305.08 1308.85 1312.521 1315.776 1319.464 1328.699 1331.364 1332.301 1332.645 1332.847 1337.959 1341.584 1346.789 1352.76 1357.676 1361.966 1369.161 1371.531 1374.547 1376.891 1377.964 1384.491 1389.496 1393.488 1397.189 1401.147 1404.945 1412.362 1415.324 1417.617 1419.731 1421.497 1424.565 1425.305 1425.574 1424.911 1423.23 1421.02 1416.251 1413.695 1410.193 1405.317 1401.98 1393.133 1388.367 1383.272 1378.926 
1178.015 1180.384 1183.834 1187.711 1191.146 1194.372 1196.74 1199.274 1200.994 1202.883 1205.037 1207.995 1211.775 1218.892 1221.422 1224.133 1227.025 1229.615 1234.378 1237.197 1239.998 1242.747 1245.562 1248.531 1254.368 1257.607 1261.187 1264.573 1267.642 1273.781 1276.576 1278.84 1280.374 1281.148 1281.573 1284.486 1287.513 1290.96 1294.102 1291.345 1296.724 1300.906 1305.43 1310.295 1315.607 1319.803 1323.988 1326.593 1328.808 1330.121 1330.643 1337.036 1342.534 1348.605 1354.751 1359.802 1363.931 1371.013 1373.954 1377.25 1379.738 1381.136 1386.318 1390.215 1394.048 1397.874 1401.658 1405.288 1412.732 1415.562 1417.852 1419.747 1421.497 1424.801 1425.636 1426.09 1425.437 1423.723 1421.301 1415.197 1411.944 1407.514 1402.679 1399.37 1390.417 1386.116 1381.259 1376.882 
1176.387 1179.44 1183.616 1188.214 1191.948 1194.372 1197.28 1198.82 1202.129 1204.572 1206.757 1208.792 1211.439 1216.735 1218.882 1221.567 1224.379 1226.995 1229.48 1234.557 1237.19 1239.955 1242.399 1244.568 1250.43 1253.437 1256.536 1259.632 1262.579 1268.089 1270.709 1273.296 1275.226 1276.249 1276.8 1280.281 1283.211 1286.324 1289.048 1291.345 1294.769 1299.983 1304.882 1308.495 1312.495 1316.776 1319.48 1320.477 1324.421 1329.169 1332.647 1341.017 1346.401 1351.845 1356.961 1361.308 1364.959 1371.847 1375.602 1379.21 1382.038 1384.196 1388.944 1391.813 1394.984 1398.448 1401.672 1404.974 1413.239 1416.141 1418.354 1420.297 1422.051 1424.801 1426.26 1426.776 1426.219 1424.303 1421.618 1414.174 1409.883 1404.189 1399.657 1396.917 1388.256 1384.078 1379.467 1375.536 
1175.808 1179.594 1186.107 1189.85 1193.447 1195.769 1197.28 1198.277 1201.646 1203.492 1204.995 1206.976 1209.496 1213.871 1216.073 1218.684 1221.494 1224.222 1226.816 1231.605 1234.009 1236.348 1238.39 1240.443 1246.309 1249.23 1251.888 1254.581 1257.151 1259.545 1264.776 1267.521 1269.545 1270.74 1271.683 1276.484 1279.543 1282.28 1285.2 1288.376 1291.469 1298.998 1302.627 1305.771 1308.515 1312.045 1319.986 1322.785 1326.693 1331.059 1335.323 1339.908 1350.294 1355.488 1359.403 1362.668 1365.753 1372.717 1376.595 1379.975 1383.147 1386.38 1389.439 1394.444 1396.901 1399.376 1401.664 1404.737 1413.783 1416.776 1419.251 1421.415 1423.184 1424.561 1426.26 1427.54 1426.868 1424.898 1421.809 1414.125 1408.325 1402.125 1397.427 1394.673 1390.566 1382.483 1378.534 1375.089 
1175.658 1179.564 1186.724 1190.646 1194.254 1196.158 1197.105 1198.277 1200.304 1201.971 1203.446 1205.23 1207.429 1211.523 1213.391 1215.719 1218.068 1220.3 1222.687 1227.719 1229.816 1231.96 1234.349 1236.863 1242.382 1244.676 1246.899 1249.163 1251.466 1253.74 1258.47 1260.994 1263.253 1265.223 1267.205 1273.865 1277.274 1280.254 1283.621 1287.439 1291.41 1298.998 1302.711 1306.032 1309.134 1313.06 1321.503 1324.969 1328.309 1332.024 1336.686 1342.329 1352.941 1357.72 1361.342 1364.342 1367.421 1374.085 1377.752 1381.06 1384.396 1387.974 1391.46 1397.125 1399.604 1401.529 1403.245 1406.143 1414.387 1417.488 1420.508 1422.892 1424.436 1425.507 1427.028 1427.54 1427.084 1424.96 1421.955 1413.745 1407.526 1400.732 1395.772 1392.85 1388.943 1381.12 1377.484 1373.579 
1174.648 1178.162 1181.671 1188.614 1192.052 1194.233 1195.491 1196.797 1200.304 1200.648 1202.1 1203.901 1206.092 1208.112 1210.588 1212.105 1213.905 1215.12 1216.068 1220.397 1223.638 1227.187 1230.654 1233.691 1236.07 1239.953 1241.887 1243.937 1246.047 1248.209 1252.728 1255.155 1257.688 1260.081 1263.148 1267.528 1276.082 1279.778 1283.538 1287.486 1291.446 1298.168 1302.711 1309.682 1312.691 1315.907 1318.621 1325.934 1329.665 1333.291 1337.627 1342.716 1353.359 1357.896 1361.862 1365.789 1369.21 1371.978 1378.903 1382.079 1385.296 1388.802 1392.302 1399.709 1402.735 1404.978 1407.11 1409.825 1412.921 1419.045 1422.15 1424.183 1425.453 1426.372 1427.812 1428.176 1427.084 1424.62 1421.568 1417.91 1405.911 1399.746 1393.169 1390.334 1386.623 1379.365 1374.662 1370.514 
1172.065 1175.124 1178.372 1184.443 1187.834 1190.877 1193.402 1195.599 1199.183 1200.648 1200.24 1202.202 1204.663 1206.777 1206.982 1206.257 1206.839 1207.744 1208.485 1211.875 1215.419 1220.488 1225.93 1230.321 1232.974 1235.426 1236.32 1237.811 1240.015 1242.8 1247.434 1250.374 1254.748 1258.046 1260.99 1265.819 1275.285 1279.306 1283.036 1288.296 1294.045 1302.219 1306.65 1309.682 1317.992 1319.907 1321.07 1326.855 1330.571 1334.194 1338.129 1342.41 1352.469 1357.197 1361.355 1365.176 1368.666 1372.087 1378.943 1382.26 1385.65 1389.183 1392.961 1401.213 1404.714 1407.704 1410.685 1413.631 1416.377 1421.803 1424.082 1425.692 1426.639 1427.267 1428.225 1428.145 1426.966 1424.62 1420.445 1416.671 1403.398 1398.075 1393.202 1387.325 1382.888 1376.11 1371.994 1367.691 
1168.391 1171.365 1174.587 1180.32 1183.479 1187.558 1191.767 1195.077 1197.992 1199.013 1200.24 1199.252 1201.513 1203.436 1202.946 1201.267 1200.349 1200.488 1201.57 1206.876 1210.649 1214.807 1218.386 1220.99 1222.855 1227.154 1229.41 1231.797 1234.877 1238.877 1246.694 1251.064 1256.521 1260.553 1263.761 1267.7 1276.258 1280.835 1285.489 1291.722 1298.621 1308.02 1311.76 1314.981 1317.992 1322.959 1324.498 1328.859 1332.073 1335.813 1339.216 1342.583 1351.695 1356.528 1360.795 1364.351 1367.91 1371.561 1378.304 1382.049 1385.721 1389.521 1393.709 1401.806 1405.81 1409.376 1412.431 1415.48 1418.608 1424.149 1426.385 1427.589 1428.419 1428.966 1428.62 1428.239 1426.718 1423.852 1420.445 1413.865 1400.82 1398.326 1393.957 1387.263 1381.258 1373.542 1370.049 1366.172 
1165.294 1168.417 1171.591 1177.528 1180.858 1184.723 1188.898 1192.304 1194.474 1196.389 1197.45 1193.739 1195.376 1196.572 1197.366 1195.959 1194.743 1194.955 1196.759 1199.44 1205.905 1209.474 1211.912 1213.885 1215.917 1220.675 1224.763 1229.255 1233.844 1238.863 1244.046 1253.607 1258.676 1263.032 1267.106 1271.136 1278.977 1284.442 1289.658 1295.795 1302.015 1307.054 1314.846 1318.306 1321.054 1322.959 1327.55 1332.164 1335.017 1338.449 1341.135 1344.219 1347.651 1356.592 1360.404 1363.855 1367.396 1370.817 1377.716 1381.837 1385.777 1390.02 1394.692 1399.107 1406.931 1409.953 1412.852 1416.403 1420.008 1425.516 1427.656 1429.311 1429.993 1429.901 1429.5 1427.81 1425.724 1422.262 1418.397 1413.865 1401.678 1398.663 1394.979 1387.148 1379.754 1376.672 1369.514 1365.875 
1163.65 1167.02 1170.213 1175.228 1178.316 1181.494 1184.817 1187.726 1189.581 1191.181 1192.245 1193.739 1186.596 1187.854 1189.76 1188.566 1188.725 1190.188 1193.415 1196.996 1203.511 1205.987 1207.599 1209.144 1212.086 1219.738 1224.166 1229.67 1234.851 1240.513 1245.99 1255.544 1260.342 1264.69 1269.145 1273.547 1282.691 1288.267 1293.656 1298.842 1303.8 1308.028 1315.364 1319.067 1322.175 1325.033 1327.55 1334.659 1337.139 1339.864 1342.475 1345.375 1348.258 1356.301 1360.377 1363.955 1367.447 1370.894 1378.066 1382.071 1386.11 1390.506 1395.355 1399.808 1406.643 1409.601 1412.602 1416.047 1419.59 1425.837 1428.628 1430.639 1431.309 1431.054 1430.724 1428.521 1425.96 1421.914 1417.414 1412.699 1401.678 1397.36 1392.784 1386.422 1382.919 1377.51 1371.076 1367.811 
1162.778 1165.774 1168.438 1170.573 1175.424 1177.955 1180.706 1182.649 1183.646 1183.838 1184.374 1185.402 1186.596 1180.109 1182.149 1185.448 1187.288 1189.671 1193.263 1197.298 1203.29 1205.318 1207.21 1209.277 1212.657 1217.489 1225.666 1230.692 1235.928 1241.507 1246.875 1256.152 1260.682 1264.858 1269.243 1273.883 1278.999 1289.987 1295.418 1300.375 1304.987 1308.972 1316.208 1320.067 1323.366 1326.737 1329.747 1332.366 1339.263 1341.17 1343.382 1346.224 1349.167 1356.53 1360.926 1364.67 1368.245 1371.888 1375.667 1382.936 1386.974 1391.091 1395.807 1400.294 1406.003 1408.537 1411.589 1414.913 1418.148 1421.462 1428.628 1430.678 1431.79 1432.252 1432.272 1430.356 1428.002 1423.408 1418.173 1412.936 1407.582 1397.36 1391.852 1386.718 1383.487 1379.928 1374.126 1371.49 
