NCOLS 41
NROWS 41
XLLCORNER 282315.66
YLLCORNER 4055256.8
CELLSIZE 10
NODATA_VALUE -9999
110.2025 110.1968 110.1943 110.2018 110.2005 110.1935 110.194 110.2017 110.2002 110.1998 110.2055 110.211 110.2131 110.213 110.213 110.213 110.2129 110.2142 110.2178 110.2169 110.2265 110.2383 110.2483 110.2478 110.248 110.2445 110.2389 110.2355 110.2286 110.2257 110.2295 110.2421 110.2562 110.2655 110.2906 110.303 110.3165 110.3255 110.3415 110.3683 110.3798 
110.1911 110.1919 110.1924 110.1897 110.1814 110.1849 110.1825 110.1886 110.1899 110.1897 110.2055 110.211 110.2102 110.2094 110.2095 110.2092 110.2085 110.2071 110.2079 110.2172 110.2292 110.2364 110.2382 110.2376 110.2322 110.2197 110.2186 110.2187 110.2166 110.2155 110.2185 110.2303 110.2459 110.254 110.2796 110.2918 110.3058 110.3146 110.3305 110.3581 110.3694 
110.1814 110.1812 110.1815 110.1798 110.1719 110.1755 110.1683 110.171 110.1793 110.1897 110.1905 110.1926 110.1972 110.2031 110.2001 110.1965 110.201 110.2079 110.2034 110.2099 110.2199 110.221 110.2206 110.2202 110.2061 110.2065 110.2042 110.1974 110.197 110.195 110.2033 110.2177 110.2265 110.242 110.269 110.2809 110.2952 110.3038 110.3196 110.3535 110.3655 
110.1767 110.1703 110.1707 110.168 110.1612 110.1653 110.1582 110.1611 110.1793 110.1798 110.1768 110.1752 110.1803 110.1886 110.1838 110.1959 110.2006 110.2028 110.2034 110.2056 110.2069 110.2072 110.2071 110.2004 110.1972 110.1931 110.1865 110.1852 110.1857 110.1842 110.1874 110.1987 110.2148 110.2313 110.2585 110.2701 110.2845 110.2931 110.3087 110.3416 110.3582 
110.1663 110.1606 110.1584 110.1498 110.1513 110.1567 110.1529 110.1611 110.1692 110.1696 110.1729 110.1733 110.169 110.1753 110.1883 110.1948 110.1921 110.1934 110.1973 110.1975 110.1985 110.1938 110.1815 110.1783 110.1779 110.1769 110.1763 110.175 110.1672 110.1699 110.1775 110.1873 110.2041 110.2207 110.2422 110.2598 110.274 110.2824 110.2978 110.3309 110.3467 
110.1562 110.1502 110.1487 110.1432 110.1488 110.1497 110.1529 110.1532 110.1552 110.1582 110.16 110.1628 110.1654 110.1784 110.1811 110.1829 110.1847 110.1876 110.1872 110.1832 110.1802 110.1759 110.1659 110.1653 110.1664 110.1627 110.1561 110.1557 110.1547 110.1533 110.1597 110.1774 110.1929 110.2013 110.2321 110.2488 110.2628 110.2716 110.3037 110.3201 110.3359 
110.1454 110.1393 110.1399 110.1405 110.1391 110.1497 110.1505 110.1481 110.1423 110.1532 110.155 110.16 110.1634 110.1622 110.1673 110.1683 110.1731 110.1776 110.1772 110.1671 110.1609 110.1648 110.1562 110.1553 110.1513 110.1451 110.1447 110.1451 110.145 110.1376 110.1464 110.1559 110.1721 110.1886 110.2214 110.2342 110.2434 110.2599 110.2929 110.3095 110.3247 
110.1359 110.1328 110.1322 110.1294 110.1391 110.1387 110.1399 110.1427 110.1435 110.149 110.1501 110.155 110.1583 110.1535 110.1576 110.1567 110.1569 110.1607 110.1674 110.1471 110.1463 110.1476 110.1466 110.1463 110.1351 110.1357 110.1335 110.1255 110.1241 110.1222 110.1278 110.145 110.1616 110.1875 110.1992 110.2163 110.2331 110.2494 110.2812 110.2969 110.311 
110.1317 110.1307 110.1296 110.1294 110.1315 110.1305 110.1308 110.1392 110.1389 110.137 110.1423 110.1472 110.1427 110.1475 110.1469 110.1471 110.1476 110.1469 110.1426 110.1357 110.137 110.1347 110.1274 110.1261 110.1207 110.1146 110.1146 110.1139 110.1135 110.1118 110.1169 110.1341 110.1501 110.1724 110.1897 110.206 110.2223 110.2386 110.2643 110.2755 110.2955 
110.126 110.1188 110.1296 110.1233 110.1251 110.1274 110.1236 110.1285 110.1323 110.1298 110.1317 110.1364 110.1276 110.1297 110.1387 110.1349 110.1293 110.1293 110.1263 110.1224 110.1167 110.1164 110.1151 110.1092 110.104 110.104 110.1043 110.1037 110.0916 110.096 110.1041 110.1131 110.129 110.1619 110.1774 110.194 110.2117 110.2281 110.2506 110.2662 110.285 
110.126 110.1188 110.1189 110.1194 110.1149 110.1189 110.1184 110.1184 110.127 110.119 110.1188 110.1207 110.1173 110.1164 110.1198 110.1199 110.1162 110.1098 110.1118 110.1055 110.1049 110.105 110.1046 110.0938 110.0947 110.0917 110.0837 110.083 110.0826 110.0809 110.0852 110.1023 110.1183 110.1455 110.1561 110.1751 110.1984 110.2152 110.2443 110.2554 110.2734 
110.1179 110.109 110.1124 110.1131 110.1132 110.1108 110.1081 110.113 110.1173 110.1095 110.1061 110.1067 110.1067 110.113 110.1089 110.0955 110.0899 110.0875 110.0931 110.0959 110.0949 110.0954 110.0949 110.0843 110.0802 110.0731 110.073 110.0728 110.066 110.0635 110.0753 110.0902 110.099 110.1304 110.1473 110.1634 110.1791 110.1956 110.2252 110.2434 110.2734 
110.1117 110.1035 110.109 110.1097 110.1065 110.1075 110.1039 110.1084 110.1081 110.1065 110.1021 110.0967 110.0965 110.0943 110.0891 110.083 110.0754 110.075 110.075 110.0802 110.0835 110.0756 110.0749 110.0631 110.0634 110.0634 110.062 110.0538 110.0512 110.0542 110.0617 110.0707 110.0869 110.1201 110.1365 110.1529 110.1693 110.1938 110.2063 110.2434 110.2617 
110.1006 110.0993 110.0986 110.0948 110.0922 110.0945 110.0973 110.0916 110.0957 110.0956 110.089 110.0868 110.0871 110.0765 110.0763 110.0741 110.0656 110.0648 110.0649 110.0654 110.0657 110.0638 110.0556 110.0532 110.0534 110.0508 110.0427 110.0417 110.0408 110.0395 110.0429 110.0597 110.0909 110.1072 110.1233 110.1397 110.1555 110.1802 110.2063 110.2257 110.247 
110.0988 110.0878 110.088 110.0852 110.0787 110.0791 110.087 110.0836 110.0786 110.0783 110.0759 110.0766 110.0697 110.062 110.0639 110.0562 110.055 110.0554 110.0499 110.0441 110.0444 110.0442 110.0436 110.0435 110.0393 110.0319 110.032 110.0246 110.0194 110.0225 110.033 110.0475 110.0706 110.0876 110.1039 110.1203 110.1367 110.1802 110.1975 110.2136 110.2291 
110.0952 110.0823 110.0777 110.0748 110.0728 110.0742 110.0774 110.0775 110.0641 110.07 110.0725 110.059 110.0563 110.0511 110.0463 110.0452 110.0443 110.0365 110.0344 110.0344 110.0324 110.024 110.0223 110.0284 110.0215 110.0221 110.0209 110.0106 110.01 110.0112 110.0194 110.0285 110.0615 110.0779 110.0943 110.1107 110.1367 110.1703 110.1867 110.2031 110.2193 
110.0863 110.0784 110.0735 110.067 110.0679 110.0675 110.067 110.0668 110.0634 110.0601 110.05 110.046 110.0388 110.0317 110.0281 110.035 110.0353 110.0345 110.0237 110.0208 110.0132 110.0128 110.012 110.0114 110.0117 110.0099 110.0019 110.001 109.9949 109.9907 110.0007 110.0176 110.0476 110.064 110.0943 110.1107 110.1271 110.1595 110.1759 110.1923 110.2085 
110.0758 110.0682 110.0679 110.0598 110.0567 110.0568 110.0569 110.0574 110.0501 110.0457 110.0347 110.0277 110.0256 110.0137 110.0181 110.0238 110.0159 110.0138 110.0141 110.0107 110.0029 110.0023 109.9959 109.9907 109.991 109.9909 109.9912 109.984 109.9791 109.9812 109.9886 110.0042 110.0283 110.064 110.0801 110.0962 110.1122 110.1493 110.1651 110.1816 110.1978 
110.0666 110.0573 110.0563 110.0523 110.0461 110.047 110.0471 110.0416 110.0278 110.0248 110.0168 110.0151 110.0147 110.0095 110.0041 110.0046 110.0039 110.004 109.999 109.9925 109.9913 109.9831 109.9817 109.9813 109.9801 109.9799 109.9795 109.9685 109.968 109.9672 109.9695 109.9849 110.0283 110.0453 110.0617 110.078 110.0942 110.1364 110.1555 110.1721 110.1884 
110.0515 110.053 110.0534 110.0415 110.0364 110.0357 110.0291 110.0155 110.0161 110.0124 110.0044 110.0046 110.0052 110.0002 109.9935 109.9937 109.9937 109.9943 109.9852 109.9716 109.9716 109.9719 109.9716 109.9667 109.96 109.96 109.96 109.9536 109.9481 109.9503 109.9595 109.9849 110.0193 110.0359 110.0526 110.069 110.1011 110.1208 110.1387 110.15 110.1654 
110.0439 110.047 110.0384 110.0314 110.0256 110.0249 110.0168 110.0086 110.0051 110.006 110.0035 109.9957 109.9952 109.9904 109.9837 109.9826 109.9745 109.9778 109.972 109.9702 109.9622 109.9606 109.9552 109.95 109.9505 109.9489 109.9484 109.9393 109.9387 109.9375 109.9595 109.9882 110.0051 110.02 110.0327 110.0485 110.0811 110.0971 110.1106 110.1234 110.1452 
110.0385 110.0376 110.0258 110.0261 110.0228 110.0149 110.0067 110.0003 109.991 109.9857 109.9855 109.9845 109.9788 109.9737 109.9715 109.9635 109.9625 109.9624 109.9583 109.9515 109.951 109.9427 109.9406 109.9407 109.9373 109.9301 109.928 109.9272 109.9241 109.9375 109.9453 109.9704 109.9857 109.997 110.009 110.0256 110.0527 110.0688 110.0873 110.1092 110.1238 
110.0194 110.0194 110.0177 110.0144 110.0077 110.0048 109.9967 109.9904 109.9799 109.9732 109.9745 109.9742 109.9685 109.9626 109.9633 109.9626 109.9547 109.9408 109.9414 109.9416 109.94 109.9305 109.9305 109.9259 109.9195 109.92 109.9118 109.9084 109.9241 109.9193 109.9272 109.9587 109.9695 109.9826 109.9996 110.0116 110.0381 110.0554 110.0714 110.0849 110.0972 
110.0129 110.0068 109.9976 109.9911 109.9969 109.9955 109.9868 109.9789 109.9783 109.9783 109.9562 109.9609 109.9584 109.9523 109.9528 109.9519 109.9351 109.9305 109.9312 109.9299 109.9213 109.9202 109.9145 109.9092 109.91 109.9074 109.8989 109.9084 109.9075 109.9064 109.9174 109.9413 109.9556 109.9721 109.9834 109.9951 110.0253 110.0381 110.0536 110.0665 110.0828 
110.0061 109.9985 109.9807 109.9751 109.9771 109.9771 109.9758 109.9694 109.9644 109.9631 109.9542 109.9468 109.9421 109.9431 109.9411 109.9327 109.926 109.9156 109.9125 109.9184 109.9119 109.903 109.8992 109.8999 109.8963 109.8896 109.8989 109.8987 109.893 109.8892 109.9016 109.9287 109.9443 109.9552 109.9677 109.9849 110.0084 110.0229 110.0396 110.0563 110.0726 
109.9965 109.9814 109.9708 109.9652 109.9642 109.9564 109.9552 109.9613 109.9505 109.9436 109.9432 109.9367 109.9318 109.9326 109.9307 109.9227 109.9111 109.9073 109.9002 109.9001 109.9005 109.8891 109.8895 109.8851 109.8963 109.8896 109.888 109.8824 109.8776 109.8791 109.8862 109.9166 109.9278 109.9411 109.9577 109.9697 109.9967 110.0139 110.0309 110.0472 110.081 
109.9709 109.9659 109.956 109.9524 109.9458 109.9441 109.9336 109.9393 109.9416 109.9333 109.9328 109.9266 109.9221 109.9196 109.9115 109.9103 109.9002 109.8962 109.8899 109.8884 109.888 109.8785 109.874 109.8851 109.8792 109.8793 109.8714 109.8685 109.8679 109.8642 109.8707 109.897 109.9071 109.9247 109.9409 109.9618 109.9798 109.9939 110.0039 110.0197 110.0475 
109.9563 109.9489 109.9448 109.942 109.9346 109.9338 109.923 109.9235 109.9232 109.9229 109.9227 109.9166 109.9114 109.9093 109.9009 109.8917 109.8852 109.8799 109.8785 109.8698 109.8689 109.8624 109.874 109.8679 109.8659 109.8655 109.856 109.8542 109.8526 109.8484 109.8702 109.882 109.8924 109.9089 109.9196 109.949 109.9624 109.9728 109.9882 110.0052 110.0223 
109.9451 109.9392 109.9347 109.9324 109.9244 109.9236 109.9126 109.9131 109.9127 109.9125 109.912 109.907 109.8973 109.8907 109.8905 109.884 109.8744 109.8694 109.8665 109.8603 109.8573 109.8624 109.8589 109.8578 109.849 109.8463 109.8408 109.8376 109.837 109.8333 109.8563 109.8685 109.8813 109.8918 109.9049 109.9353 109.9473 109.9606 109.9704 109.979 109.9972 
109.9346 109.9249 109.9207 109.9141 109.9138 109.9137 109.903 109.8986 109.894 109.9006 109.8929 109.8914 109.8883 109.8809 109.8809 109.8804 109.8605 109.8567 109.8492 109.8493 109.8512 109.8487 109.8487 109.8444 109.8391 109.8297 109.828 109.8275 109.8217 109.8174 109.8407 109.8529 109.8637 109.8778 109.8957 109.9097 109.9172 109.932 109.94 109.9545 109.9867 
109.9253 109.9144 109.9108 109.9033 109.9035 109.9035 109.8925 109.8889 109.8821 109.8809 109.8729 109.8749 109.8761 109.8694 109.8683 109.8589 109.8554 109.847 109.8393 109.8493 109.8386 109.8382 109.8329 109.8283 109.8287 109.8179 109.8168 109.811 109.807 109.8077 109.8238 109.8362 109.8519 109.8677 109.8714 109.8921 109.9022 109.9179 109.9252 109.934 109.9608 
109.9066 109.899 109.8931 109.8936 109.8927 109.8845 109.8774 109.8711 109.8721 109.8713 109.8613 109.856 109.8482 109.8478 109.8496 109.8437 109.8376 109.8352 109.8393 109.8362 109.8268 109.822 109.8184 109.8185 109.8143 109.8054 109.7999 109.7973 109.7973 109.7917 109.813 109.8213 109.8315 109.8417 109.8531 109.8768 109.8898 109.8997 109.9148 109.9307 109.9431 
109.8959 109.8889 109.8831 109.8815 109.8733 109.8726 109.8672 109.8609 109.8608 109.8611 109.85 109.8453 109.8355 109.83 109.8343 109.834 109.8251 109.8352 109.8286 109.8195 109.8136 109.8061 109.8039 109.8031 109.7989 109.7895 109.788 109.787 109.7809 109.7773 109.7943 109.8049 109.818 109.826 109.8527 109.8601 109.872 109.8861 109.8955 109.9203 109.9326 
109.8773 109.8732 109.8702 109.8624 109.8623 109.8552 109.8513 109.8484 109.8417 109.8483 109.8324 109.8237 109.819 109.8165 109.8091 109.8171 109.8251 109.8176 109.8149 109.8098 109.799 109.7909 109.7875 109.7877 109.7835 109.774 109.771 109.7705 109.7671 109.7606 109.7816 109.7892 109.8005 109.8146 109.8388 109.8498 109.8602 109.8761 109.8838 109.9059 109.9197 
109.8671 109.8628 109.8601 109.8526 109.8518 109.8406 109.8421 109.839 109.8312 109.8299 109.8132 109.8095 109.8079 109.7993 109.8091 109.8171 109.8143 109.8067 109.7986 109.7989 109.7817 109.7775 109.7778 109.7725 109.7677 109.7628 109.7565 109.7564 109.7502 109.753 109.7669 109.7791 109.7878 109.8044 109.8209 109.8337 109.8472 109.8568 109.8723 109.8904 109.8932 
109.857 109.8524 109.85 109.8424 109.8416 109.8307 109.8311 109.8276 109.821 109.8204 109.8044 109.7987 109.7954 109.7993 109.7991 109.7941 109.7966 109.7978 109.7891 109.7845 109.7733 109.7658 109.7607 109.7573 109.7538 109.7493 109.7456 109.7396 109.7368 109.7379 109.7513 109.7621 109.7767 109.7858 109.8104 109.8222 109.8372 109.8448 109.8532 109.8633 109.8767 
109.8469 109.8421 109.8399 109.8322 109.8314 109.8202 109.8159 109.8096 109.8105 109.8108 109.7935 109.786 109.7954 109.7899 109.7896 109.777 109.7807 109.7844 109.7791 109.7682 109.7641 109.7561 109.753 109.7484 109.7387 109.7343 109.7287 109.7255 109.7194 109.7211 109.7345 109.7478 109.7577 109.7723 109.7955 109.808 109.8186 109.8335 109.8343 109.8472 109.8585 
109.8369 109.8318 109.8299 109.8219 109.82 109.8048 109.7994 109.7999 109.7982 109.7979 109.7768 109.786 109.7785 109.7792 109.7711 109.7664 109.7636 109.7631 109.7632 109.7548 109.7504 109.7469 109.7406 109.7317 109.7227 109.7177 109.7166 109.7161 109.7079 109.7097 109.7227 109.7375 109.7458 109.7619 109.7843 109.7989 109.8043 109.804 109.8106 109.8373 109.8482 
109.8265 109.8211 109.8191 109.8112 109.8018 109.796 109.7902 109.7887 109.7802 109.7741 109.7768 109.7742 109.7688 109.7653 109.759 109.7543 109.7471 109.748 109.748 109.7395 109.7352 109.7304 109.7265 109.7179 109.7113 109.7061 109.7059 109.6985 109.6889 109.6959 109.7094 109.7192 109.7344 109.7432 109.7705 109.7737 109.7761 109.7916 109.8147 109.8265 109.8373 
109.8117 109.8081 109.8005 109.8003 109.789 109.7846 109.7794 109.7759 109.7677 109.7741 109.764 109.7585 109.758 109.7492 109.7464 109.7416 109.7371 109.7327 109.7321 109.7241 109.7197 109.716 109.7102 109.7077 109.6988 109.6954 109.6867 109.6777 109.6751 109.679 109.6916 109.7058 109.715 109.741 109.7484 109.7556 109.7652 109.781 109.7972 109.8098 109.8235 
109.8071 109.7978 109.7909 109.7904 109.773 109.7694 109.7679 109.7581 109.7677 109.7604 109.7524 109.7479 109.7441 109.7392 109.7301 109.7256 109.7211 109.7173 109.7176 109.7086 109.7043 109.6996 109.6977 109.6915 109.6742 109.6687 109.667 109.666 109.665 109.6681 109.6801 109.6955 109.7038 109.7235 109.7309 109.7459 109.7533 109.7612 109.7875 109.7951 109.7995 
