NCOLS 39
NROWS 31
XLLCORNER 276826.32
YLLCORNER 3833478.9
CELLSIZE 10
NODATA_VALUE -9999
1498.134 1496.398 1494.65 1493.078 1491.877 1490.3 1489.303 1487.716 1486.215 1484.143 1479.171 1478.183 1477.303 1476.432 1474.848 1473.751 1474.645 1475.31 1476.083 1476.576 1476.272 1475.601 1476.819 1478.313 1479.778 1481.115 1482.547 1483.844 1485.299 1486.762 1487.313 1488.397 1492.214 1498.845 1501.576 1505.495 1510.176 1513.005 1515.676 
1496.913 1495.785 1494.475 1493.209 1491.279 1490.376 1489.303 1487.958 1486.183 1483.874 1477.853 1476.263 1476.12 1475.386 1473.704 1473.166 1474.536 1475.417 1476.165 1476.535 1476.149 1475.521 1476.357 1477.593 1478.462 1478.63 1479.604 1483.053 1484.817 1486.458 1487.974 1490.657 1495.11 1502.768 1506.743 1510.905 1513.579 1513.956 1513.95 
1496.62 1495.238 1493.927 1492.883 1490.95 1490.376 1489.319 1487.911 1485.569 1482.461 1477.938 1476.26 1475.326 1474.484 1473.155 1472.635 1474.354 1475.536 1476.292 1476.538 1476.206 1474.972 1475.456 1476.217 1476.436 1476.296 1477.043 1482.716 1484.689 1486.432 1489.999 1495.402 1499.753 1504.194 1507.59 1511.022 1512.408 1512.355 1511.157 
1496.687 1494.65 1493.167 1492.883 1490.95 1490.106 1489.157 1487.709 1485.494 1483.35 1478.218 1476.733 1475.378 1474.188 1472.927 1472.548 1473.902 1475.268 1476.26 1476.634 1476.249 1474.402 1474.489 1474.648 1474.889 1475.72 1477.388 1484.716 1485.967 1487.918 1492.942 1499.528 1502.371 1504.022 1506.299 1507.708 1508.047 1508.155 1507.594 
1495.597 1493.315 1493.167 1491.985 1490.282 1489.436 1488.522 1487.07 1484.924 1482.681 1478.506 1476.601 1475.367 1474.154 1472.784 1471.663 1472.938 1474.403 1475.697 1476.459 1476.178 1474.011 1474.153 1474.543 1475.55 1477.281 1480.099 1487.27 1489.765 1492.958 1497.21 1501.124 1501.803 1501.878 1502.146 1502.837 1503.587 1503.616 1502.89 
1494.605 1493.315 1491.884 1490.924 1488.541 1487.768 1487.132 1485.811 1484.112 1480.934 1479.204 1477.115 1475.293 1474.178 1472.992 1470.751 1471.327 1472.722 1474.168 1474.835 1474.314 1473.02 1473.759 1475.202 1476.808 1479.454 1487.039 1488.823 1490.331 1493.964 1498.559 1500.439 1499.946 1499.454 1499.406 1499.795 1499.88 1499.804 1499.197 
1494.605 1492.241 1490.672 1489.579 1487.474 1486.451 1485.488 1484.315 1483.285 1481.322 1479.97 1477.722 1475.52 1474.914 1474.511 1470.752 1470.081 1470.441 1471.071 1471.603 1471.422 1471.029 1473.33 1475.278 1477.393 1480.527 1487.937 1489.609 1491.233 1493.695 1495.964 1497.607 1497.587 1497.332 1497.283 1497.288 1496.879 1496.933 1496.409 
1493.633 1491.467 1489.646 1487.446 1487.009 1486.418 1485.577 1484.626 1483.361 1481.504 1480.382 1478.281 1476.25 1476.24 1476.363 1472.019 1469.864 1469.249 1468.589 1466.841 1466.982 1469.08 1472.518 1474.936 1476.866 1479.57 1486.183 1488.14 1489.672 1490.838 1491.937 1493.61 1495.099 1494.873 1494.69 1494.555 1494.063 1493.895 1494.052 
1492.631 1490.792 1489.357 1488.523 1488.771 1488.973 1488.896 1487.679 1484.822 1481.223 1480.303 1478.997 1477.671 1477.316 1477.158 1472.895 1470.201 1469.298 1467.84 1464.146 1464.59 1467.24 1470.754 1473.148 1474.863 1476.646 1483.361 1486.077 1487.162 1488.226 1489.366 1490.997 1493.01 1492.448 1491.578 1491.276 1490.972 1491.48 1491.668 
1491.385 1490.199 1489.215 1489.422 1489.662 1489.834 1489.917 1489.027 1486.343 1480.638 1479.59 1478.881 1478.66 1477.638 1475.304 1472.885 1470.416 1468.995 1467.715 1464.881 1463.776 1466.096 1469.578 1472.266 1473.398 1475.482 1481.141 1483.856 1485.355 1486.697 1488.507 1491.469 1491.423 1490.099 1488.533 1488.102 1488.151 1489.276 1489.408 
1489.388 1488.589 1488.25 1487.856 1487.549 1487.376 1487.17 1485.863 1483.174 1479.455 1478.645 1478.21 1478.096 1477.131 1474.325 1472.239 1470.214 1468.857 1467.469 1465.256 1463.921 1466.204 1469.197 1472.172 1474.961 1477.093 1481.001 1483.018 1484.57 1486.276 1488.166 1489.447 1489.274 1488.383 1486.89 1486.047 1486.066 1487.16 1489.408 
1485.989 1484.799 1483.97 1482.032 1481.271 1480.718 1480.186 1479.101 1477.663 1477.669 1477.422 1477.212 1477.136 1476.535 1472.874 1470.916 1469.683 1468.626 1467.059 1464.572 1463.949 1466.251 1469.305 1472.344 1475.305 1477.882 1479.045 1480.567 1482.327 1484.515 1486.319 1487.063 1486.979 1486.069 1484.54 1484 1484.018 1487.16 1487.423 
1481.852 1480.207 1478.33 1476.455 1475.681 1474.942 1474.522 1474.157 1473.434 1473.361 1473.735 1474.262 1474.251 1473.64 1469.759 1468.491 1467.929 1467.46 1466.426 1464.156 1463.775 1465.47 1467.998 1470.885 1473.808 1476.35 1477.402 1479.056 1480.696 1482.136 1483.374 1484.212 1484.143 1483.939 1483.208 1482.454 1484.018 1485.202 1485.666 
1483.461 1481.599 1478.699 1475.866 1475.04 1474.357 1473.916 1473.322 1471.421 1470.363 1469.874 1469.827 1469.217 1467.565 1466.352 1466.397 1466.556 1466.466 1465.768 1463.335 1463.556 1465.065 1467.113 1468.798 1471.033 1474.516 1476.008 1477.63 1478.896 1479.816 1480.756 1481.266 1481.4 1481.118 1480.72 1482.454 1482.485 1483.021 1483.73 
1489.387 1487.864 1482.357 1479.955 1478.226 1477.426 1477.264 1476.321 1474.123 1473.027 1471.086 1468.838 1466.97 1464.153 1464.397 1464.854 1465.284 1465.439 1465.085 1463.409 1463.448 1464.219 1465.015 1465.858 1468.023 1472.736 1474.221 1475.727 1476.907 1477.675 1478.305 1479.148 1479.118 1481.118 1480.72 1480.321 1480.297 1481.029 1481.867 
1494.953 1493.088 1488.258 1485.963 1484.69 1484.057 1483.673 1482.797 1479.193 1477.252 1475.076 1472.245 1468.943 1463.808 1463.689 1464.046 1464.393 1464.698 1464.693 1463.848 1463.467 1463.256 1463.304 1463.911 1465.788 1470.188 1471.957 1473.504 1474.641 1475.58 1476.758 1476.832 1479.118 1478.841 1478.378 1478.065 1478.027 1478.729 1479.744 
1499.623 1497.875 1493.197 1491.701 1491.266 1491.08 1490.689 1489.699 1486.328 1482.972 1479.595 1476.395 1472.627 1465.478 1464.039 1463.759 1463.98 1464.266 1464.42 1463.683 1463.111 1462.903 1462.909 1463.399 1464.449 1467.839 1469.237 1470.775 1472.24 1473.176 1474.097 1476.832 1476.642 1476.434 1476.213 1475.735 1476.052 1476.535 1478.153 
1504.696 1502.636 1498.002 1496.949 1496.582 1496.586 1496.327 1494.926 1490.622 1487.873 1483.951 1479.443 1475.557 1467.683 1464.894 1463.618 1463.576 1463.693 1463.882 1463.099 1462.515 1462.401 1462.503 1462.799 1464.731 1465.806 1466.947 1468.415 1469.858 1470.845 1474.097 1474.074 1473.753 1473.723 1473.995 1473.653 1474.601 1475.944 1478.498 
1510.572 1507.516 1501.656 1500.784 1500.999 1501.091 1500.913 1496.307 1492.882 1489.927 1485.898 1480.71 1476.439 1468.007 1464.896 1463.286 1463.091 1462.903 1462.809 1462.296 1461.823 1461.7 1461.777 1461.881 1463.008 1463.48 1464.5 1466.159 1467.548 1470.845 1470.572 1470.468 1470.285 1470.327 1471.159 1472.021 1475.14 1477.29 1480.186 
1513.537 1511.778 1505.797 1504.467 1504.448 1503.801 1502.546 1497.001 1493.161 1489.407 1484.895 1479.727 1475.737 1469.184 1466.249 1465.672 1465.579 1463.751 1461.757 1461.538 1461.236 1460.987 1460.881 1461.122 1461.965 1462.568 1463.584 1464.943 1467.548 1468.338 1467.701 1466.424 1465.925 1466.294 1467.909 1473.407 1475.31 1477.325 1479.653 
1513.476 1511.033 1508.287 1506.641 1505.82 1504.572 1502.366 1496.143 1492.019 1487.958 1484.003 1479.561 1476.013 1472.476 1471.675 1471.292 1470.929 1467.655 1462.699 1461.449 1460.658 1460.347 1460.089 1459.922 1460.932 1461.674 1462.581 1464.943 1466.037 1466.392 1465.814 1464.481 1463.317 1464.244 1467.035 1472.103 1474.612 1476.385 1478.069 
1511.746 1510.583 1508.958 1507.402 1505.683 1503.628 1501.462 1495.66 1492.247 1488.679 1484.712 1480.103 1476.153 1475.573 1476.446 1477.033 1476.373 1473.065 1465.291 1464.494 1463.122 1460.172 1459.531 1459.124 1459.544 1461.674 1462.581 1463.489 1464.028 1463.767 1463.328 1462.716 1462.8 1464.242 1466.241 1471.286 1473.572 1475.696 1477.796 
1511.736 1511.288 1510.372 1508.153 1504.615 1501.4 1499.483 1494.872 1492.337 1489.563 1486.511 1483.201 1478.672 1479.663 1480.694 1480.668 1478.732 1475.573 1469.005 1467.43 1466.143 1463.151 1459.628 1458.771 1459.544 1460.108 1460.798 1461.596 1462.132 1461.566 1461.482 1461.555 1462.148 1463.266 1464.843 1469.609 1472.117 1474.55 1476.779 
1513.189 1512.952 1512.147 1509.989 1506.156 1501.755 1499.432 1495.127 1492.314 1489.325 1487.073 1485.803 1483.469 1484.297 1485.27 1484.669 1481.403 1477.568 1471.792 1469.705 1467.664 1464.949 1462 1458.402 1458.531 1458.881 1459.198 1459.741 1460.2 1459.597 1459.951 1460.19 1460.858 1462.044 1463.337 1467.479 1470.377 1473.248 1475.545 
1513.602 1513.697 1513.382 1511.51 1507.943 1504.096 1498.868 1497.233 1495.053 1492.041 1489.675 1488.78 1487.937 1488.958 1489.545 1488.736 1485.51 1480.42 1473.593 1471.424 1469.097 1466.51 1462 1457.964 1457.565 1457.365 1457.531 1457.984 1458.248 1457.592 1457.866 1458.705 1459.74 1460.904 1462.123 1465.353 1468.382 1471.6 1474.203 
1513.524 1514.049 1513.824 1511.752 1508.703 1505.282 1500.411 1499.58 1498.282 1495.748 1493.147 1491.989 1492.12 1492.741 1492.32 1490.796 1488.293 1483.809 1476.029 1473.72 1471.418 1466.51 1463.757 1459.468 1458.208 1457.005 1456.18 1456.249 1456.32 1454.967 1455.871 1457.187 1458.306 1459.714 1462.318 1464.144 1467.066 1470.588 1473.618 
1512.506 1512.591 1511.986 1510.766 1508.907 1505.673 1501.907 1501.08 1500.339 1498.766 1496.656 1495.846 1495.881 1496.09 1495.154 1492.895 1490.322 1483.161 1479.538 1476.571 1471.418 1468.595 1465.771 1461.641 1459.691 1457.916 1456.674 1455.283 1452.956 1452.975 1454.502 1455.558 1456.741 1458.325 1461.668 1463.841 1466.806 1470.204 1473.401 
1508.443 1508.42 1507.552 1506.669 1506.392 1505.395 1502.406 1502.319 1501.985 1500.843 1500.054 1499.48 1499.432 1500.103 1499.16 1495.701 1491.049 1486.785 1483.585 1476.571 1474.047 1471.417 1468.437 1463.803 1461.988 1459.809 1457.582 1455.594 1453.408 1451.783 1452.975 1454.074 1455.087 1456.729 1461.402 1463.603 1465.977 1468.626 1471.487 
1501.867 1502.469 1502.472 1502.083 1502.092 1502.234 1502.376 1502.787 1502.473 1501.957 1502.035 1501.662 1501.96 1502.038 1500.861 1498.285 1495.233 1486.785 1483.585 1480.28 1477.152 1474.49 1471.636 1466.098 1463.905 1461.539 1458.836 1456.643 1452.221 1451.206 1451.521 1452.391 1453.379 1455.29 1460.835 1463.004 1465.064 1466.925 1468.506 
1500.088 1498.984 1497.836 1497.602 1497.668 1497.953 1499.163 1499.679 1500.303 1500.906 1501.299 1500.881 1500.596 1499.92 1498.4 1496.181 1495.233 1490.213 1487.944 1484.568 1480.53 1477.102 1474.219 1467.461 1465.044 1462.803 1460.21 1457.531 1452.799 1451.457 1450.929 1450.939 1451.732 1454.05 1459.295 1461.618 1463.646 1465.07 1465.752 
1500.994 1499.31 1496.907 1494.424 1491.419 1492.269 1493.668 1494.661 1495.357 1495.823 1496.092 1495.343 1494.563 1493.486 1492.077 1496.181 1493.839 1491.402 1490.27 1486.979 1481.762 1477.961 1471.224 1468.265 1465.833 1463.508 1461.171 1458.627 1453.518 1451.915 1451.109 1450.749 1451.195 1452.87 1457.048 1459.371 1461.757 1463.272 1463.714 
