NCOLS 92
NROWS 90
XLLCORNER 452038.49
YLLCORNER 3773695.4
CELLSIZE 10
NODATA_VALUE -9999
374.568 374.7017 374.8223 374.9057 375.0264 375.2181 375.3022 375.3644 375.3811 375.3774 375.3767 375.2917 375.252 375.2201 375.1371 374.9959 374.9137 374.873 374.8672 374.9081 374.999 375.0863 375.1713 375.289 375.3449 375.3863 375.4179 375.4096 375.4067 375.4053 375.4042 375.403 375.4018 375.4003 375.4037 375.4087 375.37 375.3435 375.3391 375.2422 374.7728 374.33 373.7679 373.1636 372.6662 372.4311 372.1796 372.0671 372.0486 372.0259 371.9208 371.8451 371.7744 371.6844 371.595 371.5201 371.5073 371.5081 371.3945 371.3766 371.3876 371.3831 371.3056 371.2352 371.2068 371.1566 371.105 371.1019 371.0895 371.0141 371.0093 370.9611 370.8737 370.7976 370.795 370.9667 371.0583 371.2043 371.3822 371.5605 371.7334 371.9724 372.0104 372.0355 372.1293 372.1904 372.1905 372.3673 372.3947 372.4376 372.4915 372.5106 
374.4518 374.5316 374.6047 374.7096 374.8385 374.9368 375.0312 375.1006 375.1489 375.1711 375.1256 375.0365 374.9567 374.9146 374.9203 374.8698 374.7715 374.6623 374.6627 374.7018 374.8009 374.8716 374.8896 374.9694 375.075 375.1137 375.111 375.1557 375.1483 375.1481 375.1474 375.1468 375.1456 375.1479 375.0999 375.0876 375.081 375.0179 374.9107 374.7572 374.0456 373.6395 373.1561 372.6777 372.3787 372.2225 372.0286 371.9095 371.7978 371.7603 371.7239 371.6515 371.5497 371.4406 371.3422 371.3365 371.33 371.2557 371.2771 371.3199 371.2873 371.1967 371.1181 371.1047 371.0424 371.0064 370.9654 370.9106 370.9102 370.8986 370.8402 370.8032 370.7594 370.685 370.6934 370.864 370.9469 371.0338 371.1664 371.3484 371.4997 371.7551 371.869 371.8917 371.9232 372.0091 372.0862 372.1916 372.2473 372.2884 372.3174 372.387 
374.2043 374.2938 374.4135 374.4919 374.5674 374.7501 374.807 374.8408 374.8895 374.9166 374.8708 374.8006 374.6974 374.631 374.5907 374.5654 374.5674 374.4231 374.4063 374.4558 374.5345 374.5601 374.6425 374.692 374.7132 374.78 374.8662 374.9023 374.9599 374.9513 374.9478 374.947 374.9513 374.9478 374.8555 374.8087 374.769 374.674 374.4785 374.2325 373.4977 373.1576 372.7716 372.4423 372.2746 372.0967 371.8 371.6924 371.5861 371.547 371.511 371.3142 371.3534 371.1853 371.0745 371.122 371.0574 371.092 371.1318 371.0859 371.024 371.005 370.9904 370.927 370.8957 370.847 370.7951 370.7909 370.7847 370.7028 370.7025 370.6592 370.564 370.511 370.5886 370.7607 370.8457 370.9296 371.0085 371.1505 371.3859 371.5714 371.657 371.7307 371.8105 371.9047 371.9808 372.0524 372.0819 372.1248 372.1783 372.1997 
373.9771 374.0599 374.1478 374.2475 374.3738 374.5071 374.5432 374.5888 374.6158 374.6149 374.6148 374.5334 374.4975 374.4283 374.321 374.2458 374.2526 374.1411 374.0631 374.087 374.1477 374.1542 374.3334 374.3808 374.4176 374.5108 374.6189 374.6549 374.683 374.7232 374.7473 374.7497 374.7368 374.6775 374.6006 374.524 374.4018 374.2467 374.0529 373.7857 373.2169 372.8379 372.4909 372.2356 372.0353 371.9337 371.5891 371.4279 371.3206 371.2707 371.1535 370.898 370.8467 370.8369 370.803 370.7689 370.8441 370.8546 370.823 370.8654 370.8949 370.8887 370.8992 370.8069 370.7924 370.7377 370.6859 370.6739 370.6021 370.594 370.5436 370.4481 370.3791 370.3969 370.4861 370.6573 370.7421 370.8276 370.9057 371.0169 371.1897 371.3571 371.5039 371.6407 371.6839 371.6986 371.7834 371.9572 371.9747 372.0172 372.0819 372.0706 
373.7532 373.8658 373.9161 373.975 374.1065 374.2494 374.2877 374.3369 374.3447 374.3015 374.2918 374.1488 374.1471 374.1319 374.0927 374.0373 373.9009 373.7687 373.6646 373.6639 373.7358 373.7431 373.9016 374.0414 374.1177 374.1505 374.2538 374.3917 374.4344 374.5092 374.5554 374.5171 374.4637 374.4298 374.2963 374.2162 374.0806 373.903 373.6999 373.4431 373.0161 372.6758 372.3119 372.0456 371.8647 371.6602 371.3169 371.1443 370.9344 370.7613 370.6798 370.5657 370.4763 370.4396 370.5287 370.5841 370.5396 370.6775 370.6858 370.6884 370.7456 370.7766 370.704 370.6972 370.6307 370.5952 370.5575 370.4958 370.4783 370.4012 370.333 370.2828 370.2783 370.295 370.3828 370.5539 370.6387 370.724 370.8033 370.9111 371.075 371.2531 371.3435 371.4299 371.5074 371.5916 371.6714 371.7469 371.8414 371.8746 371.9014 371.9738 
373.5627 373.6741 373.7762 373.821 373.9029 373.9821 374.0256 374.0776 374.0869 374.0502 374.0429 373.8639 373.7874 373.8052 373.8492 373.762 373.5487 373.4379 373.3152 373.2899 373.3125 373.3334 373.5597 373.6655 373.7357 373.819 373.9521 374.0778 374.2354 374.2416 374.3055 374.3 374.2238 374.2256 373.9907 373.8877 373.7541 373.6041 373.4804 373.2812 372.8003 372.4854 372.1798 371.9007 371.6071 371.3455 370.98 370.8404 370.6505 370.4323 370.2388 370.1662 370.1122 370.1146 370.1967 370.3435 370.3948 370.5697 370.5898 370.5817 370.5896 370.5948 370.585 370.5151 370.4907 370.4399 370.39 370.3656 370.2944 370.2103 370.1867 370.1278 370.1006 370.1947 370.2805 370.4504 370.5352 370.6205 370.6992 370.8119 370.9692 371.0459 371.1286 371.2626 371.4141 371.4733 371.4802 371.5697 371.6226 371.7199 371.7742 371.7661 
373.4543 373.5612 373.6437 373.725 373.756 373.7842 373.8306 373.8422 373.8398 373.852 373.8434 373.7171 373.6436 373.5806 373.5742 373.513 373.2863 373.1412 373.0047 372.9669 372.9628 372.9867 373.2507 373.3672 373.4592 373.6177 373.8297 373.9125 374.092 374.1013 374.1143 374.1287 374.0964 374.0236 373.8283 373.7414 373.5988 373.4573 373.3708 373.19 372.6825 372.3247 371.9586 371.6371 371.3144 371.0524 370.6709 370.5267 370.3851 370.2374 369.9662 369.7424 369.8437 369.9464 370.0618 370.22 370.3018 370.4805 370.4969 370.4875 370.4872 370.4903 370.4774 370.3871 370.3266 370.2897 370.2493 370.1862 370.172 370.0815 370.0135 370.0157 370.0664 370.0847 370.1756 370.3468 370.4316 370.5166 370.6012 370.6874 370.7755 370.9407 371.0256 371.1123 371.1991 371.2828 371.3673 371.4701 371.4579 371.5 371.5963 371.6648 
373.2879 373.396 373.4829 373.5465 373.5453 373.631 373.6823 373.7153 373.6875 373.636 373.6338 373.5581 373.5251 373.4641 373.3796 373.3257 373.0598 372.8849 372.7681 372.6929 372.663 372.7383 372.9797 373.2036 373.3962 373.5307 373.6461 373.7298 373.9108 373.9279 373.9262 373.8986 373.8397 373.8152 373.6381 373.5539 373.4657 373.3445 373.1785 373.0072 372.547 372.1039 371.6436 371.2305 370.8347 370.5836 370.2993 370.2281 370.1961 370.0362 369.763 369.5792 369.6412 369.793 369.9287 370.0131 370.1054 370.2012 370.2663 370.2988 370.2875 370.2918 370.2761 370.1845 370.1187 370.0792 370.091 370.0586 369.9846 369.9017 369.8615 369.9118 370.0075 370.0648 370.0725 370.2424 370.3282 370.4128 370.4978 370.5827 370.6675 370.8371 370.923 371.0085 371.0928 371.1808 371.2574 371.3318 371.3677 371.3538 371.3795 371.4712 
373.1636 373.2418 373.3362 373.4039 373.4066 373.5045 373.5185 373.5455 373.5339 373.5064 373.5013 373.4068 373.3595 373.328 373.2653 373.1167 372.9296 372.7653 372.5919 372.5011 372.4949 372.5327 372.847 373.039 373.2236 373.3896 373.5261 373.5978 373.6871 373.7775 373.7627 373.7046 373.678 373.6125 373.5182 373.4309 373.3055 373.1726 373.0602 372.8934 372.2776 371.6794 371.1235 370.6599 370.3323 370.1504 369.9597 369.8638 369.8251 369.7862 369.6698 369.5607 369.6215 369.7131 369.8531 369.9737 369.99 370.0786 370.0746 370.1343 370.1838 370.1795 370.1678 370.0724 370.014 369.9185 369.8709 369.8796 369.8656 369.7685 369.7635 369.808 369.9002 369.9841 370.0688 370.1626 370.217 370.3094 370.394 370.4789 370.5636 370.7389 370.7607 370.7961 370.8873 370.9714 371.0582 371.1557 371.2103 371.2629 371.2515 371.2658 
373.0694 373.1522 373.2197 373.2458 373.2977 373.3881 373.4154 373.372 373.3237 373.3314 373.309 373.3086 373.2545 373.173 373.0928 372.9858 372.7577 372.6453 372.4907 372.3471 372.3223 372.4046 372.7487 372.9229 373.1019 373.2433 373.3342 373.4149 373.5724 373.6164 373.6131 373.5656 373.5045 373.4861 373.3972 373.3466 373.2042 373.0213 372.8952 372.7845 371.7392 371.0319 370.4503 370.0611 369.8227 369.7202 369.6005 369.5971 369.601 369.5681 369.4835 369.5472 369.6343 369.7187 369.8143 369.8755 369.8864 369.9771 369.9718 369.9681 370.0188 370.0585 369.9779 369.9738 369.9118 369.8126 369.7682 369.7506 369.675 369.586 369.6128 369.7098 369.7945 369.8796 369.9648 370.1404 370.1607 370.1983 370.2903 370.375 370.4597 370.635 370.6573 370.6982 370.75 370.7827 370.9387 371.0207 371.0506 371.0887 371.1549 371.1503 
372.941 373.0259 373.0448 373.1128 373.2004 373.22 373.2303 373.2161 373.204 373.1904 373.1193 373.1345 373.0733 373.0104 372.9833 372.8835 372.6214 372.4783 372.3468 372.2408 372.1977 372.3022 372.6553 372.7674 372.9055 373.0834 373.2166 373.3016 373.4128 373.4064 373.4016 373.4035 373.3748 373.3041 373.2267 373.1389 373.0558 372.9323 372.7701 372.5205 370.9534 370.2523 369.7802 369.5693 369.4922 369.4846 369.487 369.4282 369.378 369.3811 369.3714 369.4517 369.5404 369.6245 369.718 369.775 369.7833 369.8782 369.8705 369.8683 369.8699 369.8711 369.8672 369.8709 369.809 369.717 369.6262 369.5662 369.5538 369.5279 369.6218 369.707 369.7922 369.8811 369.9561 370.0278 370.1189 370.2106 370.2597 370.2718 370.3567 370.5313 370.5614 370.5462 370.5728 370.6632 370.836 370.8485 370.8995 370.9456 370.9695 371.0428 
372.7717 372.8568 372.9263 373.0094 373.0237 373.0772 373.1109 373.0681 373.0167 373.0157 373.0005 372.9418 372.9044 372.8745 372.8008 372.7119 372.4485 372.3251 372.2365 372.1411 372.0961 372.2018 372.481 372.6232 372.7444 372.8688 373.0238 373.1088 373.1981 373.2532 373.3016 373.2602 373.195 373.1802 373.089 373.0399 372.8963 372.7989 372.6229 371.8926 370.0895 369.5966 369.4744 369.4459 369.3758 369.3684 369.2763 369.2762 369.2716 369.2718 369.2686 369.3476 369.4362 369.53 369.5733 369.5948 369.67 369.6657 369.7337 369.7747 369.767 369.7658 369.764 369.7676 369.7061 369.6145 369.5287 369.4427 369.3475 369.4771 369.6354 369.7072 369.7983 369.8604 369.8674 370.0323 370.1218 370.1581 370.1805 370.2735 370.3508 370.4222 370.4582 370.4446 370.4745 370.5382 370.7064 370.7514 370.734 370.7795 370.8411 370.8308 
372.663 372.748 372.8088 372.8318 372.894 372.9171 372.9283 372.9134 372.9001 372.8863 372.8164 372.8088 372.7602 372.6806 372.5919 372.5064 372.3186 372.2282 372.1452 372.0441 371.9968 372.0878 372.3468 372.4572 372.5828 372.7607 372.9087 372.989 373.0857 373.0867 373.0929 373.0944 373.0686 372.9945 372.9182 372.8257 372.7857 372.5813 371.9385 370.9756 369.5069 369.4083 369.3714 369.3459 369.2747 369.1891 369.1641 369.1719 369.1734 369.1714 369.1655 369.2442 369.339 369.3672 369.4033 369.4653 369.4774 369.5686 369.5641 369.5635 369.5563 369.5813 369.6582 369.6653 369.617 369.4088 369.2422 369.2272 369.1674 369.593 369.735 369.8148 369.8651 369.8785 369.9674 369.9882 370.0071 370.1091 370.156 370.1707 370.2429 370.3215 370.3537 370.3521 370.3484 370.3506 370.5159 370.5353 370.5898 370.642 370.634 370.6479 
372.483 372.5675 372.6472 372.7022 372.7217 372.7124 372.7127 372.7177 372.718 372.7173 372.6297 372.6206 372.5718 372.4725 372.3872 372.3008 372.1293 372.0439 371.9477 371.8797 371.8993 371.993 372.1705 372.3168 372.4359 372.5511 372.7328 372.88 372.9598 372.989 372.9879 372.9552 372.8901 372.8739 372.7929 372.7925 372.4842 371.8272 370.9966 370.0583 369.3756 369.3044 369.2667 369.2484 369.1551 369.0645 369.0733 369.0137 368.9534 368.989 369.0619 369.1401 369.2361 369.2628 369.2977 369.366 369.3622 369.3592 369.3521 369.4064 369.4637 369.4527 369.4615 369.6517 369.4843 369.2416 369.1078 369.0307 369.08 369.6295 369.7307 369.8077 369.8975 369.9605 369.961 370.0295 370.1339 370.1158 370.0766 370.1486 370.1531 370.2532 370.2376 370.2883 370.3217 370.2412 370.3147 370.4054 370.4325 370.4702 370.5321 370.5254 
372.2735 372.3574 372.4505 372.5259 372.5113 372.5797 372.5596 372.5048 372.5138 372.5007 372.411 372.3506 372.3191 372.2789 372.1839 372.1023 371.9231 371.8264 371.7825 371.7856 371.7848 371.8036 371.961 372.1087 372.282 372.4528 372.6097 372.6955 372.7843 372.7848 372.7951 372.7621 372.6964 372.6993 372.4231 372.0785 371.5721 370.8806 370.1171 369.5986 369.3949 369.3089 369.2248 369.1351 369.0649 368.9825 368.9584 368.9628 368.9611 368.9617 368.959 369.0398 369.0587 369.1086 369.1643 369.1573 369.1537 369.2321 369.2596 369.2515 369.2435 369.2633 369.3512 369.4565 369.1968 368.9748 368.8964 368.8637 369.0863 369.7339 369.8358 369.8609 369.8873 369.9557 369.9617 370.026 370.0526 370.0513 370.0614 370.0605 370.0655 370.1474 370.1425 370.1398 370.1324 370.1264 370.2106 370.2176 370.2724 370.3273 370.3131 370.3389 
372.0662 372.1613 372.2234 372.2397 372.3112 372.3205 372.3161 372.3043 372.3093 372.2924 372.2018 372.1405 372.049 372.0161 371.9638 371.8145 371.7195 371.6918 371.6435 371.5874 371.5881 371.5948 371.833 371.9477 372.085 372.2263 372.3283 372.5006 372.7068 372.6424 372.5606 372.4473 372.2745 372.1143 371.6521 371.1856 370.6619 370.0796 369.5533 369.4563 369.2954 369.2096 369.1172 369.0619 369.0513 368.876 368.8549 368.86 368.8593 368.8589 368.8557 368.9345 368.9617 368.9479 368.9871 369.0554 369.0522 369.0464 369.0445 369.0437 369.043 369.0411 369.0375 368.9526 368.8714 368.7893 368.7203 368.8086 369.1862 369.7547 369.8181 369.8619 369.86 369.8732 369.9446 369.9534 369.9586 369.9939 370.0537 370.0493 370.0415 370.0396 370.0404 370.0385 369.9952 369.9411 370.0165 370.018 370.072 370.1165 370.3131 370.3389 
371.8821 371.919 371.9378 372.0167 372.1068 372.1012 372.1006 372.0996 372.1055 372.0935 372.0016 371.9389 371.8458 371.7685 371.6859 371.5892 371.4961 371.4374 371.3912 371.392 371.3861 371.3881 371.6451 371.6906 371.7765 371.9302 372.0083 372.1004 372.1384 372.0411 371.9618 371.8502 371.6543 371.3972 370.8162 370.4093 369.9492 369.593 369.4463 369.2785 369.1924 369.1068 369.0143 368.9587 368.9486 368.7729 368.7515 368.7569 368.7548 368.752 368.752 368.7473 368.8166 368.8604 368.8509 368.8477 368.8473 368.8407 368.8378 368.8373 368.8362 368.8394 368.8266 368.7306 368.6782 368.6251 368.6467 368.8339 369.2689 369.7439 369.7506 369.7942 369.8589 369.8592 369.8409 369.9209 369.954 369.9432 369.9369 369.9409 369.9402 369.9356 369.9431 369.903 369.8401 369.9411 370.0165 370.018 370.072 370.1165 370.15 370.2431 
371.5718 371.6484 371.7234 371.812 371.9009 371.896 371.8951 371.8997 371.8737 371.8045 371.719 371.7037 371.6031 371.4543 371.3695 371.2955 371.2209 371.125 371.0848 371.087 371.1057 371.187 371.2867 371.3393 371.4306 371.5165 371.609 371.677 371.5904 371.4796 371.2931 371.1245 370.9339 370.6754 370.0876 369.7171 369.4973 369.432 369.3463 369.174 369.0877 369.0016 368.91 368.8555 368.8457 368.6701 368.6484 368.658 368.6126 368.5398 368.5569 368.6512 368.7098 368.7493 368.7418 368.7411 368.7426 368.6649 368.636 368.6363 368.6292 368.6321 368.622 368.5244 368.5362 368.4703 368.4954 368.8211 369.252 369.6678 369.7084 369.7428 369.7718 369.8318 369.7662 369.8448 369.835 369.8452 369.8451 369.9409 369.9402 369.9356 369.9431 369.903 369.8401 369.8337 369.8228 369.8858 369.9085 369.9356 370.0366 370.1089 
371.3488 371.4337 371.5179 371.6064 371.6965 371.6897 371.6891 371.6944 371.665 371.5902 371.515 371.4286 371.3437 371.2554 371.1676 371.0782 370.9123 370.8168 370.784 370.7416 370.7152 370.8696 370.9488 370.9731 371.0174 371.0785 371.0762 371.0662 370.8981 370.7463 370.6209 370.4819 370.2126 369.951 369.4986 369.3905 369.3127 369.2258 369.1392 368.9663 368.8827 368.791 368.7445 368.756 368.7386 368.5668 368.5477 368.4934 368.4402 368.4451 368.4572 368.5502 368.5439 368.5404 368.5412 368.538 368.5288 368.5322 368.5399 368.4886 368.4308 368.4357 368.4369 368.3593 368.3173 368.3156 368.4131 368.7098 369.1374 369.6182 369.639 369.6392 369.6766 369.7384 369.7662 369.8448 369.835 369.8452 369.8451 369.8506 369.8757 369.8357 369.832 369.8433 369.8171 369.7335 369.7332 369.7095 369.7021 369.7531 369.8423 369.9288 
371.1489 371.233 371.3218 371.391 371.4666 371.4891 371.485 371.4929 371.4671 371.3748 371.2053 371.1272 370.9872 370.8363 370.781 370.7763 370.5215 370.4706 370.4289 370.3605 370.383 370.4696 370.6424 370.6681 370.6672 370.6303 370.5583 370.5489 370.3832 370.2405 370.0598 369.89 369.6967 369.4523 369.2753 369.1887 369.1037 369.0203 368.9336 368.7575 368.7406 368.6897 368.6407 368.6171 368.5276 368.4406 368.3752 368.3374 368.347 368.3464 368.3427 368.4113 368.447 368.4388 368.4358 368.4128 368.339 368.3243 368.3183 368.3221 368.3254 368.3279 368.3189 368.2256 368.1533 368.2044 368.3867 368.6055 369.0087 369.6182 369.639 369.6392 369.6766 369.7384 369.7368 369.7343 369.7266 369.7816 369.8221 369.7646 369.8458 369.7661 369.7227 369.7374 369.7083 369.6309 369.6355 369.5509 369.557 369.6626 369.7485 369.8335 
370.8433 370.9273 371.0116 371.0947 371.2622 371.2923 371.2306 371.1732 371.1823 371.1692 370.9983 370.8464 370.7156 370.6404 370.5298 370.3661 370.1906 370.0973 370.056 370.0555 370.0727 370.156 370.4068 370.4671 370.4602 370.43 370.3373 370.248 369.9989 369.8893 369.7173 369.4726 369.3052 369.1422 368.9644 368.8702 368.828 368.8056 368.7156 368.5475 368.45 368.4222 368.3887 368.3227 368.3327 368.2595 368.2368 368.2448 368.2435 368.243 368.2428 368.2321 368.2984 368.2893 368.2277 368.2313 368.2264 368.1547 368.1256 368.1312 368.1315 368.1265 368.1136 368.0372 368.1533 368.2044 368.3867 368.6055 369.0087 369.3804 369.4797 369.5891 369.6469 369.6341 369.6326 369.6322 369.6248 369.6692 369.7381 369.739 369.732 369.6812 369.6362 369.6328 369.6061 369.5297 369.5039 369.4609 369.4992 369.5825 369.6442 369.7301 
370.6257 370.7102 370.7957 370.8824 371.0616 371.0135 370.9616 370.9737 370.9481 370.8729 370.7972 370.6385 370.5078 370.4285 370.346 370.2506 369.9023 369.7825 369.7468 369.7454 369.7588 369.856 370.1251 370.2112 370.2606 370.2289 370.117 369.949 369.695 369.5157 369.2869 369.0855 368.9891 368.7259 368.6337 368.5482 368.463 368.3683 368.3042 368.2351 368.1476 368.1154 368.1229 368.126 368.1246 368.1272 368.1378 368.1429 368.1412 368.1401 368.1397 368.1392 368.1337 368.1354 368.1385 368.1032 368.033 368.0203 368.1256 368.1312 368.1315 368.1265 368.1136 368.0372 368.0027 368.1102 368.285 368.4843 368.7729 369.141 369.3253 369.4633 369.5212 369.5338 369.5323 369.5304 369.5219 369.5677 369.6351 369.6289 369.6272 369.6415 369.5813 369.5258 369.5064 369.4287 369.3608 369.3932 369.468 369.5022 369.5364 369.623 
370.5193 370.6106 370.667 370.6777 370.7661 370.8282 370.8766 370.834 370.7377 370.6637 370.5863 370.4965 370.4178 370.2921 370.1384 370.043 369.6995 369.586 369.4966 369.4281 369.4691 369.6455 369.9184 370.0066 370.0517 370.0162 369.9091 369.7376 369.3036 369.0311 368.8157 368.6378 368.4708 368.2042 368.024 367.9648 367.9309 367.8738 367.8885 367.9009 367.909 367.908 367.9121 367.9201 367.9207 367.9294 367.99 368.0274 368.0267 368.038 368.0374 368.0385 368.0245 368.1354 368.1385 368.1032 368.033 368.0203 368.0155 368.0151 368.0196 368.0019 367.9314 367.8391 367.8692 368.0016 368.1625 368.3325 368.516 368.9418 369.1139 369.2432 369.3288 369.4055 369.3993 369.4199 369.4271 369.4525 369.5069 369.5292 369.5296 369.5092 369.4575 369.4117 369.3749 369.3235 369.3289 369.3237 369.3269 369.3808 369.4761 369.5627 
370.3146 370.399 370.4879 370.5586 370.6381 370.6651 370.6573 370.663 370.6424 370.5537 370.3738 370.3605 370.2663 370.1187 370.0188 369.8443 369.5754 369.4269 369.2846 369.225 369.268 369.4311 369.6734 369.8052 369.8003 369.7055 369.5969 369.4052 368.8004 368.5599 368.3492 368.0728 367.8233 367.4835 367.4578 367.4146 367.3627 367.4073 367.4752 367.5732 367.6112 367.6024 367.6453 367.7138 367.7237 367.8231 367.824 367.8207 368.0267 368.038 368.0374 368.0385 368.0245 368.0205 367.9891 367.9229 367.9145 367.8476 367.8198 367.8277 367.8176 367.8038 367.8039 367.7185 367.7815 367.862 367.9651 368.1569 368.3942 368.7278 368.907 369.0386 369.1213 369.1904 369.2109 369.2713 369.296 369.2974 369.3362 369.3899 369.3911 369.3387 369.3223 369.287 369.2104 369.2191 369.2197 369.2125 369.2639 369.3603 369.4445 369.5324 
370.216 370.3005 370.3586 370.3661 370.5388 370.562 370.5551 370.5606 370.5393 370.4511 370.2782 370.1896 370.1078 369.984 369.8316 369.7423 369.4001 369.2208 369.0872 369.0276 369.068 369.227 369.3913 369.4709 369.5212 369.4599 369.2338 368.886 368.245 367.9245 367.6137 367.3502 367.1167 366.9757 366.9605 366.968 367.0253 367.0931 367.1083 367.2853 367.3672 367.4004 367.6453 367.7138 367.7237 367.8231 367.824 367.8207 367.8625 367.9405 367.9357 367.9157 367.8586 367.8198 367.8256 367.794 367.726 367.7321 367.7169 367.708 367.6825 367.6168 367.5937 367.6147 367.679 367.762 367.8776 368.0463 368.3786 368.5601 368.7166 368.831 368.9145 368.9888 369.0755 369.1121 369.1148 369.1405 369.1956 369.2173 369.2162 369.224 369.2076 369.1569 369.1164 369.1176 369.1177 369.1074 369.1544 369.2492 369.337 369.4217 
370.0529 370.195 370.2808 370.3542 370.4304 370.4592 370.4519 370.4573 370.4365 370.3484 370.1754 370.0967 369.9556 369.8078 369.7333 369.6335 369.2922 369.1144 368.9795 368.9252 368.9429 369.0163 369.1169 369.0962 369.0417 368.8802 368.6087 368.0164 367.5959 367.2476 366.9988 366.767 366.5682 366.5735 366.594 366.6432 366.7395 367.0931 367.1083 367.2853 367.3672 367.4004 367.4442 367.5135 367.5355 367.621 367.6957 367.7368 367.759 367.8173 367.8055 367.72 367.7323 367.7287 367.6797 367.6233 367.628 367.6067 367.5557 367.5171 367.5187 367.4861 367.4225 367.4878 367.5813 367.6611 367.7669 367.9016 368.2387 368.4378 368.5471 368.6211 368.7045 368.7902 368.9128 368.965 368.9866 368.9891 369.0323 369.083 369.0775 369.0814 369.0428 369.0097 369.0208 369.0166 369.0131 369.0426 369.0848 369.1458 369.2251 369.2691 
369.8929 370.018 370.1796 370.2501 370.3286 370.3554 370.3487 370.3541 370.3338 370.2459 370.0728 369.9938 369.856 369.7148 369.6151 369.4383 369.0937 368.9154 368.7809 368.7272 368.7174 368.7185 368.7962 368.6624 368.4663 368.257 367.9777 367.3722 367.0676 366.6786 366.4254 366.4041 366.5682 366.5735 366.594 366.6432 366.7395 366.8254 366.9168 367.0717 367.0892 367.1424 367.2379 367.3298 367.4069 367.477 367.5757 367.6133 367.6024 367.5952 367.5952 367.6056 367.5912 367.5336 367.4889 367.5047 367.494 367.3811 367.391 367.4008 367.3769 367.3132 367.2913 367.3892 367.4776 367.5634 367.6404 367.7362 368.0841 368.2316 368.3361 368.412 368.5083 368.6191 368.7627 368.7777 368.7863 368.8418 368.878 368.8723 368.9157 368.9128 368.9202 368.901 368.8774 368.9171 368.9101 368.9467 368.9872 369.048 369.1168 369.11 
369.7951 369.9221 370.0712 370.1572 370.2525 370.2521 370.2517 370.2505 370.2311 370.1435 369.9704 369.8913 369.7551 369.6082 369.5005 369.3286 368.983 368.8154 368.6869 368.5885 368.5146 368.5162 368.3327 368.1425 367.9164 367.6515 367.9777 367.3722 367.0676 366.6786 366.4254 366.4041 366.4275 366.4279 366.4214 366.4598 366.5385 366.6241 366.7109 366.8107 366.8789 366.9756 367.0489 367.1178 367.1939 367.2924 367.3874 367.4261 367.4189 367.4186 367.4188 367.3996 367.338 367.3087 367.3078 367.2862 367.2793 367.2141 367.2213 367.2015 367.1834 367.1732 367.121 367.2904 367.3747 367.4599 367.5421 367.6346 367.9442 368.0453 368.118 368.2194 368.3573 368.4824 368.5542 368.596 368.6462 368.669 368.6706 368.717 368.7694 368.766 368.7695 368.7423 368.7125 368.7647 368.8153 368.7993 368.8489 368.9278 368.9698 369.0125 
369.7466 369.8906 369.9648 370.0516 370.1526 370.2211 370.2071 370.1409 370.128 370.0411 369.868 369.7887 369.6598 369.4799 369.303 369.1318 368.7843 368.6686 368.5406 368.3951 368.3294 368.5162 368.3327 368.1425 367.9164 367.6515 367.4119 366.8065 366.5573 366.4581 366.3923 366.3286 366.3316 366.3343 366.3163 366.3066 366.3523 366.4425 366.5276 366.7055 366.7747 366.853 366.9075 366.9347 367.0224 367.2017 367.2928 367.3324 367.3239 367.3219 367.3262 367.2436 367.2123 367.2326 367.1943 367.1122 367.1163 367.0967 367.086 367.0562 367.0117 367.0086 367.0938 367.1856 367.2722 367.357 367.4424 367.5234 367.7746 367.8826 367.955 368.0683 368.1946 368.2787 368.4064 368.4467 368.4926 368.512 368.5206 368.5666 368.6134 368.6114 368.6075 368.6062 368.6071 368.6067 368.7034 368.7075 368.756 368.8173 368.8145 368.8533 
369.6462 369.7827 369.8617 369.946 370.127 370.1561 370.1015 370.0502 370.0253 369.9387 369.7657 369.6885 369.5504 369.3611 369.1914 369.0199 368.7843 368.6686 368.5406 368.3951 368.3294 368.1162 367.9404 367.7095 367.4431 367.2334 367.0592 366.4863 366.4177 366.3875 366.2876 366.2259 366.2297 366.2121 366.1408 366.1614 366.2651 366.3505 366.4333 366.6106 366.6194 366.6548 366.753 366.8437 366.9286 367.0985 367.1901 367.2275 367.2346 367.2515 367.226 367.1453 367.1149 367.1094 367.0654 367.0128 366.9833 366.9343 366.9138 366.8976 366.8837 366.9198 367.0403 367.0975 367.1662 367.2544 367.3394 367.4229 367.6361 367.7708 367.874 367.9561 368.0218 368.0661 368.248 368.298 368.3416 368.3647 368.3671 368.4131 368.4583 368.4513 368.4834 368.5165 368.5081 368.5059 368.5342 368.5884 368.6335 368.6467 368.6556 368.7068 
369.5438 369.6797 369.7583 369.8428 370.0179 370.0435 370.0479 370.0186 369.9213 369.8348 369.6656 369.6885 369.5504 369.3611 369.1914 369.0199 368.6744 368.5049 368.3769 368.2864 368.1693 367.8308 367.6647 367.4313 367.2098 367.0573 366.867 366.4608 366.3634 366.2775 366.1848 366.1212 366.1295 366.0417 366.0103 366.0736 366.1496 366.2171 366.3302 366.4785 366.5313 366.5839 366.6497 366.7367 366.8219 366.9916 367.0858 367.1203 367.1582 367.2118 367.1237 367.0772 367.0388 366.9695 366.9118 366.9012 366.8171 366.7864 366.7753 366.7406 366.7272 366.8259 367.0069 367.0115 367.0528 367.1482 367.2368 367.3219 367.4845 367.6076 367.7151 367.8018 367.8783 367.9126 368.0315 368.1317 368.1591 368.1655 368.2177 368.257 368.3113 368.3057 368.3228 368.371 368.4148 368.4138 368.4006 368.4207 368.4749 368.506 368.5034 368.542 
369.428 369.565 369.6555 369.7398 369.9147 370.0435 370.0479 370.0186 369.9213 369.8348 369.6656 369.5809 369.3999 369.1607 368.9772 368.8067 368.4824 368.3634 368.231 368.0487 367.9039 367.6361 367.4648 367.2526 367.0298 366.8463 366.6662 366.3432 366.2575 366.1724 366.0965 366.0473 366.0236 365.9381 365.916 365.9514 366.0015 366.0829 366.2273 366.2997 366.4467 366.5506 366.5847 366.6735 366.7561 366.9289 366.9961 367.0109 367.0469 367.112 367.0603 367.0209 366.965 366.8612 366.8112 366.8019 366.7205 366.6237 366.6033 366.6013 366.6277 366.7167 366.8942 366.9444 367.0136 367.0781 367.1251 367.212 367.3826 367.4631 367.5538 367.6171 367.6649 367.7554 367.8337 367.9071 367.9796 368.0222 368.0593 368.1104 368.1495 368.14 368.1702 368.2216 368.2434 368.2405 368.2921 368.3045 368.3091 368.36 368.4088 368.4077 
369.428 369.565 369.6555 369.7398 369.9147 369.9411 369.9418 369.9116 369.8192 369.7334 369.5536 369.3974 369.2289 369.0265 368.7747 368.6294 368.3736 368.1927 368.0082 367.8709 367.7802 367.4522 367.2903 367.1093 366.8904 366.6621 366.511 366.2931 366.1892 366.0787 366.0177 366.0114 365.918 365.8167 365.8181 365.8198 365.9083 366.0486 366.0881 366.1846 366.341 366.4758 366.5542 366.6457 366.7656 366.9404 366.963 366.96 366.9803 367.0251 367.025 366.9613 366.9125 366.8142 366.7468 366.7027 366.5169 366.4978 366.5032 366.5185 366.5771 366.6664 366.7888 366.863 366.9614 367.026 367.0773 367.1698 367.3416 367.4305 367.4879 367.5245 367.5646 367.61 367.7013 367.7591 367.8242 367.8618 367.9092 367.9397 367.9883 368.0081 368.0156 368.0603 368.1055 368.0975 368.1199 368.1793 368.2091 368.2112 368.2289 368.2339 
369.1982 369.3848 369.5566 369.6384 369.8117 369.8402 369.8271 369.7913 369.7203 369.6339 369.3653 369.1894 369.01 368.7917 368.5807 368.4754 368.1602 367.9842 367.8199 367.6874 367.569 367.3194 367.1695 366.9481 366.7388 366.5739 366.4146 366.2502 366.1662 366.0544 365.9816 365.9234 365.7723 365.7032 365.7416 365.7918 365.8522 365.8726 365.8764 366.0897 366.2378 366.3641 366.4512 366.58 366.7209 366.9137 366.9314 366.9053 366.8697 366.866 366.8661 366.8698 366.8413 366.7738 366.6875 366.5893 366.4557 366.4614 366.4588 366.4912 366.5835 366.6663 366.8013 366.8779 366.9296 366.9891 367.0711 367.1122 367.281 367.3781 367.4027 367.4345 367.5056 367.5068 367.6029 367.6648 367.7 367.7303 367.8035 367.7978 367.8255 367.8268 367.8535 367.9065 367.9453 368.0033 367.9928 368.0135 368.0247 368.0469 368.1019 368.1037 
368.9986 369.2192 369.437 369.5389 369.7122 369.7486 369.6873 369.6167 369.5962 369.5056 369.1343 368.9578 368.75 368.5318 368.3659 368.0829 367.9253 367.7587 367.6515 367.5546 367.4109 367.1546 366.9867 366.8188 366.6526 366.4756 366.3132 366.14 366.0782 366.0513 366.0138 365.8731 365.6494 365.6005 365.6875 365.7041 365.6765 365.7116 365.7611 365.9832 366.1251 366.2768 366.4237 366.576 366.6631 366.8299 366.7904 366.735 366.7021 366.7046 366.7039 366.7401 366.7637 366.7302 366.6304 366.4824 366.3769 366.4502 366.4599 366.4825 366.5949 366.7205 366.8427 366.9341 367.0016 367.0443 367.0606 367.0633 367.244 367.2854 367.3286 367.375 367.4073 367.4667 367.4972 367.5618 367.5999 367.6304 367.7016 367.7002 367.6913 367.7381 367.7885 367.7957 367.7958 367.8281 367.9017 367.8926 367.8898 367.8994 367.918 367.923 
368.8532 369.0735 369.2317 369.3828 369.5654 369.5872 369.5528 369.4762 369.3799 369.2654 368.8672 368.6696 368.4909 368.3019 368.1312 367.7788 367.6255 367.5263 367.4504 367.358 367.2358 367.0072 366.8624 366.6819 366.5057 366.342 366.2155 366.0419 365.9994 365.963 365.8806 365.7486 365.632 365.5778 365.5998 365.5893 365.5602 365.6265 365.7202 365.9191 366.0818 366.2245 366.3879 366.5825 366.6696 366.6787 366.623 366.6053 366.6167 366.6162 366.6135 366.6813 366.7264 366.6885 366.5487 366.3399 366.3305 366.4295 366.4923 366.5523 366.6594 366.7566 366.8342 366.9303 366.9845 367.0249 367.0836 367.1351 367.1888 367.239 367.2845 367.3239 367.3751 367.402 367.3931 367.4592 367.4971 367.5306 367.6064 367.5983 367.5938 367.6079 367.6617 367.705 367.693 367.691 367.7789 367.8063 367.8008 367.7973 367.7881 367.8087 
368.6771 368.8299 368.9791 369.0657 369.2678 369.2518 369.2621 369.2432 369.1337 368.9539 368.61 368.4485 368.2433 368.0234 367.855 367.5105 367.381 367.2869 367.2067 367.0994 366.9613 366.7998 366.6472 366.4962 366.3452 366.1815 366.0715 365.9043 365.8068 365.7938 365.7072 365.5017 365.477 365.4945 365.4632 365.4861 365.5324 365.5655 365.6187 365.8295 366.0074 366.1743 366.3481 366.5751 366.6124 366.5247 366.4995 366.4858 366.4487 366.4483 366.4509 366.5859 366.6242 366.6039 366.4207 366.1453 366.3459 366.4215 366.507 366.5949 366.6824 366.767 366.852 366.9329 366.963 366.9639 367.0195 367.1028 367.1495 367.1932 367.1901 367.2243 367.3028 367.2982 367.2908 367.3559 367.4004 367.3985 367.4359 367.4987 367.4926 367.4897 367.4959 367.5417 367.6002 367.5924 367.6055 367.6137 367.6055 367.6328 367.6976 367.6946 
368.42 368.5348 368.6706 368.7904 368.9572 368.9458 368.9514 368.9274 368.8192 368.6496 368.3476 368.146 367.9538 367.7914 367.6222 367.2771 367.1222 367.0152 366.9331 366.8492 366.7688 366.6007 366.448 366.3026 366.1885 366.0384 365.8647 365.6653 365.5599 365.4842 365.373 365.2643 365.2724 365.2664 365.2856 365.3576 365.463 365.5233 365.5196 365.7252 365.8881 366.1099 366.3611 366.5543 366.5628 366.4961 366.4317 366.3583 366.2966 366.3054 366.3404 366.4264 366.4849 366.3834 366.1672 366.0704 366.3289 366.4735 366.5807 366.6705 366.7406 366.7742 366.8617 366.8764 366.9325 366.9619 366.9715 366.9939 367.075 367.0976 367.131 367.1865 367.1953 367.1944 367.1878 367.2586 367.305 367.2896 367.2911 367.3184 367.3943 367.3901 367.3876 367.3894 367.423 367.4921 367.4945 367.4938 367.4927 367.496 367.504 367.5022 
368.1214 368.2538 368.3709 368.5134 368.6364 368.6412 368.6462 368.6255 368.516 368.225 368.0668 367.8747 367.6943 367.5105 367.3047 366.9571 366.8571 366.7786 366.6878 366.6017 366.5146 366.3503 366.204 366.0147 365.853 365.7522 365.6679 365.3091 365.2506 365.092 364.9357 364.9691 364.9534 364.9637 365.1073 365.1868 365.2238 365.3145 365.4051 365.6368 365.847 366.0904 366.3722 366.559 366.5608 366.4381 366.3506 366.2597 366.1817 366.1386 366.1407 366.1707 366.1534 366.0222 365.9182 366.0074 366.328 366.509 366.6358 366.683 366.7118 366.769 366.8492 366.8619 366.8818 366.9001 366.8972 366.8923 366.9698 366.9976 367.0006 367.0442 367.0942 367.0927 367.0895 367.0979 367.1524 367.2009 367.1854 367.1931 367.2957 367.2867 367.2872 367.2852 367.2876 367.3025 367.3019 367.3014 367.2946 367.322 367.3901 367.3887 
367.8114 367.9125 368.0527 368.1266 368.2959 368.3506 368.3241 368.2692 368.1738 367.8536 367.7023 367.5906 367.457 367.2658 367.041 366.6865 366.5533 366.4788 366.4254 366.3358 366.2506 366.0481 365.8841 365.7403 365.5984 365.4395 365.3 364.9012 364.7896 364.679 364.5703 364.5387 364.5868 364.7166 364.8286 364.9417 365.0262 365.1263 365.3018 365.6026 365.796 366.038 366.2934 366.468 366.5158 366.3564 366.2409 366.165 366.0753 365.9983 365.9437 365.9236 365.9123 365.8761 365.8794 365.9753 366.2495 366.4323 366.5584 366.6274 366.6712 366.696 366.7937 366.7917 366.7893 366.7931 366.7928 366.7888 366.8644 366.8978 366.8823 366.9192 366.9921 366.9906 366.9883 366.9856 366.989 367.0332 367.0946 367.0875 367.1688 367.1941 367.1836 367.1839 367.1833 367.1821 367.1813 367.1809 367.1795 367.1834 367.1932 367.1915 
367.6031 367.6918 367.741 367.8192 367.9451 367.9905 367.9591 367.8958 367.7991 367.5826 367.5061 367.3637 367.1844 367.003 366.7831 366.4711 366.3542 366.2793 366.2283 366.1384 366.056 365.7608 365.5689 365.4396 365.283 365.0553 364.8295 364.4274 364.2714 364.2206 364.2364 364.2625 364.3526 364.5119 364.632 364.7648 364.8866 365.0314 365.2024 365.5541 365.722 365.9069 366.1061 366.2659 366.3503 366.2576 366.1552 366.0334 365.9167 365.8887 365.7978 365.7966 365.7482 365.7358 365.8207 365.9002 366.2069 366.3596 366.4444 366.5307 366.6129 366.6697 366.6897 366.7442 366.7363 366.6853 366.6865 366.695 366.7871 366.79 366.7767 366.8112 366.8895 366.8882 366.8855 366.8852 366.8832 366.8837 366.9129 366.9788 366.9875 367.0455 367.0874 367.0811 367.0807 367.0797 367.0793 367.0788 367.0779 367.0793 367.0833 367.082 
367.3595 367.4775 367.4691 367.5547 367.6637 367.6543 367.6434 367.5885 367.4935 367.324 367.2847 367.1675 366.9889 366.8016 366.5861 366.3293 366.2156 366.1066 366.02 365.9357 365.86 365.5316 365.2916 365.0756 364.8289 364.5915 364.4115 364.0139 363.9195 363.8676 363.9044 363.9966 364.0809 364.363 364.4876 364.6111 364.7609 364.9399 365.1241 365.4034 365.547 365.7282 365.8872 365.9984 366.0841 366.0679 366.0014 365.8805 365.8003 365.7892 365.6895 365.7027 365.6817 365.6669 365.709 365.804 366.1557 366.2667 366.3392 366.4245 366.5166 366.598 366.5837 366.6593 366.6451 366.5722 366.5763 366.594 366.6913 366.6742 366.7159 366.7781 366.7847 366.7844 366.7912 366.7855 366.7817 366.7761 366.795 366.8748 366.8731 366.9344 366.9855 366.9783 366.9778 366.9768 366.9764 366.9752 366.9835 366.958 366.8829 366.8809 
367.1281 367.2429 367.3263 367.4584 367.4611 367.4668 367.4217 367.3326 367.2972 367.1295 367.0751 366.9615 366.7746 366.6058 366.4353 366.1795 366.0223 365.8878 365.813 365.711 365.5864 365.2775 365.0082 364.7426 364.4721 364.242 364.0654 363.6368 363.5638 363.5816 363.6576 363.7623 363.9001 364.1886 364.2911 364.4112 364.6074 364.7501 364.8047 365.187 365.35 365.5058 365.5714 365.6119 365.7103 365.682 365.6687 365.6385 365.6186 365.6162 365.603 365.5331 365.545 365.5926 365.6034 365.7069 365.9873 366.1302 366.2467 366.3294 366.3985 366.4153 366.4872 366.5532 366.592 366.5626 366.5487 366.4956 366.5861 366.6315 366.6804 366.6831 366.6843 366.676 366.583 366.6467 366.6898 366.6729 366.6935 366.7773 366.7701 366.8311 366.8825 366.8753 366.8747 366.8737 366.8731 366.8793 366.8379 366.7724 366.7701 366.7733 
366.9164 367.0495 367.183 367.2574 367.295 367.2861 367.2279 367.2068 367.1983 367.0282 366.904 366.7788 366.6368 366.4571 366.2848 365.9737 365.8529 365.756 365.6784 365.571 365.3932 364.9537 364.6832 364.46 364.2443 363.9876 363.7556 363.41 363.4195 363.4791 363.4935 363.5529 363.7302 363.971 364.135 364.2605 364.3654 364.4662 364.5883 364.9794 365.1079 365.1999 365.2736 365.3409 365.3655 365.389 365.4137 365.443 365.5026 365.4809 365.4063 365.4457 365.4816 365.4841 365.5042 365.5931 365.8448 365.9586 366.1026 366.2033 366.2198 366.2875 366.3686 366.4057 366.4068 366.4036 366.3934 366.3809 366.4525 366.5491 366.594 366.5855 366.5886 366.5789 366.4705 366.4754 366.5264 366.5848 366.5742 366.586 366.6722 366.7305 366.7827 366.772 366.7716 366.7706 366.7698 366.7788 366.7348 366.6638 366.6695 366.5904 
366.737 366.893 366.9698 367.1076 367.1522 367.1355 367.1044 367.1108 367.0976 366.9296 366.7742 366.6172 366.4969 366.3637 366.1907 365.8427 365.687 365.5828 365.5104 365.4092 365.2296 364.6971 364.4878 364.2805 364.0325 363.785 363.5841 363.2993 363.3498 363.4026 363.4134 363.4669 363.5199 363.7816 363.9421 364.071 364.1584 364.3171 364.4946 364.6999 364.8443 364.931 364.9812 365.1273 365.1269 365.1718 365.2603 365.2942 365.3344 365.384 365.2701 365.3492 365.3947 365.3797 365.4021 365.4871 365.7439 365.8582 365.9456 366.0391 366.0896 366.1035 366.1965 366.1929 366.185 366.2194 366.2877 366.2839 366.3543 366.3963 366.39 366.3847 366.3856 366.3885 366.3792 366.3754 366.3692 366.4056 366.4738 366.5568 366.5772 366.5652 366.6129 366.6764 366.6692 366.6701 366.6761 366.6176 366.5609 366.5649 366.5675 366.4854 
366.5594 366.6727 366.7585 366.8917 366.9356 366.9473 366.9667 367.0134 367.0031 366.8275 366.6797 366.4922 366.3661 366.2707 366.0902 365.7435 365.6183 365.4799 365.361 365.2502 365.0229 364.5715 364.3243 364.1185 363.8998 363.6544 363.4851 363.2774 363.2696 363.2776 363.3049 363.3957 363.4599 363.6621 363.7548 363.8812 364.048 364.217 364.3942 364.5284 364.6708 364.7 364.7641 365.0096 365.0089 364.9802 365.0999 365.1965 365.1896 365.1982 365.2487 365.283 365.285 365.2743 365.2924 365.386 365.5679 365.6564 365.7396 365.8243 365.9117 365.9816 366.0599 366.0891 366.0819 366.0833 366.0818 366.0901 366.1866 366.1746 366.2219 366.2881 366.2631 366.1836 366.171 366.2307 366.2807 366.2686 366.2863 366.3723 366.4387 366.4763 366.4624 366.4916 366.5696 366.4853 366.4594 366.4638 366.4625 366.4667 366.4518 366.3599 
366.45 366.5345 366.6134 366.634 366.6989 366.7682 366.8473 366.9008 366.8389 366.7355 366.5866 366.4073 366.2426 366.1087 365.9946 365.6451 365.4862 365.4048 365.334 365.1495 364.8924 364.4671 364.2512 364.0486 363.7925 363.561 363.4629 363.2845 363.257 363.2815 363.3315 363.3672 363.4545 363.5537 363.6371 363.7719 363.9327 364.0194 364.2516 364.4327 364.4976 364.5612 364.7106 364.8243 364.8994 364.8657 364.9853 365.1025 365.0832 365.0779 365.1585 365.1878 365.1741 365.2089 365.2689 365.2861 365.4588 365.5453 365.6296 365.7196 365.7834 365.7981 365.8911 365.885 365.8746 365.9093 365.9796 365.9768 366.0484 366.0809 366.0762 366.079 366.0769 366.0724 366.0683 366.069 366.0637 366.094 366.1653 366.2476 366.2722 366.2581 366.3013 366.3677 366.3636 366.3607 366.3597 366.3659 366.3231 366.2534 366.2579 366.1773 
366.2794 366.3715 366.4451 366.4805 366.5607 366.6542 366.7219 366.7269 366.7021 366.5784 366.4045 366.2271 366.08 365.9635 365.8148 365.5341 365.37 365.2602 365.1698 364.9821 364.7891 364.4302 364.2057 363.9474 363.7094 363.5233 363.3826 363.2712 363.2786 363.3836 363.4458 363.4438 363.4593 363.4669 363.5322 363.6302 363.7521 363.8921 364.1436 364.3435 364.4009 364.4282 364.5286 364.6097 364.6951 364.8066 364.8869 364.9257 364.9799 364.9887 365.0798 365.0787 365.0707 365.1106 365.1764 365.1855 365.2815 365.3382 365.428 365.5204 365.5841 365.5883 365.6788 365.7347 365.7814 365.7745 365.7711 365.779 365.8791 365.874 365.8731 365.8713 365.8687 365.8662 365.9357 365.972 365.964 365.9583 365.9752 366.0647 366.054 366.112 366.1653 366.1571 366.156 366.1537 366.1527 366.1516 366.1512 366.1563 366.1423 366.0489 
366.1476 366.2123 366.2369 366.3857 366.4724 366.5644 366.6107 366.6084 366.6093 366.4366 366.2794 366.0969 365.9677 365.866 365.683 365.3649 365.2466 365.1632 365.0471 364.8648 364.694 364.3468 364.1628 363.9204 363.6844 363.5391 363.4356 363.3965 363.4372 363.4527 363.4618 363.4611 363.4611 363.4608 363.4631 363.5005 363.6144 363.7974 364.0665 364.1009 364.1528 364.2323 364.3483 364.4903 364.5519 364.7195 364.7883 364.8118 364.8752 364.8815 364.9803 364.975 364.9677 365.0069 365.0728 365.0828 365.1729 365.2246 365.3256 365.3759 365.3925 365.4673 365.5452 365.578 365.5642 365.5983 365.6705 365.67 365.6674 365.6661 365.6588 365.6904 365.7643 365.7618 365.7611 365.7531 365.7981 365.8635 365.8586 365.8527 365.9226 365.9603 365.9512 365.9503 365.9497 365.9514 365.9504 365.95 365.9473 365.9427 365.9423 365.9448 
365.9736 366.0569 366.1034 366.2101 366.2997 366.3904 366.4428 366.4199 366.3689 366.2707 366.1066 365.9142 365.7829 365.7042 365.5847 365.177 365.0418 364.9246 364.7884 364.6685 364.5048 364.2363 364.112 363.974 363.741 363.5162 363.4454 363.4576 363.4617 363.4611 363.4611 363.4611 363.4611 363.4611 363.4571 363.5191 363.6729 363.7725 363.9687 363.9906 363.979 364.0211 364.1151 364.2202 364.4655 364.5437 364.6226 364.7055 364.7965 364.8661 364.8727 364.8723 364.8622 364.8999 364.9735 364.9698 365.04 365.1369 365.1716 365.2007 365.2682 365.2768 365.3684 365.4252 365.4725 365.4649 365.4642 365.4617 365.5325 365.5675 365.5598 365.559 365.5577 365.5565 365.55 365.6089 365.6602 365.6512 365.6478 365.7317 365.7537 365.7455 365.7448 365.7407 365.7579 365.8495 365.844 365.8505 365.8098 365.7408 365.7423 365.7423 
365.8102 365.8422 365.9304 366.0139 366.077 366.1776 366.2426 366.1892 366.0359 365.9509 365.9333 365.8123 365.6173 365.5114 365.4932 365.0439 364.9663 364.8809 364.7359 364.6444 364.4722 364.2018 364.1194 364.0291 363.9275 363.8015 363.6296 363.4589 363.4611 363.4611 363.4611 363.4611 363.4611 363.4596 363.4913 363.6351 363.7646 363.7839 363.8068 363.7737 363.8336 363.8838 363.9058 363.991 364.2306 364.4677 364.6365 364.6692 364.6876 364.7679 364.7692 364.7599 364.8109 364.8714 364.8678 364.8647 364.9399 364.9659 365.01 365.0651 365.0815 365.1593 365.1566 365.2194 365.261 365.2872 365.3604 365.3601 365.3553 365.3549 365.3555 365.3497 365.3663 365.4554 365.4508 365.4478 365.4473 365.4451 365.4598 365.5466 365.5401 365.5392 365.5351 365.5659 365.6398 365.6342 365.6337 365.6321 365.6333 365.6365 365.6356 365.6338 
365.6436 365.7233 365.7996 365.8791 365.9711 366.0202 366.0284 366.0003 365.8603 365.653 365.6284 365.6161 365.5358 365.3244 365.2194 365.0549 364.923 364.8077 364.632 364.4756 364.3112 364.0569 363.9427 363.8623 363.7731 363.7025 363.6711 363.5494 363.563 363.518 363.4592 363.4759 363.5609 363.5569 363.5547 363.611 363.6858 363.6822 363.68 363.6765 363.6805 363.6776 363.6948 363.7933 364.1189 364.3708 364.4764 364.5334 364.6713 364.6696 364.6614 364.7255 364.7708 364.7645 364.7641 364.7614 364.8367 364.8615 364.9049 364.9666 364.9572 364.9644 365.0624 365.0481 365.0961 365.1596 365.1523 365.1505 365.145 365.2059 365.2566 365.2492 365.2475 365.2466 365.2475 365.2396 365.2821 365.3477 365.3429 365.3346 365.3398 365.3358 365.3755 365.4398 365.4318 365.4283 365.4264 365.4318 365.4381 365.4369 365.4362 365.4352 
365.5052 365.5448 365.6171 365.7026 365.7362 365.7776 365.8139 365.789 365.8474 366.0164 365.7952 365.4355 365.3154 365.4726 365.2697 364.9432 364.721 364.6745 364.5189 364.2587 364.0966 363.8509 363.7311 363.6562 363.5615 363.4879 363.4923 363.4831 363.4837 363.4791 363.4642 363.4695 363.4798 363.4787 363.4775 363.4794 363.4829 363.481 363.4752 363.4745 363.4741 363.4659 363.4825 363.5784 364.0737 364.3102 364.4195 364.502 364.5681 364.5653 364.5572 364.623 364.6687 364.661 364.6606 364.6601 364.6529 364.7169 364.7577 364.7837 364.8568 364.8578 364.8525 364.8452 364.8902 364.9524 364.9506 364.9475 365.0162 365.0497 365.0397 365.039 365.0362 365.123 365.146 365.1398 365.1367 365.132 365.131 365.1334 365.2018 365.241 365.2307 365.2253 365.2243 365.2325 365.2295 365.2788 365.3333 365.3269 365.3257 365.3231 
365.315 365.3276 365.403 365.4004 365.4459 365.5181 365.5939 365.8232 366.2682 366.49 366.3655 366.1519 365.9001 365.5753 365.2538 364.6517 364.5492 364.3673 364.1906 364.144 363.9726 363.7124 363.5721 363.4305 363.3827 363.3661 363.2891 363.2869 363.2853 363.2844 363.2835 363.2823 363.2802 363.2791 363.2781 363.2773 363.2717 363.285 363.3716 363.3629 363.3542 363.3962 363.4529 363.4825 364.0034 364.1307 364.2565 364.4062 364.4649 364.4597 364.5354 364.5655 364.5579 364.5577 364.5573 364.5568 364.5502 364.6133 364.662 364.6482 364.6649 364.7429 364.7466 364.7461 364.7396 364.7715 364.8444 364.8416 364.8372 364.8343 364.8339 364.8277 364.8441 364.9354 364.9285 364.9278 364.9267 364.9253 364.9236 365.011 365.0305 365.0208 365.0208 365.0199 365.0156 365.0993 365.1311 365.1192 365.1136 365.1117 365.1127 365.1302 
365.1255 365.2043 365.2886 365.42 365.5465 365.6962 365.9235 366.24 366.4556 366.5609 366.5593 366.4845 366.2217 365.7479 365.201 364.397 364.2956 364.2442 364.1622 364.1358 363.973 363.5562 363.406 363.3336 363.2481 363.1838 363.0938 363.0701 363.0772 363.078 363.0768 363.0757 363.0736 363.0725 363.0714 363.0709 363.0646 363.0723 363.2348 363.3947 363.4743 363.4549 363.4771 363.5634 363.8062 363.9806 364.1585 364.3023 364.3576 364.3658 364.4615 364.4551 364.455 364.4545 364.4539 364.4535 364.4469 364.5096 364.5583 364.5511 364.5497 364.5454 364.5438 364.5363 364.5818 364.642 364.6343 364.6408 364.6397 364.6392 364.6388 364.6341 364.6474 364.7277 364.7216 364.7286 364.736 364.7303 364.7431 364.8234 364.8163 364.8156 364.8129 364.8166 364.8283 364.892 364.9149 365.1192 365.1136 365.1117 365.1127 365.1302 
365.0192 365.1089 365.1861 365.4167 365.6429 365.8318 366.0823 366.3858 366.4635 366.6425 366.6235 366.4674 366.1453 365.5389 364.7227 363.9691 363.877 363.9801 364.0946 364.0456 363.8732 363.5273 363.3571 363.1851 363.0385 362.9709 362.9713 362.9781 362.9193 362.8646 362.8701 362.8691 362.8669 362.866 362.8654 362.8525 362.8924 363.0851 363.4527 363.4674 363.4552 363.4898 363.5892 363.6514 363.5336 363.7174 364.0073 364.2044 364.2555 364.2657 364.3574 364.352 364.3518 364.3512 364.3507 364.3503 364.3437 364.406 364.4552 364.4478 364.4473 364.4468 364.4459 364.4459 364.4426 364.4333 364.4498 364.5348 364.5299 364.5294 364.5285 364.528 364.526 364.5165 364.5212 364.5796 364.6295 364.6233 364.6211 364.612 364.6093 364.6189 364.8129 364.8166 364.8283 364.892 364.9149 364.9068 364.9142 364.9253 364.9338 365.0171 
364.8849 364.9272 365.085 365.3111 365.6091 365.9157 366.1263 366.3291 366.5505 366.5713 366.6124 366.4128 365.908 365.2727 364.5788 363.6653 363.5368 363.6935 363.9557 364.0535 363.8737 363.423 363.2586 363.0806 362.9308 362.8666 362.788 362.6941 362.66 362.6646 362.6635 362.6625 362.6602 362.6593 362.6522 362.6696 362.8355 363.1883 363.4711 363.5279 363.5725 363.5619 363.5597 363.5387 363.4335 363.6223 363.906 364.0963 364.1782 364.2526 364.2492 364.2492 364.2487 364.2481 364.2476 364.2472 364.2404 364.3026 364.3527 364.3452 364.3448 364.3444 364.3435 364.343 364.3435 364.3392 364.3261 364.3304 364.334 364.3326 364.3321 364.3316 364.3313 364.3268 364.389 364.4215 364.4098 364.6233 364.6211 364.612 364.6093 364.6189 364.6249 364.6452 364.714 364.7058 364.7174 364.7221 364.7523 364.8137 364.8091 364.8171 
364.7237 364.8056 364.905 365.3052 365.5668 365.8245 366.0814 366.3174 366.4875 366.5332 366.3467 366.0078 365.4973 364.8973 364.3699 363.5222 363.4319 363.5367 363.7423 363.8452 363.6829 363.3611 363.1483 362.9785 362.8331 362.748 362.6638 362.5259 362.4456 362.4583 362.4568 362.4557 362.4536 362.4528 362.4407 362.4824 362.8045 363.3591 363.5402 363.6376 363.6241 363.5268 363.4075 363.2029 363.3432 363.6589 363.8555 364.0275 364.1582 364.1508 364.1465 364.1461 364.1456 364.1451 364.1446 364.1443 364.1382 364.192 364.2358 364.2291 364.2281 364.2263 364.2255 364.2244 364.2295 364.2011 364.1281 364.2027 364.2246 364.2183 364.2177 364.3316 364.3313 364.3268 364.389 364.4215 364.4098 364.4095 364.4085 364.4041 364.4127 364.4694 364.5188 364.5105 364.5007 364.5142 364.5772 364.6135 364.6008 364.6001 364.6202 364.6801 
364.4247 364.5092 364.6023 364.9348 365.2288 365.5391 365.7966 366.0386 366.1945 366.0625 365.898 365.5916 365.1429 364.6876 364.1733 363.4972 363.4564 363.4838 363.6555 363.8441 363.4955 363.3308 363.0997 362.8689 362.73 362.6479 362.4741 362.3888 362.2952 362.2445 362.2498 362.249 362.2466 362.2426 362.2859 362.386 362.6953 363.2504 363.5427 363.5648 363.5109 363.3825 363.0948 362.7945 363.5129 363.687 363.8532 363.9906 364.0481 364.0461 364.0436 364.0431 364.0427 364.0423 364.0417 364.0413 364.0407 364.0357 364.0314 364.0313 364.0309 364.0299 364.0293 364.0289 364.0277 364.0301 364.1281 364.2027 364.2246 364.2183 364.2177 364.2169 364.216 364.2146 364.2092 364.2056 364.2045 364.2015 364.2037 364.2221 364.2779 364.3108 364.2965 364.3012 364.3206 364.3823 364.3992 364.4049 364.4184 364.4317 364.4939 364.5137 
364.2767 364.2879 364.3859 364.725 364.9756 365.1365 365.2727 365.5312 365.6921 365.5502 365.3815 365.1207 364.7638 364.4018 363.9628 363.4361 363.4624 363.4543 363.5449 363.7536 363.5029 363.2622 362.9942 362.7719 362.6367 362.5367 362.2679 362.1882 362.0975 362.0461 362.0485 362.0482 362.0425 362.1088 362.1283 362.257 362.641 363.063 363.4508 363.442 363.2894 362.8918 362.6505 363.0147 363.5541 363.6706 363.7965 363.8766 363.9447 363.9433 363.9407 363.9403 363.9398 363.9394 363.9389 363.9384 363.9376 363.9372 363.9367 363.9363 363.9359 364.0299 364.0293 364.0289 364.0277 364.0301 364.0372 364.0297 364.0272 364.0272 364.0268 364.0264 364.026 364.0263 364.0087 363.9952 364.0069 364.0214 364.0307 364.1094 364.0992 364.0916 364.0966 364.1367 364.1982 364.2143 364.2168 364.2507 364.3089 364.3278 364.3187 364.3696 
364.1031 364.1655 364.1852 364.3784 364.4073 364.6507 364.9255 364.9827 364.9687 364.8841 364.6402 364.4089 364.2855 364.0189 363.7585 363.3685 363.4089 363.4543 363.5146 363.647 363.4825 363.2604 363.0471 362.8833 362.7079 362.5339 362.1799 362.139 362.0998 361.9979 361.9306 361.9336 361.9396 361.9267 362.032 362.2039 362.4283 362.7937 363.0445 362.956 362.6022 362.3735 362.6986 363.3016 363.5625 363.609 363.699 363.7845 363.8415 363.8402 363.838 363.8375 363.837 363.8366 363.8362 363.9384 363.9376 363.9372 363.9367 363.9363 363.9359 363.935 363.9356 363.9359 363.9368 363.9297 363.9114 363.9096 363.9087 363.9078 363.907 363.9061 363.9054 363.9096 363.853 363.811 363.8488 363.9057 363.9024 363.8916 363.8873 363.897 363.9466 363.9962 363.9873 364.074 364.0934 364.0974 364.1399 364.1882 364.1906 364.2216 
363.9691 363.981 364.0677 364.1579 364.2731 364.426 364.4314 364.3789 364.4387 364.2442 364.2065 364.0727 363.8924 363.7224 363.5517 363.3442 363.3495 363.3925 363.4895 363.5639 363.4006 363.1505 362.9441 362.7307 362.4867 362.313 361.9657 361.8521 361.7742 361.6869 361.6179 361.632 361.7339 361.7962 361.9182 362.0827 362.1931 362.1718 362.1655 362.0703 362.0348 362.29 362.9068 363.4504 363.5563 363.6042 363.6938 363.7484 363.737 363.7359 363.838 363.8375 363.837 363.8366 363.8362 363.8353 363.8348 363.8346 363.834 363.834 363.835 363.835 363.8174 363.8066 363.8127 363.7878 363.7226 363.721 363.7222 363.7228 363.7222 363.7232 363.7188 363.6879 363.6941 363.6976 363.6928 363.686 363.6853 363.6819 363.6996 363.7558 363.7933 363.7876 363.82 363.9125 363.9117 363.9409 363.9969 364.0151 364.0199 364.081 
363.6805 363.7756 363.863 363.952 364.0726 364.1672 364.1472 364.1739 364.2375 363.895 363.8463 363.7755 363.586 363.433 363.2676 363.1656 363.2516 363.4079 363.4928 363.5492 363.2901 363.0477 362.7782 362.5146 362.2493 361.9923 361.6518 361.5357 361.5082 361.474 361.4112 361.4078 361.5659 361.6983 361.6654 361.6251 361.6818 361.6675 361.6723 361.6883 361.835 362.25 362.8506 363.2943 363.5209 363.6042 363.6938 363.7484 363.737 363.7359 363.7352 363.7347 363.7344 363.7339 363.7335 363.7327 363.7322 363.7328 363.7351 363.7269 363.7065 363.7077 363.6485 363.6149 363.6196 363.6221 363.6303 363.6311 363.6091 363.5949 363.5961 363.5985 363.5877 363.5125 363.5157 363.5169 363.5187 363.5182 363.5181 363.511 363.5572 363.5869 363.57 363.592 363.6784 363.7621 363.8099 363.8185 363.8321 363.877 363.8794 363.9128 
363.5507 363.5666 363.652 363.8268 363.8468 363.8888 363.953 363.9491 363.9388 363.782 363.6982 363.5595 363.4081 363.3255 363.1545 363.1424 363.2716 363.4182 363.4612 363.4678 363.1261 362.8267 362.5068 362.1848 361.8939 361.5973 361.3586 361.239 361.1412 361.0891 361.0939 361.1051 361.289 361.3653 361.4005 361.4011 361.3699 361.3065 361.3976 361.6883 361.835 362.25 362.8506 363.2943 363.5209 363.5523 363.5898 363.6388 363.6341 363.6319 363.6328 363.6321 363.6317 363.6313 363.6308 363.632 363.6338 363.6165 363.606 363.5828 363.52 363.5185 363.526 363.5302 363.5311 363.5216 363.4955 363.4967 363.4435 363.4102 363.4152 363.4153 363.4187 363.4263 363.4282 363.4068 363.3823 363.3839 363.3823 363.4133 363.4219 363.4132 363.4053 363.4242 363.5086 363.5996 363.6488 363.6755 363.6841 363.7121 363.717 363.7717 
363.3441 363.3668 363.4395 363.5065 363.5951 363.6845 363.7417 363.7415 363.7466 363.6837 363.5351 363.3502 363.1673 363.037 362.9555 363.1474 363.3941 363.4644 363.4622 363.4568 362.9303 362.5318 362.1146 361.6932 361.4127 361.2914 361.1438 360.987 360.8381 360.7832 360.7844 360.8195 361.097 361.112 361.4005 361.4011 361.3699 361.3065 361.3976 361.5956 361.8606 362.207 362.6802 363.0057 363.3953 363.4794 363.5325 363.5311 363.5358 363.554 363.5286 363.5295 363.5302 363.5314 363.5318 363.506 363.5027 363.4564 363.4119 363.4202 363.4286 363.4294 363.405 363.3897 363.396 363.3747 363.316 363.3137 363.3214 363.3261 363.3274 363.3171 363.2849 363.2822 363.2858 363.2487 363.2068 363.2104 363.209 363.2586 363.2764 363.2928 363.3132 363.333 363.4127 363.4878 363.5239 363.5058 363.5226 363.5674 363.5658 363.5919 
363.1759 363.2462 363.2403 363.312 363.333 363.3644 363.4574 363.5539 363.6315 363.4674 363.3369 363.09 362.8996 362.9309 362.9576 363.1658 363.3916 363.4637 363.465 363.4289 362.6244 362.0651 361.5066 361.086 360.9346 360.9748 360.9462 360.793 360.5971 360.7832 360.7844 360.8195 361.097 361.112 361.1044 361.0971 361.0808 361.0827 361.261 361.502 361.7652 362.0809 362.4642 362.801 363.1739 363.2549 363.3601 363.4339 363.4438 363.5015 363.4249 363.4326 363.4173 363.3957 363.3984 363.3315 363.3137 363.3241 363.3301 363.319 363.2907 363.2916 363.2397 363.2084 363.2144 363.2188 363.2246 363.226 363.1974 363.1778 363.184 363.1664 363.1125 363.11 363.1091 363.1127 363.1168 363.1161 363.1158 363.1098 363.0994 363.1563 363.2216 363.2209 363.2649 363.352 363.3633 363.3858 363.4192 363.4107 363.4024 363.4386 
363.0393 363.0306 363.0385 363.1382 363.1292 363.1715 363.2523 363.3332 363.3987 363.2525 363.1249 362.8432 362.6324 362.7365 363.0141 363.2768 363.4362 363.4621 363.4687 363.3936 362.2102 361.5129 360.8936 361.086 360.9346 360.9748 360.9462 360.793 360.5971 360.4813 360.511 360.6165 360.8913 360.8995 360.8771 360.8293 360.7678 360.8208 361.1901 361.401 361.7054 362.0229 362.2811 362.5878 362.9172 363.0351 363.1849 363.3197 363.3297 363.3278 363.3054 363.2968 363.2631 363.2129 363.2178 363.2261 363.2014 363.1848 363.1912 363.1697 363.1142 363.1165 363.1213 363.1274 363.109 363.0783 363.0785 363.0803 363.0349 363.005 363.0088 363.0113 363.0208 363.0206 363.0204 363.0201 363.0201 363.0186 363.0137 363.0128 363.009 363.0308 363.0797 363.108 363.1114 363.2188 363.2023 363.225 363.2567 363.2645 363.3117 363.3006 
362.8321 362.8362 362.8428 362.924 362.9848 363.0367 363.0232 363.0135 362.9912 362.9153 362.7914 362.6191 362.5241 362.5976 362.982 363.2854 363.4292 363.4612 363.4687 363.3936 362.2102 361.5129 360.8936 360.5435 360.4903 360.6073 360.7432 360.5866 360.4057 360.3082 360.3341 360.4336 360.6967 360.6466 360.532 360.471 360.5385 360.7261 361.1591 361.3558 361.6113 361.9087 362.1412 362.3848 362.6504 362.7853 362.9728 363.1234 363.197 363.1919 363.1378 363.1105 363.1235 363.1167 363.0858 363.0865 363.0359 363.0093 363.0159 363.0193 363.0189 362.9761 362.9771 362.9808 362.9531 362.908 362.9131 362.9132 362.9178 362.9206 362.9228 362.9105 362.8695 362.8659 362.8652 362.8644 362.8605 362.8714 362.915 362.9123 362.9106 362.9002 362.9343 363.0148 363.0135 363.0528 363.0879 363.1139 363.099 363.1057 363.2033 363.2173 
362.6618 362.7312 362.7303 362.715 362.7682 362.8035 362.792 362.7775 362.5764 362.4061 362.4351 362.3702 362.168 362.5976 362.982 363.2854 363.4292 363.4612 363.4868 363.3392 361.7419 361.0014 360.4726 360.2816 360.3353 360.4076 360.512 360.3982 360.2685 360.2193 360.2412 360.3405 360.5135 360.4418 360.3418 360.3366 360.4756 360.6579 361.0662 361.2932 361.5655 361.7779 361.959 362.2092 362.4714 362.6215 362.8073 362.9415 362.9852 363.0182 363.0246 363.0028 362.9836 362.9648 362.9122 362.9154 362.9229 362.8998 362.873 362.8779 362.8681 362.8098 362.814 362.8128 362.8183 362.8103 362.7698 362.7667 362.7657 362.7648 362.7672 362.7531 362.7074 362.7049 362.7044 362.7043 362.701 362.712 362.7526 362.7985 362.8152 362.8044 362.8162 362.8607 362.9106 362.8999 362.9213 362.9759 363.0163 363.0099 363.0344 363.0407 
362.5235 362.5169 362.5163 362.5033 362.4988 362.4474 362.3699 362.3304 362.5764 362.4061 362.4351 362.3702 362.168 362.2796 363.0107 363.3232 363.436 363.4672 363.4104 363.0182 361.3779 360.6347 360.2842 360.2385 360.2245 360.2293 360.3045 360.2444 360.1637 360.1222 360.1388 360.2055 360.2789 360.2006 360.2188 360.3617 360.5136 360.6594 360.991 361.1965 361.4507 361.6792 361.8597 362.0752 362.3575 362.5114 362.6697 362.7973 362.8257 362.882 362.8823 362.8449 362.81 362.8182 362.8167 362.7715 362.7767 362.7396 362.7057 362.7128 362.7148 362.6793 362.6633 362.6655 362.668 362.6529 362.6071 362.605 362.6046 362.604 362.6061 362.6104 362.6096 362.6086 362.6083 362.608 362.6079 362.6066 362.6011 362.6317 362.6885 362.7146 362.7013 362.7061 362.744 362.7911 362.806 362.8144 362.8396 362.849 362.9025 362.894 
362.3123 362.3121 362.5163 362.5033 362.4988 362.4474 362.3699 362.3304 362.0649 361.938 361.9543 361.884 361.7225 361.8673 362.8481 363.3259 363.5226 363.5385 363.3584 362.6853 361.0187 360.468 360.2576 360.1977 360.1189 360.098 360.0966 360.0276 359.9838 359.9958 359.9905 359.9943 359.984 360.0117 360.2841 360.5561 360.6166 360.6973 360.9995 361.1668 361.3657 361.5774 361.7433 362.0884 362.2343 362.3457 362.4944 362.638 362.6822 362.7157 362.7163 362.6922 362.6685 362.6731 362.6632 362.6089 362.6125 362.6192 362.6009 362.5625 362.5643 362.518 362.5053 362.5115 362.5103 362.5117 362.5161 362.5157 362.5153 362.5193 362.4932 362.4614 362.5106 362.5136 362.5134 362.5136 362.5108 362.505 362.5047 362.4983 362.5185 362.5731 362.6149 362.6094 362.5958 362.6208 362.6793 362.7092 362.6944 362.6986 362.7944 362.8122 
362.3123 362.3121 362.2979 362.2306 362.1927 362.1548 362.0337 361.837 361.5323 361.3894 361.2413 361.1564 361.1683 361.3612 362.8191 363.3785 363.6108 363.6208 363.1818 362.2743 360.6359 360.2954 360.188 360.0916 360.0028 359.9162 359.8857 359.8443 359.8139 359.8202 359.8123 359.7776 359.8471 360.1588 360.4629 360.6 360.6783 360.7645 361.0117 361.1477 361.299 361.4701 361.6421 361.949 362.0619 362.2207 362.3902 362.4861 362.5211 362.571 362.5711 362.539 362.5086 362.5115 362.5138 362.4748 362.4584 362.4646 362.4435 362.4089 362.4096 362.4173 362.3787 362.3506 362.3541 362.3531 362.3523 362.3506 362.3496 362.3522 362.3317 362.3069 362.3434 362.3445 362.3439 362.3384 362.3608 362.4118 362.4113 362.4016 362.3963 362.4127 362.4345 362.4451 362.5037 362.494 362.509 362.5618 362.6104 362.6046 362.6199 362.6235 
362.1078 362.1067 361.9937 361.9629 361.9042 361.8135 361.7061 361.515 361.1024 360.9978 360.8563 360.6256 360.5782 361.0167 362.7259 363.4723 363.6795 363.396 362.7397 361.8624 360.4162 360.2462 360.1389 359.9837 359.9058 359.82 359.7128 359.6986 359.6842 359.6925 359.6733 359.612 359.9745 360.366 360.5725 360.6284 360.7128 360.804 361.0367 361.1076 361.2101 361.3608 361.5405 361.7908 361.9476 362.1021 362.2279 362.3293 362.3715 362.4136 362.4145 362.386 362.3575 362.3596 362.3603 362.3152 362.3044 362.3141 362.2914 362.2519 362.2522 362.2532 362.2246 362.2055 362.2082 362.2079 362.2078 362.2074 362.2071 362.2066 362.2083 362.2102 362.2066 362.2001 362.1971 362.1947 362.2077 362.234 362.2387 362.3121 362.3028 362.2968 362.2932 362.2968 362.3927 362.4041 362.3917 362.4051 362.4225 362.4331 362.4974 362.4889 
361.9053 361.89 361.7063 361.6348 361.5395 361.4432 361.3324 361.1605 360.9174 360.7586 360.5767 360.391 360.3939 360.881 362.8276 363.6081 363.7412 363.191 362.2904 361.4195 360.2604 360.1325 360.0094 359.8918 359.7986 359.6835 359.5965 359.5442 359.494 359.4703 359.4687 359.5165 360.077 360.4397 360.6308 360.6955 360.7812 360.8664 361.0356 361.1217 361.2009 361.2932 361.437 361.7021 361.812 361.9398 362.0736 362.1768 362.2172 362.2599 362.26 362.2331 362.2068 362.2094 362.2092 362.2158 362.1744 362.1486 362.136 362.1069 362.1074 362.1106 362.0692 362.0399 362.0433 362.0424 362.0416 362.0399 362.039 362.0381 362.0373 362.0365 362.0343 362.0868 362.1125 362.1073 362.1065 362.101 362.122 362.1249 362.1693 362.2107 362.2026 362.1944 362.214 362.2785 362.3038 362.2921 362.2896 362.2912 362.3843 362.3995 
361.7203 361.6831 361.5303 361.5131 361.4091 361.282 361.175 361.0088 360.7558 360.5882 360.4038 360.2921 360.3664 360.7492 362.6698 363.3878 363.383 362.6942 361.7298 360.9152 360.15 359.9964 359.8458 359.7512 359.6523 359.5202 359.4001 359.378 359.3289 359.2649 359.3197 359.4571 360.1395 360.4272 360.5874 360.6964 360.7811 360.9104 360.9846 361.0722 361.1578 361.2384 361.3271 361.5396 361.6564 361.7859 361.9192 362.0243 362.0612 362.1116 362.1126 362.08 362.0461 362.0491 362.048 362.0544 362.0249 362.0083 361.9868 361.9408 361.9419 361.9509 361.9224 361.9027 361.9054 361.9052 361.9049 361.9044 361.9042 361.9039 361.9037 361.9035 361.9026 361.921 361.9292 361.927 361.9221 361.9355 362.0044 361.9925 362.0074 362.0177 362.0399 362.1006 362.0889 362.102 362.1608 362.2057 362.1976 362.1896 362.2025 362.2678 
361.5853 361.5053 361.4238 361.3586 361.2701 361.1783 361.0528 360.9082 360.6505 360.5011 360.2882 360.1656 360.2456 360.5714 362.0244 362.4546 362.3945 361.8669 361.1401 360.5092 360.0358 359.8507 359.6985 359.5666 359.455 359.3745 359.1907 359.1664 359.1361 359.1198 359.2342 359.462 360.1561 360.3835 360.5244 360.6421 360.7339 360.8132 360.8719 360.963 361.0507 361.1407 361.2238 361.3804 361.4978 361.6326 361.7666 361.8671 361.9131 361.9489 361.9489 361.9269 361.9047 361.9068 361.9083 361.8526 361.8393 361.8512 361.8335 361.8069 361.7994 361.7273 361.7379 361.7425 361.7408 361.74 361.7392 361.7375 361.7372 361.7323 361.7262 361.7257 361.7235 361.7778 361.8056 361.8006 361.7962 361.7947 361.8165 361.8748 361.9004 361.887 361.891 361.9232 362.0019 361.9893 361.9984 362.0056 362.0272 362.095 362.0866 362.0974 
361.3973 361.4147 361.3226 361.2625 361.1757 361.0604 360.9172 360.8166 360.5701 360.3971 360.17 360.0399 360.1606 360.4548 361.2125 361.3094 361.2566 361.033 360.631 360.2653 359.8881 359.6916 359.5577 359.4142 359.2483 359.1631 358.9875 358.951 358.9683 359.0362 359.1956 359.4636 360.1623 360.4043 360.5222 360.5817 360.6144 360.6965 360.7776 360.8723 360.929 360.9685 361.0655 361.2958 361.3669 361.469 361.6103 361.7193 361.751 361.8093 361.8105 361.774 361.735 361.7378 361.7391 361.718 361.6569 361.6246 361.6333 361.6423 361.6375 361.6053 361.557 361.5195 361.524 361.5234 361.5225 361.5211 361.5146 361.5532 361.6044 361.6006 361.5985 361.6089 361.6189 361.6107 361.6367 361.6983 361.6866 361.6985 361.758 361.8037 361.7937 361.7889 361.8041 361.8648 361.8959 361.8827 361.8882 361.8997 361.9718 361.9914 
361.2302 361.2776 361.2219 361.1607 361.0681 360.9928 360.8815 360.7118 360.4671 360.291 360.1115 359.9971 360.0633 360.2914 360.681 360.7332 360.6866 360.5263 360.2654 360.0625 359.6778 359.5134 359.3309 359.1631 359.0454 358.9604 358.7758 358.7649 358.8642 358.9975 359.148 359.4099 360.0689 360.2908 360.4138 360.4818 360.5111 360.592 360.6357 360.702 360.7755 360.8249 360.9127 361.1212 361.252 361.3609 361.455 361.5572 361.609 361.6378 361.6376 361.6204 361.6022 361.6068 361.5975 361.5342 361.5174 361.5054 361.4782 361.4233 361.4303 361.4348 361.4137 361.3985 361.4003 361.4 361.3997 361.399 361.3973 361.4059 361.417 361.4125 361.4841 361.5018 361.4965 361.4913 361.4881 361.5195 361.5993 361.5872 361.5953 361.6005 361.6243 361.6915 361.6818 361.6881 361.7463 361.7972 361.7888 361.7812 361.7876 361.8546 
361.1229 361.1128 361.1228 361.0589 360.967 360.8849 360.7854 360.6515 360.3637 360.1901 360.0119 359.8853 359.8942 360.0371 360.2584 360.264 360.2207 360.1212 359.9914 359.8189 359.3722 359.1792 359.0296 358.9241 358.85 358.7629 358.6066 358.6448 358.7948 358.9325 359.0322 359.6471 359.8872 360.0667 360.1947 360.2795 360.3497 360.428 360.4924 360.519 360.5665 360.6789 360.8162 360.9739 361.0869 361.1829 361.2979 361.4141 361.4408 361.5067 361.5079 361.468 361.4234 361.4302 361.4342 361.3398 361.3233 361.3347 361.3263 361.2859 361.2212 361.2166 361.2172 361.2174 361.2164 361.2156 361.2148 361.213 361.2063 361.2457 361.3001 361.2956 361.3055 361.3077 361.2998 361.3402 361.3954 361.3875 361.3994 361.4624 361.4935 361.4809 361.4816 361.507 361.5872 361.5791 361.5871 361.5886 361.6116 361.6835 361.6768 361.6781 
360.9872 361.0121 361.0193 360.9576 360.8654 360.7793 360.6996 360.6084 360.2657 360.0987 359.8925 359.7141 359.6631 359.721 359.9061 359.9233 359.8471 359.7301 359.632 359.4586 359.1122 358.9341 358.8126 358.7155 358.5815 358.4959 358.4804 358.5479 358.679 358.846 358.9885 359.4924 359.6917 359.8586 359.9902 360.0702 360.1506 360.2269 360.2996 360.3727 360.4344 360.5232 360.6485 360.8823 360.9594 361.0413 361.1421 361.2474 361.3045 361.3268 361.3264 361.313 361.3034 361.2871 361.2305 361.2112 361.1472 361.1136 361.126 361.1206 361.0991 361.0972 361.0967 361.0964 361.096 361.0956 361.0952 361.0944 361.0931 361.0984 361.1057 361.1017 361.1757 361.1967 361.1856 361.1829 361.2217 361.2894 361.2798 361.2845 361.3434 361.3945 361.3853 361.378 361.4653 361.4911 361.4807 361.4761 361.4747 361.4938 361.5859 361.5761 
360.8388 360.9531 360.9281 360.8529 360.764 360.6776 360.5995 360.5019 360.1132 359.9521 359.7502 359.5569 359.446 359.4129 359.5497 359.5784 359.4741 359.3169 359.2147 359.0394 358.8311 358.6871 358.5535 358.459 358.3303 358.2409 358.3588 358.4869 358.6189 358.753 358.9276 359.2925 359.476 359.6541 359.7852 359.8636 359.9483 360.0898 360.1721 360.2126 360.2859 360.4201 360.5027 360.7583 360.8634 360.9483 361.042 361.1057 361.1296 361.1965 361.201 361.1616 361.1216 361.1053 361.0186 361.0242 361.0132 360.9572 360.9044 360.9102 360.9178 360.9165 360.9157 360.9148 360.9138 360.9132 360.9117 360.9018 360.895 360.9362 360.9948 360.9904 360.9952 360.9908 361.0451 361.0909 361.0786 361.1031 361.1844 361.177 361.1837 361.1836 361.2081 361.2805 361.2822 361.2784 361.3301 361.3863 361.3781 361.3739 361.3748 361.4388 
360.8009 360.9211 360.8393 360.748 360.6588 360.5737 360.4916 360.3522 359.9204 359.7227 359.5297 359.3557 359.1855 359.1043 359.1488 359.1189 359.0201 358.9017 358.8083 358.6895 358.5257 358.3711 358.2319 358.1432 358.0631 358.0927 358.3358 358.4421 358.5402 358.6463 358.8211 359.1685 359.2927 359.444 359.5772 359.6461 359.7448 359.9253 359.9894 360.0477 360.1571 360.3156 360.4011 360.6683 360.7629 360.8058 360.8484 360.9358 360.997 361.084 361.0533 361.0047 360.9728 360.9154 360.8897 360.8025 360.8141 360.8067 360.7971 360.7793 360.7078 360.7018 360.7009 360.7 360.6994 360.6956 360.7012 360.7937 360.7875 360.7906 360.7948 360.7908 360.8681 360.8853 360.8768 360.9255 360.9863 360.9763 361.0625 361.0876 361.0777 361.0736 361.0717 361.0903 361.1779 361.1711 361.1749 361.1721 361.195 361.2711 361.2684 361.2645 
360.7451 360.8135 360.7361 360.6423 360.5912 360.5399 360.3818 360.1114 359.5938 359.3203 359.0996 358.9404 358.8311 358.7942 358.7489 358.6582 358.5956 358.5499 358.4626 358.3853 358.2151 358.1072 357.9868 357.9251 357.9678 358.0631 358.2739 358.3555 358.4283 358.5359 358.7209 359.0085 359.0862 359.2214 359.3957 359.5262 359.6143 359.7798 359.848 359.9822 360.1183 360.2289 360.374 360.5609 360.657 360.6898 360.722 360.8015 360.8261 360.9103 360.9056 360.8692 360.7862 360.7108 360.7103 360.6963 360.6385 360.5981 360.6102 360.6053 360.5911 360.5892 360.5887 360.5882 360.5877 360.587 360.5912 360.5919 360.584 360.6261 360.6888 360.6832 360.6808 360.751 360.7844 360.7716 360.805 360.8778 360.8782 360.8734 360.9275 360.981 360.9711 360.9686 361.0506 361.079 361.0701 361.0677 361.0644 361.0775 361.1713 361.1652 
360.6348 360.7109 360.6358 360.5473 360.5291 360.3969 360.049 359.6976 359.0196 358.7365 358.5399 358.45 358.4385 358.4855 358.396 358.3384 358.3435 358.3261 358.2215 358.0831 357.9077 357.8041 357.7614 357.8199 357.9133 358.0808 358.1656 358.2403 358.3548 358.5006 358.6074 358.8669 358.9643 359.1013 359.2505 359.3426 359.424 359.6537 359.7589 359.8431 359.9658 360.1309 360.3027 360.5511 360.5865 360.588 360.5939 360.6049 360.6185 360.7819 360.7568 360.611 360.4955 360.4984 360.4987 360.5047 360.5027 360.4481 360.3896 360.3935 360.3939 360.3922 360.3913 360.3904 360.3896 360.3859 360.4655 360.4876 360.4774 360.4785 360.4797 360.494 360.5776 360.5708 360.6302 360.6814 360.6684 360.6864 360.7782 360.7704 360.764 360.806 360.8747 360.8713 360.8683 360.8619 360.9139 360.9727 360.966 360.9619 361.0378 361.0687 
360.547 360.6153 360.562 360.4391 360.2005 359.8391 359.3913 358.9858 358.3152 358.0788 357.9513 357.9538 358.0317 358.17 358.2166 358.1664 358.111 358.0485 357.9399 357.7712 357.5779 357.56 357.6265 357.7136 357.7988 357.9684 358.0488 358.1801 358.3224 358.4209 358.5018 358.6914 358.7769 358.9115 359.0877 359.2208 359.2939 359.5519 359.6562 359.7776 359.9134 360.0237 360.1985 360.4733 360.4872 360.4754 360.4868 360.472 360.4079 360.5787 360.6024 360.5347 360.434 360.3793 360.3874 360.3184 360.2864 360.2857 360.2791 360.2842 360.2838 360.2825 360.2819 360.2818 360.2793 360.2743 360.2798 360.2752 360.3316 360.384 360.3753 360.3693 360.4548 360.4767 360.4642 360.5086 360.5747 360.5693 360.5658 360.6325 360.6737 360.6659 360.6627 360.6738 360.7679 360.7622 360.7625 360.7563 360.7783 360.8562 360.8532 360.9166 
360.3648 360.4341 360.1573 359.9009 359.4536 358.9795 358.6048 358.2215 357.6231 357.4869 357.499 357.5975 357.7626 357.9314 358.0412 357.9749 357.883 357.8091 357.7086 357.5347 357.3739 357.4197 357.5592 357.6967 357.7788 357.9489 358.0328 358.1341 358.2325 358.3142 358.3995 358.5677 358.6459 358.7867 358.9319 359.0492 359.201 359.3767 359.5246 359.648 359.7625 359.93 360.1043 360.374 360.4508 360.4693 360.4239 360.285 360.2834 360.4659 360.5 360.4464 360.3493 360.2622 360.1923 360.1796 360.1787 360.1885 360.1559 360.083 360.0814 360.0816 360.0809 360.0736 360.1029 360.1766 360.1713 360.1695 360.1725 360.1683 360.1956 360.2703 360.2657 360.3351 360.3743 360.3603 360.388 360.4643 360.463 360.4568 360.5109 360.5685 360.5618 360.5587 360.6342 360.6644 360.6577 360.6585 360.6537 360.6615 360.7603 360.7469 
359.797 359.75 359.2429 358.9234 358.521 358.1036 357.7699 357.5454 357.2984 357.2728 357.325 357.4242 357.5559 357.726 357.8883 357.8606 357.7328 357.5776 357.4352 357.334 357.3838 357.4441 357.4978 357.6115 357.6952 357.8647 357.9491 358.0381 358.1268 358.2112 358.2963 358.466 358.5446 358.686 358.8262 358.909 359.0057 359.2465 359.3576 359.4898 359.6249 359.7357 359.9033 360.1651 360.2276 360.2224 360.2083 360.1841 360.1834 360.268 360.304 360.3013 360.2631 360.1634 360.0789 360.0855 360.024 359.9742 359.9777 359.972 359.971 359.9705 359.97 359.9691 359.9703 359.9701 360.0513 360.0757 360.0675 360.0659 360.0616 360.0774 360.168 360.1572 360.2132 360.2694 360.258 360.27 360.3645 360.3596 360.3517 360.3891 360.4597 360.4588 360.4546 360.4464 360.4972 360.5571 360.5519 360.5516 360.6207 360.657 
358.792 358.6423 358.2517 357.8914 357.6271 357.4729 357.3098 357.2122 357.2012 357.1975 357.2402 357.3302 357.4142 357.5215 357.7338 357.6842 357.5518 357.378 357.1909 357.2053 357.4078 357.5206 357.5551 357.5883 357.677 357.8488 357.939 357.9774 358.0176 358.1078 358.1931 358.3626 358.4407 358.586 358.7329 358.8089 358.8867 359.0638 359.2147 359.3371 359.4545 359.6087 359.7006 359.8874 359.9144 359.8925 359.9237 359.9938 359.9901 360.0657 360.0401 359.9876 359.9908 359.9863 359.9724 359.8721 359.8732 359.8692 359.8704 359.8726 359.8711 359.8704 359.8698 359.868 359.8658 359.8652 359.8653 359.8588 359.9155 359.9699 359.9625 359.9591 360.0385 360.066 360.052 360.0912 360.1609 360.1567 360.2307 360.2614 360.2561 360.249 360.2693 360.3471 360.3533 360.3529 360.3506 360.3418 360.3636 360.446 360.44 360.5043 
358.009 357.8291 357.5403 357.3819 357.2529 357.2055 357.1819 357.0918 357.0158 357.0117 357.0538 357.1408 357.2406 357.3945 357.5376 357.4952 357.331 357.082 356.921 357.2104 357.4217 357.4933 357.4839 357.5065 357.5954 357.7661 357.8632 357.8887 357.9126 358.0045 358.0898 358.2596 358.3436 358.4362 358.5228 358.6305 358.789 358.9596 359.046 359.1823 359.3237 359.41 359.4963 359.5964 359.6441 359.7336 359.7842 359.7805 359.7771 359.8588 359.8273 359.77 359.7776 359.7748 359.7764 359.7706 359.7699 359.7758 359.7437 359.6678 359.6667 359.6659 359.6579 359.7015 359.7678 359.7636 359.7609 359.7606 359.7526 359.7936 359.8615 359.8581 359.8516 359.9178 359.9621 359.9492 359.9712 360.0487 360.0463 360.11 360.1541 360.1487 360.1474 360.1535 360.2479 360.2466 360.2499 360.2437 360.2621 360.3351 360.3419 360.3968 
357.5486 357.439 357.2355 357.1488 357.1075 357.0746 357.0158 356.9932 356.8831 356.8813 356.9267 357.0254 357.12 357.2269 357.2998 357.1709 356.9224 356.7296 356.7852 357.1353 357.3465 357.4062 357.3823 357.4018 357.4905 357.671 357.6937 357.7318 357.8154 357.9029 357.9933 358.1629 358.2481 358.3292 358.4096 358.4975 358.5903 358.7594 358.8367 358.9771 359.1248 359.2066 359.2805 359.3514 359.4402 359.5248 359.6126 359.6759 359.6744 359.6745 359.6796 359.622 359.5959 359.6549 359.5764 359.5666 359.5656 359.5648 359.5637 359.5625 359.5614 359.5608 359.5603 359.5595 359.5584 359.5548 359.6352 359.6606 359.6552 359.6555 359.6487 359.6613 359.7572 359.7446 359.7959 359.8557 359.8478 359.8549 359.9538 359.9474 359.9376 359.9731 360.0446 360.0491 360.0357 360.0965 360.1475 360.1468 360.1409 360.1432 360.2457 360.2331 
