NCOLS 92
NROWS 90
XLLCORNER 452068.49
YLLCORNER 3779235.4
CELLSIZE 10
NODATA_VALUE -9999
582.1246 581.7745 581.452 581.1859 580.5002 580.1481 579.8516 579.5651 579.2345 578.9672 578.3555 578.0402 577.7397 577.4302 577.0034 576.397 576.0784 575.7291 575.3841 575.04 574.6956 574.0037 573.654 573.3129 572.9409 572.485 571.9637 570.9386 570.4333 569.8732 569.2709 568.6551 567.9579 566.5094 565.899 565.3166 564.6813 564.0109 563.4014 562.0472 561.1223 560.0865 559.0141 557.6584 554.5503 553.2006 552.2488 552.3762 552.0546 551.7123 551.1326 550.8993 550.5526 550.1304 549.7224 549.2648 548.4331 548.2827 548.2542 548.185 548.0021 547.8586 547.5128 547.3028 547.1512 546.9092 546.6033 546.4376 545.9691 545.6202 545.3169 545.0848 544.8868 544.6288 544.0732 543.7025 543.3946 543.1116 542.7468 542.0262 541.5536 541.017 540.3704 539.6564 538.9858 538.0819 537.942 537.9429 537.9703 537.995 538.0856 538.278 
581.5111 581.1252 580.7281 580.4623 579.7729 579.4915 579.1964 578.839 578.5106 578.2515 577.7405 577.4291 577.076 576.7289 576.3898 575.6943 575.4182 575.1125 574.7639 574.4221 574.0715 573.3868 572.9702 572.5869 572.2207 571.759 571.2525 570.3312 569.8214 569.26 568.6533 568.0272 567.3475 566.0737 565.5534 565.0091 564.3781 563.6976 563.0074 561.5558 560.6172 559.5928 559.0141 557.6584 554.5503 553.2006 552.2488 551.7556 551.4423 551.1285 550.7346 550.4821 550.1783 549.84 549.4451 548.9298 548.1266 547.9292 547.7859 547.6318 547.4849 547.3953 546.959 546.7663 546.5905 546.3653 546.134 545.9878 545.5149 545.2441 544.927 544.5759 544.3267 544.0972 543.5511 543.1442 542.7672 542.4941 542.2245 541.5463 541.1525 540.6921 540.1269 539.4833 538.7779 537.4946 537.2653 537.2948 537.3435 537.3587 537.4425 537.6958 
580.7829 580.4387 580.0943 579.7482 579.0541 578.7704 578.4691 578.1486 577.8947 577.3762 577.0463 576.7626 576.4193 576.0316 575.7657 575.0847 574.7366 574.3828 574.0859 573.782 573.358 572.6624 572.25 571.8681 571.5013 571.0435 570.5439 569.6839 569.1995 568.6388 567.9944 567.3331 566.7608 565.6575 565.1636 564.6041 564.3781 563.6976 563.0074 561.5558 560.6172 559.5928 558.5328 557.2436 554.1728 552.8606 551.79 551.191 550.9227 550.6233 550.308 550.0811 549.7626 549.3595 548.9227 548.4985 547.7283 547.5053 547.2826 547.0533 546.9083 546.7835 546.3707 546.2117 545.9861 545.7063 545.4862 545.3813 545.0336 544.7736 544.4116 544.0306 543.7732 543.5814 542.9754 542.5441 542.1641 541.8499 541.4906 540.8039 540.4948 540.1066 539.5613 538.9797 538.5062 537.3914 537.1021 536.9426 536.8613 536.9004 536.9904 537.1944 
580.0607 579.7174 579.3721 579.0252 578.4106 578.0938 577.7844 577.5418 577.2604 576.6472 576.3995 576.0863 575.7335 575.3892 575.0624 574.4727 574.1247 573.7746 573.421 573.0795 572.7254 571.9391 571.5317 571.1492 570.778 570.3442 569.9217 568.9849 568.4697 567.9063 567.3005 567.3331 566.7608 565.6575 565.1636 564.6041 564.0041 563.3998 562.7266 561.1086 560.1904 559.219 558.1061 556.7919 553.9178 552.7422 551.6786 550.8218 550.3332 550.1147 549.9063 549.6675 549.2852 548.8386 548.4115 547.9764 547.2975 547.0459 546.8308 546.67 546.4947 546.3177 545.9565 545.7995 545.6194 545.3547 545.0818 544.9146 544.6987 544.4266 544.0884 543.7447 543.4014 543.1093 542.6245 542.2814 541.9537 541.6618 541.304 540.6252 540.2332 539.8721 539.4286 538.88 538.4646 537.5781 537.2407 536.8386 536.5286 536.5204 536.5826 536.7861 
579.2819 579.0025 578.6521 578.3058 577.6895 577.3687 577.114 576.8914 576.5523 575.9497 575.6707 575.3648 575.0106 574.6998 574.4496 573.8447 573.5027 573.1061 572.7019 572.3577 572.0029 571.2249 570.8246 570.4413 570.0603 569.6257 569.9217 568.9849 568.4697 567.9063 567.3005 566.7763 566.344 565.3348 564.8615 564.2936 563.7074 563.125 562.5355 560.9011 559.903 558.8805 557.7432 556.5049 553.7795 552.6592 551.7003 550.7692 549.98 549.6096 549.4005 549.1389 548.7524 548.3307 547.8986 547.4685 546.8441 546.6279 546.4438 546.2971 546.1246 545.9505 545.5098 545.3654 545.251 545.0151 544.7116 544.5461 544.2769 544.0559 543.7513 543.3999 543.0591 542.5498 542.2562 541.9843 541.7014 541.3575 540.9994 540.2236 539.826 539.4695 539.22 538.9542 538.5559 537.7411 537.3835 536.9514 536.5161 536.2678 536.205 536.4326 
578.5638 578.2823 577.9308 577.5994 577.0051 576.7086 576.4576 576.1637 575.8315 575.2297 574.9518 574.6389 574.3269 574.0844 573.812 573.116 572.7714 572.437 572.0602 571.6466 571.2947 571.2249 570.8246 570.4413 570.0603 569.6257 569.1974 568.2664 567.7495 567.1937 566.6765 566.2708 565.8345 564.9786 564.4859 563.9272 563.4382 562.934 561.6653 560.7113 559.6649 558.6031 557.4639 556.2145 553.6157 552.6175 551.7569 550.8811 549.9987 549.2924 548.719 548.5009 548.2027 547.8372 547.4092 546.9617 546.404 546.2173 546.0925 545.9648 545.7943 545.6138 545.2081 545.0109 544.8176 544.6313 544.4233 544.252 543.8719 543.6672 543.3882 543.0322 542.6887 542.1339 541.9333 541.7076 541.3594 540.9454 540.5899 539.8341 539.538 539.2789 539.0555 538.8251 538.5307 537.804 537.4355 537.0546 536.5962 536.2123 536.0689 536.0942 
577.8441 577.558 577.228 576.9665 576.3573 576.0372 575.7275 575.4453 575.1128 574.5106 574.232 573.9308 573.6169 573.357 573.0874 573.116 572.7714 572.437 572.0602 571.6466 571.2947 570.529 570.165 569.7806 569.3379 568.9099 568.4789 567.5571 567.0573 566.6027 566.1902 565.7586 565.3298 564.4987 564.0815 563.6245 563.1584 562.7172 561.4466 560.5071 559.4761 558.4247 557.2534 555.9064 553.519 552.6386 551.8142 551.0469 550.2569 549.407 548.318 548.0212 547.7139 547.3804 547.0091 546.562 546.0952 545.9332 545.7612 545.5716 545.369 545.1979 544.8654 544.6494 544.4496 544.2741 544.0759 543.9006 543.5189 543.2834 543.0121 542.6978 542.335 541.7258 541.4927 541.2763 540.9468 540.5236 540.2322 539.6556 539.3167 538.9858 538.7327 538.5191 538.2756 537.7476 537.397 537.0353 536.621 536.2197 535.9671 535.8005 
577.126 576.8403 576.5049 575.9984 575.6695 575.3087 575.0098 574.727 574.3933 573.8073 574.232 573.9308 573.6169 573.357 573.0874 572.3987 572.0546 571.7092 571.373 571.0126 570.5976 569.8265 569.4528 569.0581 568.6227 568.1962 567.7537 566.8982 566.5173 566.0844 565.6517 565.2285 564.8483 564.0754 563.6411 563.2159 562.7963 562.3703 561.1299 560.2194 559.2436 558.1903 556.9806 555.6077 553.3306 552.6611 552.0316 551.3245 550.522 549.6867 548.2591 547.7608 547.3946 547.0208 546.6607 546.3348 545.8002 545.6301 545.4436 545.2189 545.0016 544.8306 544.488 544.3235 544.1411 543.9013 543.6619 543.5313 543.176 542.8942 542.5892 542.287 541.9403 541.2846 540.9697 540.7589 540.5455 540.2635 539.9955 539.3925 539.0743 538.7168 538.382 538.0892 537.8437 537.4316 537.1687 536.8425 536.4799 536.0966 535.7564 535.5198 
576.3965 576.1158 575.8022 575.2593 574.9429 575.3087 575.0098 574.727 574.3933 573.8073 573.5142 573.2639 572.9733 572.6515 572.3694 571.6821 571.338 570.9933 570.6481 570.3094 569.9612 569.1865 568.7769 568.3364 567.9054 567.4795 567.0682 566.2949 565.899 565.4601 565.0289 564.6583 564.3792 563.5453 563.129 562.6995 562.262 561.8166 560.6453 559.7808 558.8751 557.836 556.6097 555.3143 553.3533 552.7431 552.0982 551.3676 550.5357 549.704 548.3934 547.7964 547.3164 546.8784 546.4286 546.0627 545.5186 545.2952 545.0732 544.8682 544.7051 544.5336 544.19 544.0256 543.8083 543.5319 543.3052 543.1812 542.7646 542.539 542.2086 541.8132 541.4745 540.8737 540.5659 540.3544 540.1605 539.905 539.6308 539.017 538.7462 538.4207 538.0652 537.7271 537.4239 536.993 536.7751 536.4937 536.1741 535.8414 535.5565 535.1581 
576.3965 576.1158 575.8022 575.2593 574.9429 574.5926 574.2896 574.0135 573.693 573.1687 572.8474 572.54 572.2856 572.01 571.6558 570.9645 570.6196 570.2751 569.9306 569.5865 569.2476 568.4662 568.0386 567.6216 567.192 566.8065 566.4611 565.6816 565.2848 564.8561 564.4788 564.1465 563.7907 562.9889 562.5883 562.1641 561.7087 561.1876 559.9967 559.2891 558.4385 557.429 556.2895 555.0759 553.3954 552.7607 552.0796 551.2985 550.4145 549.594 548.4489 547.8622 547.3677 546.8709 546.3284 545.9053 545.1698 544.9162 544.7364 544.5717 544.3996 544.2279 543.8841 543.7234 543.5094 543.241 542.9962 542.5727 542.2753 542.0367 541.7456 541.363 541.0728 540.5734 540.241 539.9662 539.7398 539.4811 539.2181 538.681 538.3873 538.0873 537.7744 537.418 537.0811 536.5952 536.3435 536.1311 535.8788 535.5387 535.2896 534.9023 
575.5681 575.3504 575.1525 574.4602 574.1888 573.8925 573.5906 573.3333 573.0661 572.4803 572.193 571.8868 571.5777 571.2855 570.9366 570.2689 569.9335 569.5875 569.2452 568.8949 568.5338 567.7086 567.2967 566.9165 566.5331 566.2036 565.8534 565.0692 564.6678 564.2777 563.9461 563.6051 562.8347 562.4268 561.9882 561.5254 561.0491 560.5356 559.3829 558.7188 557.9034 556.9378 555.9344 554.9565 553.3047 552.6945 552.0173 551.187 550.3232 549.5428 548.4257 547.9142 547.3585 546.7792 546.2761 545.8144 544.9341 544.6183 544.4288 544.2662 544.0941 543.9222 543.582 543.3795 543.1741 542.9434 542.6285 542.0921 541.7682 541.5049 541.2629 540.9952 540.7866 540.2769 539.9448 539.6457 539.3975 539.1431 538.8782 538.2598 537.9611 537.6935 537.4328 537.1233 536.7823 536.2626 536.0078 535.7718 535.5187 535.2324 534.9843 534.6508 
574.875 574.6102 574.3481 573.7722 573.4954 573.2319 572.9689 572.6892 572.3623 571.8298 571.5198 571.2241 570.9199 570.5709 570.2476 569.6245 569.3044 568.9547 568.6168 568.2479 567.8143 567.0497 566.6377 566.265 565.9334 565.5847 565.2088 564.4594 564.0569 563.6625 563.3254 562.9858 562.2188 561.8368 561.4009 560.8881 560.3641 559.8535 558.7211 558.0873 557.3361 556.4831 555.6226 554.7269 553.2145 552.5858 551.8718 551.1057 550.2715 549.4871 548.4676 547.9398 547.2877 546.676 546.225 545.7192 544.8417 544.4408 544.1332 543.9528 543.7882 543.6168 543.2844 543.0579 542.7905 542.4923 542.1458 541.6407 541.4111 541.1115 540.8101 540.5912 540.4131 539.8998 539.6262 539.3163 539.0207 538.7692 538.5106 537.8168 537.524 537.2858 537.03 536.7652 536.4755 535.9705 535.6599 535.4047 535.1968 534.9307 534.6738 534.2624 
574.1477 573.8956 573.6385 573.1303 572.8714 572.565 572.2621 572.009 571.7229 571.1317 570.8718 570.5474 570.199 569.8984 569.6152 568.922 568.5756 568.2321 567.8901 567.5334 567.1281 566.3344 566.0045 565.663 565.3267 564.9628 564.531 563.852 563.4429 563.0476 562.7179 562.3723 561.5613 561.1602 560.7264 560.2558 559.7679 559.2539 558.0612 557.3974 556.7734 556.0739 555.224 554.3076 553.0885 552.4936 551.7899 551.0704 550.2927 549.593 548.577 548.0132 547.3527 546.7214 546.1692 545.5627 544.7357 544.3314 543.9465 543.6794 543.4747 543.3107 542.9321 542.6868 542.4133 542.0976 541.7664 541.2945 541.0437 540.7563 540.4702 540.2471 540.0726 539.5622 539.2589 538.9554 538.6865 538.4313 538.1768 537.5577 537.1633 536.8539 536.6064 536.3677 536.1763 535.6045 535.3 535.0433 534.8353 534.6362 534.3777 533.8729 
573.3901 573.1849 572.9593 572.4476 572.1642 571.9191 571.6581 571.3551 571.0385 570.5128 570.1734 569.8334 569.5416 569.2474 568.8946 568.2021 567.8586 567.5114 567.1829 566.864 566.4917 565.7372 565.3954 565.054 564.7003 564.3153 563.9236 563.2373 562.864 562.4735 562.0925 561.7108 560.889 560.5026 560.0648 559.5844 559.1224 558.6414 557.438 556.8168 556.2504 555.5639 554.7181 553.9781 552.9651 552.3953 551.7749 551.1125 550.4338 549.8014 548.7397 548.1466 547.4883 546.7537 545.978 545.4114 544.5905 544.2141 543.8181 543.4599 543.2192 543.0087 542.5945 542.3391 542.0653 541.7408 541.4147 540.8878 540.676 540.4422 540.1758 539.9292 539.6953 539.1808 538.9122 538.6063 538.3127 538.0563 537.8099 537.2865 536.9106 536.562 536.269 536.0227 535.7887 535.253 534.9937 534.7445 534.5001 534.2591 533.9946 533.4669 
572.7578 572.5073 572.3128 571.8259 571.571 571.2982 570.9872 570.6826 570.433 569.7992 569.4706 569.1844 568.8782 568.5217 568.1788 567.531 567.186 566.8348 566.5213 566.2068 565.7734 565.1206 564.792 564.4497 564.067 563.6454 563.3073 562.629 562.2648 561.8786 561.4703 561.0435 560.2336 559.8383 559.4034 558.9243 558.4594 557.9775 556.8566 556.3278 555.6896 554.972 554.2969 553.746 552.8995 552.3338 551.754 551.1741 550.6176 550.0377 548.9413 548.2853 547.5524 546.7206 545.909 545.3138 544.4441 544.0623 543.6707 543.3172 543.004 542.524 542.2969 542.0059 541.6816 541.3057 540.9378 540.4897 540.2914 540.1122 539.8833 539.6095 539.3564 538.863 538.5425 538.2025 537.8938 537.6439 537.4003 536.977 536.6439 536.2814 535.9647 535.7151 535.4633 534.9547 534.6542 534.3151 534.0027 533.7659 533.5784 533.0553 
572.1277 571.8824 571.6275 571.1814 570.924 570.6226 570.3291 570.0765 569.7808 569.121 568.8214 568.5031 568.1454 567.8063 567.5038 566.8842 566.534 566.2166 565.8854 565.4873 565.0968 564.4548 564.1294 563.8093 563.4614 563.041 562.6974 561.9818 561.5915 561.2078 560.8076 560.3839 559.5697 559.1813 558.7452 558.2698 557.7787 557.266 556.3247 555.6796 555.0385 554.482 554.0181 553.6091 552.7111 552.2206 551.6746 551.1593 550.7015 550.1942 549.0248 548.3047 547.4893 546.644 545.9001 545.2224 544.2741 543.8802 543.4815 543.1488 542.7984 542.2289 542.0002 541.6522 541.2787 540.9092 540.5062 540.0086 539.8549 539.7136 539.5192 539.3185 539.1221 538.5579 538.208 537.8624 537.5268 537.2291 536.9827 536.4935 536.2162 535.9319 535.6714 535.4019 535.075 534.5682 534.2439 533.9262 533.668 533.4153 533.1724 532.6429 
571.4864 571.2773 571.0151 570.4904 570.2321 569.9805 569.7151 569.4147 569.1041 568.4764 568.1548 567.8224 567.4872 567.1921 566.8951 566.2024 565.8547 565.5495 565.2255 564.8344 564.4967 563.8022 563.4462 563.1642 562.8586 562.4302 561.7526 561.3324 560.9223 560.5468 560.1447 559.7172 558.9075 558.4764 558.0591 557.5798 557.0759 556.6744 555.6466 555.0266 554.5087 554.0694 553.6758 553.3322 552.4407 551.9476 551.4601 551.0019 550.5227 550.0632 548.908 548.1491 547.3503 546.563 545.8008 545.0615 544.0145 543.6469 543.2913 542.9515 542.6084 541.9387 541.6554 541.2363 540.7737 540.363 539.9498 539.4669 539.4127 539.342 539.2125 539.0928 538.9184 538.3275 537.9814 537.6448 537.2699 536.8719 536.5568 536.0438 535.8443 535.6396 535.35 535.0229 534.7523 534.1711 533.8836 533.5829 533.2686 533.0118 532.7613 532.3394 
570.9321 570.6614 570.4028 569.8866 569.6283 569.3798 569.0834 568.7422 568.4504 567.7966 567.4854 567.1901 566.893 566.5999 566.2853 565.5988 565.2593 564.8878 564.5126 564.176 563.8314 563.1846 562.8536 562.5293 562.2016 561.8223 561.0925 560.712 560.2979 559.8773 559.4967 559.1122 558.2522 557.7794 557.3218 556.9073 556.4935 556.048 555.0259 554.5377 554.1038 553.6987 553.3181 552.919 552.069 551.6213 551.1479 550.6669 550.2172 549.788 548.6127 547.9307 547.1912 546.3876 545.5624 544.864 543.7348 543.3452 543.0204 542.6772 542.3302 541.7139 541.2095 540.6531 540.147 539.6851 539.3326 539.011 538.9139 538.9469 539.0526 538.9713 538.7181 538.1267 537.78 537.4448 537.0627 536.6496 536.3138 535.7247 535.4918 535.1951 534.8766 534.6151 534.3536 533.839 533.5233 533.217 532.9569 532.6981 532.4364 531.9277 
570.3115 570.0499 569.7911 569.2748 569.0231 568.7473 568.4237 568.0837 567.7751 567.1821 566.8722 566.5762 566.2573 565.9309 565.6752 564.992 564.6591 564.259 563.8448 563.5065 563.1639 562.5133 562.223 561.904 561.5576 561.2098 560.4326 560.0495 559.6276 559.2142 558.84 558.4438 557.5872 557.1218 556.6719 556.2738 555.8627 555.3903 554.5015 554.0679 553.621 553.2542 552.9576 552.5231 551.6644 551.2465 550.7563 550.2916 549.92 549.4227 548.231 547.5865 546.8469 546.0773 545.3406 544.5983 543.4786 543.0887 542.709 542.3737 542.0437 541.4734 540.6899 539.961 539.4446 538.9782 538.6546 538.3878 538.6583 538.8503 538.8221 538.7196 538.5197 537.9169 537.5679 537.2369 536.8654 536.4337 536.0315 535.3496 535.0745 534.8239 534.5184 534.2164 534.0255 533.4335 533.1166 532.8044 532.5494 532.3093 531.8803 531.6143 
569.6954 569.4379 569.1793 568.6697 568.3824 568.0746 567.7454 567.4259 567.1619 566.5471 566.3096 566.0049 565.6478 565.3131 565.0144 564.3433 563.9792 563.6163 563.2432 562.9039 562.5559 561.8506 561.561 561.2372 560.8956 560.5334 559.7574 559.3415 558.9377 558.5666 558.1589 557.7195 556.8588 556.4835 556.0472 555.5623 555.144 554.778 553.996 553.5513 553.1858 552.8643 552.4768 552.0453 551.1785 550.7581 550.3148 549.8875 549.4752 548.9505 547.7496 547.0969 546.3916 545.6989 544.9946 543.5644 543.1203 542.7668 542.3828 541.9914 541.658 541.0894 540.3538 539.4065 538.6598 538.163 537.8591 538.0698 538.3581 538.5352 538.5284 538.408 538.2283 537.783 537.4612 537.0789 536.6658 536.2166 535.7225 535.0427 534.6975 534.404 534.1526 533.8886 533.6403 533.0449 532.7517 532.4987 532.2407 531.9846 531.4735 531.282 
569.078 568.8213 568.5687 568.0169 567.7052 567.4351 567.1436 566.8107 566.5505 565.9504 565.6866 565.3906 565.0403 564.6921 564.3447 563.6771 563.3134 562.9755 562.6346 562.2954 561.9499 561.1898 560.8658 560.5153 560.1767 559.8157 559.0377 558.6754 558.2904 557.8684 557.4549 557.0742 556.1995 555.8176 555.3655 554.933 554.5856 554.2389 553.4048 553.0007 552.7184 552.4134 551.9589 551.5378 550.7585 550.2693 549.8171 549.3814 548.8724 548.3576 547.2452 546.5839 545.8892 545.2012 544.5255 543.3474 542.8361 542.3979 541.993 541.5685 541.1659 540.5128 539.9082 539.022 538.0223 537.3021 537.2198 537.6901 538.0135 538.2225 538.2147 538.1193 538.0179 537.6772 537.3962 536.9556 536.4351 535.9451 535.5103 534.6617 534.3541 534.0583 533.7394 533.4873 533.2341 532.7188 532.3979 532.09 531.8389 531.5806 531.0613 530.8691 
568.5254 568.2549 567.96 567.3541 567.0656 566.8242 566.5486 566.256 565.9995 565.3995 565.1014 564.7756 564.4229 564.0897 563.7921 563.0472 562.712 562.3663 562.0284 561.6825 560.8476 560.4837 560.1469 559.8019 559.4629 559.1023 558.3225 557.9918 557.5912 557.1833 556.7883 556.3303 555.5282 555.1445 554.7811 554.3932 554.0011 553.6642 552.8602 552.5446 552.2187 551.8348 551.46 551.0245 550.2559 549.8545 549.327 548.7949 548.3546 547.8348 546.7159 546.0781 545.4203 544.7513 544.0244 542.9916 542.5351 542.0562 541.5422 541.0616 540.6529 539.9808 539.4479 538.6434 537.7959 537.0474 536.5423 537.353 537.6624 537.8578 537.9236 537.8051 537.6487 537.3194 537.0424 536.5891 536.0489 535.5535 535.1261 534.2636 533.8896 533.5967 533.3481 533.0704 532.7342 532.2155 531.9539 531.6909 531.4308 531.1719 530.6496 530.4566 
567.973 567.6866 567.3421 566.7948 566.5275 566.2343 565.9666 565.7509 565.4435 564.8439 564.5052 564.148 563.8264 563.5433 563.2325 562.4588 562.0947 561.7625 561.4095 560.9979 560.1885 559.79 559.4235 559.0886 558.7491 558.3875 557.6063 557.2758 556.8673 556.4792 556.1205 555.6557 554.8703 554.5229 554.1852 553.8355 553.4514 553.0443 552.3362 552.0099 551.6744 551.2816 550.8796 550.5171 549.6829 549.2151 548.7382 548.2403 547.674 547.1567 546.1219 545.5407 544.9286 544.2917 543.5973 542.4861 542.0401 541.6146 541.1377 540.613 540.1354 539.457 539.0429 538.4059 537.7739 537.3401 536.7808 536.4016 537.2127 537.5892 537.5646 537.4095 537.0745 536.6389 536.3497 535.9927 535.569 535.0589 534.6293 533.7634 533.3886 533.0462 532.7346 532.4843 532.2157 531.5969 531.3361 531.1216 530.922 530.6741 530.2429 530.0452 
567.352 567.0857 566.7863 566.2101 565.9597 565.6729 565.413 565.1699 564.826 564.2342 563.9253 563.6144 563.2805 562.9655 562.6221 561.8649 561.4893 561.1329 560.7139 560.2906 559.5219 559.1429 558.7488 558.369 558.0308 557.6839 556.9109 556.5512 556.2061 555.7836 555.3289 554.9658 554.255 553.9133 553.5687 553.2268 552.8784 552.515 551.8336 551.4323 551.0526 550.717 550.3436 549.9304 549.0826 548.5919 548.0765 547.5689 547.0378 546.5248 545.4373 544.8943 544.3389 543.7219 543.0986 542.048 541.626 541.2047 540.7365 540.2049 539.6937 538.9943 538.75 538.2994 537.8248 537.6467 537.4429 535.4153 535.7228 536.4719 536.6224 536.3771 536.0905 535.6297 535.397 535.1361 534.8066 534.3571 533.9212 533.1229 532.7831 532.4369 532.087 531.7595 531.2418 530.9824 530.7162 530.4962 530.329 530.1584 529.73 529.5383 
566.7257 566.474 566.2153 565.6581 565.4044 565.1572 564.8792 564.5667 564.274 563.669 563.3737 563.0441 562.6962 562.3536 562.0123 561.2379 560.8515 560.4325 559.9912 559.5742 558.812 558.4507 558.0479 557.6459 557.3146 556.9735 556.2042 555.8257 555.4996 555.1052 554.6665 554.3273 553.6434 553.2996 552.9553 552.6113 552.2681 551.925 551.2383 550.8871 550.4913 550.1067 549.7556 549.3266 548.3992 547.9398 547.4659 546.9397 546.4256 545.3996 544.8226 544.217 543.6539 543.1322 542.6021 541.5695 541.1185 540.6929 540.2574 539.8163 539.3748 538.6667 538.4216 538.1259 537.9652 537.9056 537.7052 536.126 534.6492 534.3392 534.67 534.7045 534.6719 534.4924 534.2734 534.0425 533.8445 533.5561 533.2072 532.5112 532.159 531.8611 531.5759 531.2411 530.7246 530.4608 530.2552 530.0892 529.9167 529.745 529.402 529.2367 
566.1852 565.9327 565.6663 565.1424 564.8692 564.5825 564.2882 563.9518 563.7012 563.1104 562.7681 562.4192 562.088 561.7403 561.3336 560.5444 560.1519 559.709 559.3008 558.9309 558.0931 557.7283 557.3809 556.9902 556.5961 556.2568 555.4781 555.1683 554.8256 554.4222 554.0675 553.7174 553.0298 552.6862 552.3418 551.9976 551.6536 551.3095 550.6215 550.2903 549.9006 549.4637 549.0454 548.6163 547.7563 547.2664 546.7929 546.3394 545.8181 544.793 544.1404 543.5446 543.0284 542.5377 542.0913 541.0504 540.6685 540.2747 539.8779 539.5109 539.0799 538.4628 538.1954 538.0263 537.9551 537.8473 537.6909 536.7317 534.9538 533.5294 533.165 533.2501 533.3108 533.0289 533.005 532.9665 532.849 532.6296 532.2884 531.7658 531.4449 531.1277 530.9078 530.7214 530.2922 530.0558 529.8447 529.6715 529.5313 529.4372 529.0934 528.9279 
565.6124 565.3589 565.09 564.579 564.2612 563.9527 563.7003 563.4047 563.0937 562.5027 562.207 561.8741 561.4604 561.0493 560.1854 559.8277 559.4361 558.9924 558.5939 558.2412 557.3768 557.0112 556.6807 556.2935 555.8793 555.538 554.8342 554.5122 554.1165 553.6967 553.3828 553.1092 552.4175 552.0714 551.728 551.3808 551.0314 550.6879 550.0121 549.6126 549.2291 548.8578 548.4227 547.9944 547.067 546.6024 546.1374 545.6183 545.1219 544.1008 543.4857 542.9274 542.4482 542.0188 541.5958 540.6449 540.1879 539.8187 539.4286 539.0432 538.7722 538.1539 537.9529 537.8259 537.791 537.7532 537.5975 536.6654 534.9547 533.4769 532.713 532.2491 532.1713 532.0008 531.9172 531.7687 531.6588 531.6111 531.3619 530.9417 530.6721 530.4628 530.2607 530.0291 529.7795 529.686 529.4897 529.2952 529.2286 529.1294 528.7849 528.6188 
565.0418 564.7483 564.5444 563.964 563.6986 563.3848 563.0881 562.8188 562.4759 561.9011 561.5807 561.2094 560.7633 560.332 559.4702 559.1119 558.7208 558.2767 557.8801 557.5313 556.6607 556.295 555.9631 555.5767 555.1614 554.814 554.1387 553.7273 553.3825 553.0886 552.7422 552.402 551.7856 551.4659 551.1063 550.794 550.5183 550.17 549.3975 549.0026 548.5706 548.1483 547.7158 547.2817 546.4208 545.9941 545.5244 545.0006 544.4826 543.4594 542.7966 542.2455 541.8826 541.4915 540.9831 540.1189 539.6729 539.3502 539.0688 538.7107 538.376 537.9308 537.7526 537.626 537.5526 537.4631 537.2648 535.9048 534.6948 533.4462 532.4877 531.8711 531.4614 531.178 531.0358 530.8526 530.6694 530.5067 530.4233 530.1817 530.007 529.838 529.6695 529.497 529.3286 529.2772 529.1316 528.9969 528.9178 528.814 528.4769 528.3041 
564.4709 564.2001 563.9719 563.3665 563.0906 562.8339 562.5323 562.2216 561.9407 561.2095 560.821 560.4306 560.0506 559.6174 558.7542 558.4023 558.0095 557.5663 557.1392 556.7354 555.9483 555.5782 555.2473 554.8517 554.4609 554.1783 553.4114 553.0624 552.7195 552.3766 552.0485 551.777 551.0914 550.8116 550.5002 550.1888 549.902 549.4825 548.7219 548.2896 547.8589 547.4219 547.0096 546.6505 545.7007 545.2849 544.8073 544.3152 543.8697 542.8391 542.2426 541.7383 541.3257 540.9016 540.4523 539.5788 539.248 538.8398 538.4725 538.2336 537.9427 537.4557 537.4825 537.4454 537.2957 536.9878 536.5506 535.2499 534.2667 533.2078 532.3072 531.6257 530.9694 530.485 530.3196 530.0931 529.8477 529.6953 529.433 529.2492 529.13 529.0544 528.9739 528.9155 528.9254 528.8649 528.7733 528.6899 528.5763 528.4164 528.1703 527.9982 
563.9553 563.6796 563.3547 562.8301 562.5073 562.2241 561.9524 561.6111 561.2833 560.4958 560.0931 559.7015 559.3422 558.9018 558.0408 557.6182 557.2479 556.8629 556.4171 556.0024 555.2342 554.8603 554.5231 554.1713 553.8215 553.4895 552.7203 552.3488 552.0035 551.6913 551.4138 551.0738 550.4504 550.1331 549.8322 549.551 549.2086 548.8506 548.0005 547.5704 547.1314 546.7304 546.3748 545.5169 545.0147 544.5567 544.0873 543.5887 543.1644 542.222 541.7028 541.1808 540.7019 540.284 539.8403 538.8821 538.5126 538.222 537.969 537.7156 537.4402 536.9748 536.9041 536.7799 536.5375 536.1563 535.7269 534.6796 533.8876 532.9659 532.1095 531.439 530.7589 529.8569 529.644 529.3738 529.1428 528.9692 528.6998 528.5485 528.4231 528.3801 528.42 528.5029 528.5072 528.525 528.4192 528.2696 528.1997 528.1146 527.8412 527.6926 
563.3508 563.0963 562.8184 562.2222 561.9799 561.642 561.255 560.9028 560.4877 559.7184 559.3411 558.9562 558.5539 558.1924 557.3262 556.8932 556.4659 556.081 555.7083 555.2748 554.4922 554.1479 553.8034 553.4611 553.1252 552.7679 551.9778 551.6355 551.2806 550.9723 550.7002 550.3631 549.7634 549.4791 549.1839 548.8358 548.4937 548.1416 547.2805 546.8437 546.4584 546.0916 545.6595 544.8013 544.3745 543.8836 543.3987 542.9742 542.5427 541.6896 541.1205 540.609 540.1992 539.7421 539.2372 538.2953 537.8237 537.4748 537.3503 537.3057 537.0413 536.5938 536.4216 536.2737 535.9739 535.426 534.9214 534.098 533.5609 532.7845 531.9081 531.2502 530.6617 529.3521 528.9626 528.7662 528.5301 528.3608 528.0046 527.9012 527.8815 527.8864 527.9209 527.9916 528.0739 528.1026 528.0746 528.0002 527.9257 527.8881 527.5445 527.308 
562.8309 562.5575 562.2366 561.6596 561.2764 560.8937 560.5179 560.105 559.3309 558.9606 558.565 558.1738 557.8043 557.379 556.5964 556.1859 555.7391 555.3549 554.997 554.5556 553.7704 553.4299 553.0944 552.7141 552.3007 551.9564 551.2603 550.9097 550.6127 550.3271 549.9778 549.6426 549.0508 548.7037 548.3604 548.0143 547.6694 547.3258 546.5657 546.1229 545.7388 545.3794 544.9277 543.9747 543.5475 543.1165 542.6794 542.2787 541.9246 541.0691 540.5718 540.1089 539.6431 539.1481 538.7115 537.6788 537.2103 536.9218 536.8033 536.7033 536.5201 536.0765 535.9051 535.7536 535.5061 535.0265 534.4404 533.4791 533.0411 532.5236 531.8082 531.0605 530.4645 529.318 528.6396 528.1531 527.9063 527.7433 527.4013 527.3561 527.3619 527.4076 527.5026 527.5718 527.7049 527.7281 527.8319 528.0002 527.9257 527.8881 527.5445 527.308 
562.2308 561.9699 561.6288 560.8959 560.517 560.131 559.7217 559.3741 558.6018 558.2433 557.843 557.4487 557.092 556.6556 555.7943 555.4299 555.035 554.5968 554.1976 553.8348 553.0511 552.7208 552.3247 551.9184 551.5762 551.2342 550.5406 550.1891 549.8956 549.6119 549.2576 548.9216 548.3304 547.98 547.635 547.2901 546.9447 546.6015 545.8456 545.4021 545.0244 544.6282 544.1174 543.2545 542.8953 542.4973 542.1052 541.7438 541.3088 540.451 540.0234 539.6018 539.1304 538.6364 538.196 537.2457 536.8891 536.5283 536.2784 536.1805 536.0146 535.5977 535.3864 535.2814 535.1219 534.7422 534.2206 533.0937 532.6306 532.2388 531.7666 531.0931 530.4227 529.2921 528.7121 527.9849 527.337 527.1158 526.8648 526.7753 526.7939 527.4076 527.5026 527.5718 527.7049 527.7281 527.8319 527.8557 527.6564 527.4831 527.1199 526.9526 
561.6735 561.2706 560.9241 560.1415 559.7433 559.3429 559.0034 558.6479 557.871 557.4611 557.0826 556.7057 556.2674 555.85 555.071 554.7062 554.3181 553.8742 553.4705 553.1151 552.3354 551.9325 551.5411 551.2071 550.8375 550.4245 549.8253 549.4684 549.1747 548.891 548.5368 548.2001 547.6097 547.2593 546.9137 546.5685 546.2263 545.8737 545.0884 544.6882 544.3011 543.9048 543.3948 542.6189 542.2076 541.8242 541.4945 541.1212 540.7025 539.9393 539.5052 539.0851 538.6206 538.1282 537.6817 536.8076 536.478 536.1326 535.8016 535.5789 535.4916 535.1552 534.9847 534.8127 534.6271 534.3234 533.8237 532.9011 532.3755 532.0192 531.7631 531.3339 529.9877 529.3333 528.7221 528.0649 527.337 527.1158 526.8648 526.7753 526.7939 526.8952 527.0041 527.1531 527.5671 527.6276 527.5458 527.4005 527.2499 527.1348 526.7074 526.5322 
560.9051 560.541 560.1225 559.3542 558.9666 558.632 558.2626 557.8461 557.0725 556.7073 556.3099 555.9162 555.5467 555.1238 554.3524 553.9865 553.5984 553.1547 552.7506 552.3956 551.6179 551.2097 550.8257 550.4513 550.03 549.695 549.1044 548.7466 548.452 548.1695 547.8154 547.479 546.888 546.5375 546.1919 545.8521 545.4863 544.7084 544.371 543.98 543.4915 543.0206 542.6908 541.9198 541.5534 541.2162 540.8743 540.4998 540.0848 539.3248 538.8867 538.5092 538.1469 537.6979 537.1921 536.3141 536.006 535.7189 535.3607 535.0743 534.9665 534.6375 534.4642 534.2899 534.1328 533.9255 533.5142 532.5432 532.1829 531.9572 531.7623 531.3339 529.9877 529.3333 528.7221 528.0649 527.2999 526.5707 526.2347 526.2225 526.3122 526.4669 526.7401 527.1058 527.262 527.2283 527.131 526.9963 526.8161 526.6393 526.3029 526.1232 
560.1543 559.7401 559.385 558.5966 558.2628 557.8727 557.4669 557.1074 556.3297 555.92 555.5383 555.1564 554.7454 554.4016 553.6323 553.2661 552.879 552.4348 552.0305 551.679 550.8151 550.4509 550.0583 549.6528 549.3091 548.9747 548.3777 548.0921 547.7953 547.437 547.1124 546.848 546.1612 545.8167 545.4763 545.0969 544.6774 543.9946 543.5753 543.196 542.816 542.4154 542.058 541.2775 540.9363 540.5982 540.2117 539.8021 539.4644 538.7857 538.3889 537.9471 537.5511 537.1953 536.7576 535.801 535.4268 535.1189 534.8691 534.6252 534.3737 534.1346 533.9494 533.7777 533.6089 533.9255 533.5142 532.5432 532.1829 531.9572 531.7623 531.4426 530.434 529.7712 528.968 527.9966 527.0106 526.1917 525.6231 525.7274 525.9825 526.2816 526.4822 526.6384 526.8325 526.8748 526.7691 526.59 526.4313 526.2366 525.8925 525.7197 
559.371 559.0021 558.2246 557.8127 557.4296 557.0964 556.7207 556.303 555.5297 555.1561 554.8223 554.4344 554.0208 553.6807 552.912 552.5452 552.158 551.7202 551.2859 550.867 550.0978 549.7218 549.3829 549.0384 548.6946 548.3478 547.7318 547.4188 547.0673 546.7194 546.3936 546.1258 545.441 545.1033 544.7087 544.2974 543.9597 543.2745 542.8642 542.4227 542.031 541.6908 541.3494 540.5857 540.2166 539.8714 539.5234 539.1837 538.8382 538.1586 537.8293 537.4399 537.0002 536.5652 536.1381 535.2977 534.9225 534.5056 534.1973 534.0833 534.3737 534.1346 533.9494 533.7777 533.6089 533.432 533.1672 532.2346 531.9288 531.7379 531.577 531.4139 530.8619 530.4 529.7401 528.4019 526.5378 525.1974 525.0729 525.4457 525.7041 525.8159 525.9691 526.2298 526.4893 526.4963 526.378 526.229 526.0947 525.8594 525.5002 525.2791 
558.5451 558.2014 557.4227 557.0533 556.7207 556.3304 555.9232 555.5651 554.781 554.4396 554.1019 553.715 553.3 552.9597 552.191 551.8235 551.4366 550.9992 550.5698 550.136 549.3486 549.0095 548.6569 548.3483 548.0759 547.7307 547.0411 546.6882 546.3918 546.1102 545.7599 545.4113 544.7208 544.3831 543.9913 543.5809 543.24 542.5547 542.1387 541.7651 541.3886 540.9757 540.6257 539.9438 539.607 539.2081 538.8097 538.4715 538.1255 537.511 537.2005 536.8026 536.3661 535.932 535.512 535.2977 534.9225 534.5056 534.1973 534.0833 533.8886 533.6385 533.4338 533.2678 533.0919 532.8926 532.6494 531.9523 531.6895 531.5364 531.3683 531.2516 531.1122 530.9174 530.4703 529.33 527.0869 524.791 524.4957 524.6792 525.2017 525.5961 525.8289 526.0723 526.2902 526.2037 526.0626 525.903 525.7278 525.5685 525.0679 524.7244 
557.7133 557.3719 556.6857 556.2692 555.8843 555.5516 555.1776 554.7549 554.064 553.7251 553.3229 552.9207 552.5819 552.239 551.47 551.1026 550.7103 550.3184 549.9323 549.4337 548.7377 548.3936 548.0489 547.7032 547.3521 547.0163 546.4251 546.0757 545.7285 545.3802 545.0353 544.6912 544.0018 543.6631 543.2769 542.8697 542.5203 541.8365 541.4214 541.0358 540.7065 540.3404 539.9213 539.2183 538.8739 538.533 538.1928 537.848 537.5033 537.511 537.2005 536.8026 536.3661 535.932 535.512 534.7389 534.3282 533.9641 533.6426 533.4478 533.4148 533.0688 532.9202 532.7367 532.5369 532.3002 531.9766 531.6977 531.48 531.337 531.2686 531.2744 531.263 530.8725 529.8488 529.194 527.9646 525.0653 524.3201 523.8004 524.1541 525.0081 525.445 525.7065 525.9346 525.8325 525.7014 525.5818 525.3975 525.1592 524.4906 524.1699 
557.0001 556.6378 555.8557 555.5137 555.1749 554.7856 554.3732 554.0308 553.3444 552.9307 552.5435 552.2062 551.8613 551.5179 550.7484 550.3745 550.0441 549.6624 549.2525 548.9047 548.1157 547.7767 547.4316 547.0872 546.743 546.3984 545.7044 545.3602 545.0154 544.6716 544.3254 543.6268 543.2828 542.9372 542.6011 542.2337 541.8152 541.1055 540.6973 540.3193 539.9797 539.6415 539.2893 538.5144 538.8739 538.533 538.1928 537.848 537.5033 536.8083 536.4694 536.0769 535.6467 535.2313 534.7996 533.918 533.6658 533.3934 533.1312 533.0383 532.8605 532.5916 532.353 532.1107 531.9302 531.7636 531.4792 531.3592 531.287 531.2747 531.2809 531.1597 530.4269 529.7161 528.7823 528.1036 527.4541 526.1002 524.3422 523.6769 523.1709 523.6348 524.83 525.5062 525.6212 525.494 525.3174 525.0872 524.8517 524.491 523.8869 523.5808 
556.1765 555.8142 555.0289 554.7641 554.4005 553.993 553.6599 553.2983 552.5135 552.1753 551.8314 551.4839 551.1397 550.782 549.9995 549.6646 549.3219 548.978 548.6412 548.2864 547.4992 547.1602 546.815 546.4711 546.127 545.7823 545.0826 544.7383 544.3937 544.0544 543.6929 542.9072 542.5634 542.2191 541.8737 541.5368 541.183 540.3192 539.9496 540.3193 539.9797 539.6415 539.2893 538.5144 538.1748 537.8303 537.486 537.1422 536.7979 536.1115 535.7588 535.3636 534.973 534.609 534.1954 533.3293 532.9605 532.6031 532.445 532.5062 532.3149 532.0636 531.8883 531.6235 531.3916 531.2825 531.2766 531.28 531.2366 531.0388 530.6385 529.8915 528.2853 527.7435 527.377 527.0774 526.8019 526.3896 524.6508 523.7828 522.744 522.4005 523.2447 524.6326 525.3469 524.9871 524.672 524.3471 524.0375 523.7358 523.1396 522.8408 
555.3477 555.0018 554.313 553.9657 553.6201 553.2823 552.9099 552.4885 551.7969 551.4495 551.1112 550.7267 550.3117 549.9696 549.2893 549.0078 548.7121 548.3658 548.0244 547.6703 546.8834 546.5444 546.1994 545.8557 545.5121 545.1506 544.3666 544.029 543.6776 543.3228 542.9826 542.2242 541.8582 542.2191 541.8737 541.5368 541.183 540.3192 539.9496 539.6061 539.262 538.9182 538.5745 537.8924 537.5478 537.203 536.8583 536.5141 536.1697 535.4852 535.0869 534.7011 534.3209 533.9219 533.5771 532.7285 532.43 532.1994 531.9247 531.5947 531.3698 531.5032 531.4736 531.394 531.2706 531.274 531.2801 531.0161 530.3911 529.4505 528.3699 527.3005 525.9592 525.8025 525.7939 525.829 525.8188 525.7096 524.9532 523.8739 522.7282 521.9169 521.7241 522.6452 524.1411 523.8951 523.6465 523.4247 523.1324 522.8745 522.2987 522.0452 
554.5288 554.1828 553.4916 553.1465 552.8014 552.456 552.1124 551.772 550.9973 550.6246 550.284 549.9448 549.607 549.2723 548.6846 548.3283 548.0288 547.7472 547.4102 547.0554 546.2678 545.9289 545.5837 545.246 544.881 544.4515 543.7661 543.4176 543.6776 543.3228 542.9826 542.2242 541.8582 541.5201 541.167 540.8157 540.4564 539.685 539.2859 538.9055 538.5586 538.1989 537.8574 537.1916 536.8469 536.5031 536.159 535.8151 535.4713 534.7873 534.4369 534.0399 533.6508 533.3221 532.9723 532.2225 531.9089 531.6202 531.3103 530.9686 530.7146 530.6306 530.9438 531.1646 531.2341 531.2865 530.4606 529.4094 528.2492 527.1488 526.1119 525.3295 524.6625 524.7205 524.7813 524.8315 524.879 524.8762 524.697 523.7083 522.4255 521.5365 521.0893 520.9408 521.8467 522.1033 522.1472 522.1474 522.1025 521.8743 521.4694 521.244 
553.7279 553.4582 552.7685 552.4235 552.0778 551.7321 551.3912 551.033 550.2551 549.9237 549.5761 549.267 548.9935 548.6535 548.0393 547.7306 547.3688 547.0529 546.7836 546.4412 545.6523 545.3141 544.9703 545.246 544.881 544.4515 543.7661 543.4176 543.0214 542.6195 542.28 541.5829 541.2356 540.8987 540.5173 540.111 539.7416 538.9626 538.6212 538.2875 537.9079 537.5026 537.1714 536.5655 536.2175 535.8731 535.5287 535.1856 534.8384 534.1266 533.7297 533.3535 533.0107 532.6435 532.2997 531.5688 531.1393 530.7329 530.3906 530.0552 529.5517 529.5653 529.8525 530.0692 530.125 530.0112 528.2233 527.1927 526.2504 525.3568 524.7234 524.5995 524.3231 524.2751 524.3246 524.3588 524.267 524.0598 523.6539 522.949 521.9529 521.1608 520.6738 520.2328 520.1462 520.3382 520.5104 520.6479 520.7043 520.6229 520.5351 520.3738 
552.9837 552.6404 551.9503 551.6057 551.2603 550.9152 550.5704 550.2253 549.5469 549.2772 548.9809 548.6202 548.2958 548.0342 547.4259 547.1145 546.7642 546.4114 546.7836 546.4412 545.6523 545.3141 544.9703 544.6251 544.2523 543.4914 543.1422 542.7361 542.3519 542.0139 541.6551 540.8948 540.5317 540.1779 539.8289 539.4691 539.06 538.2867 537.9224 537.5857 537.2332 536.8759 536.531 535.835 535.4911 535.1464 534.8031 534.4642 534.1123 533.3201 532.9992 532.6649 532.2721 531.872 531.4955 530.6586 530.2438 529.8623 529.4888 529.1199 528.4064 528.1954 528.0466 527.8396 527.511 527.0334 526.0256 525.4131 524.865 524.5222 524.2899 524.0911 523.9069 523.8729 523.8353 523.7659 523.5815 523.2614 522.5756 522.136 521.4674 520.762 520.2954 519.9063 519.2509 519.2314 519.3241 519.371 519.366 519.4249 519.415 519.3282 
552.1865 551.9158 551.2384 550.8933 550.548 550.202 549.8609 549.5243 548.9154 548.6702 548.3651 548.0082 548.2958 548.0342 547.4259 547.1145 546.7642 546.4114 546.0869 545.8217 545.0444 544.6984 544.3621 543.9824 543.5588 542.8829 542.4604 542.0818 541.7451 541.3593 540.9515 540.252 539.9081 539.5176 539.1293 538.7896 538.4182 537.6629 537.3054 536.9528 536.5787 536.1789 535.8367 535.1534 534.8099 534.4686 534.1118 533.7417 533.4006 532.665 532.3487 532.0101 531.6084 531.2313 530.8301 530.066 529.6934 529.294 528.8459 528.4265 527.5197 527.1476 526.6577 526.0451 525.5532 525.1579 524.6044 524.3716 524.1451 523.9812 523.7585 523.5413 523.4106 523.3336 523.2426 523.1262 522.9175 522.6168 521.8462 521.4501 520.9617 520.3657 519.9004 519.5547 518.7402 518.4828 518.3974 518.411 518.4247 518.4674 518.3925 518.2961 
551.4421 551.1118 550.5206 550.1744 549.8367 549.4951 549.1767 549.5243 548.9154 548.6702 548.3651 548.0082 547.6871 547.4196 546.8107 546.5001 546.1494 545.7999 545.4749 545.2144 544.4619 544.0781 543.7482 543.372 542.9527 542.269 541.8536 541.4793 541.0923 540.6806 540.3466 539.5676 539.2064 538.8546 538.5024 538.1385 537.7369 537.0336 536.6273 536.2506 535.9166 535.5828 535.2346 534.5116 534.1691 533.8314 533.4625 533.0676 532.721 532.0054 531.6575 531.3151 530.9539 530.5674 530.221 529.4374 529.0121 528.569 528.1765 527.7407 526.7554 526.2713 525.7295 525.1885 524.7451 524.3656 523.8522 523.5346 523.3594 523.2245 522.9947 522.9081 522.7885 522.71 522.6342 522.5031 522.2486 521.9532 521.2502 520.8163 520.4271 519.9642 519.478 519.1403 518.3762 517.9849 517.7681 517.7144 517.6544 517.6033 517.5453 517.4417 
550.6475 550.3706 550.5206 550.1744 549.8367 549.4951 549.1767 548.9144 548.3021 548.055 547.7505 547.3934 547.071 546.8051 546.1966 545.8866 545.5332 545.1922 544.8826 544.6019 543.8375 543.4672 543.1348 542.7586 542.3378 541.6564 541.2416 540.8655 540.4855 540.07 539.6962 538.9191 538.5767 538.1892 537.8041 537.4608 537.098 536.3491 535.9893 535.6581 535.3006 534.9325 534.5804 533.8268 533.4911 533.1246 532.7591 532.4303 532.076 531.2744 530.9648 530.6453 530.2874 529.9188 529.5668 528.8323 528.3917 527.9487 527.5754 527.1219 526.0823 525.572 525.0746 524.6001 524.1622 523.7864 522.9796 522.5527 522.2884 522.0515 521.824 521.9374 522.1678 522.1107 521.9915 521.8253 521.5945 521.3353 520.7164 520.3608 520.0334 519.6416 519.1823 518.7947 518.0234 517.6339 517.2401 517.0185 517.0112 516.8102 516.7124 516.6625 
550.6475 550.3706 549.7758 549.4668 549.1827 548.8959 548.5687 548.3002 547.687 547.4406 547.135 546.7878 546.4771 546.1927 545.5819 545.2717 544.9265 544.6293 544.3441 543.9655 543.1965 542.8601 542.5197 542.1555 541.752 541.0419 540.627 540.251 539.8788 539.4377 539.0124 538.241 537.8776 537.545 537.1962 536.8089 536.4084 535.7268 535.3882 535.0288 534.6356 534.2438 533.9033 533.1956 532.8446 532.4744 532.0723 531.7014 531.3569 530.61 530.3093 530.0041 529.6162 529.1978 528.5641 528.2186 527.8524 527.4431 526.9942 526.4991 525.463 524.9954 524.5917 524.1838 523.6909 523.1641 522.0062 521.3705 520.89 520.5748 520.4587 520.745 521.4858 521.4817 521.3564 521.175 520.9965 520.7859 520.1949 519.9288 519.7046 519.3829 518.9722 518.4893 517.7264 517.3073 516.8566 516.4909 516.3226 516.0668 515.9456 515.9221 
549.9207 549.593 549.0801 548.8279 548.5671 548.2648 547.9542 547.6886 547.0801 546.8254 546.5159 546.2045 545.9371 545.5871 544.9777 544.6505 544.3578 544.0759 543.6801 542.9273 542.5884 542.2443 541.8992 541.5627 541.2155 540.4308 540.0384 539.6595 539.2628 538.8279 538.3943 537.6157 537.2799 536.9429 536.5529 536.1342 535.8024 535.1174 534.7813 534.3796 533.9741 533.645 533.3023 532.5218 532.131 531.7805 531.4277 531.0271 530.6446 529.968 529.6189 529.2753 528.9117 528.54 527.9039 527.5937 527.272 526.9121 526.4976 526.0082 524.9734 524.4849 524.0672 523.6856 523.2295 522.593 520.9479 520.2335 519.6677 519.3486 519.3702 519.7201 520.7818 520.8578 520.7474 520.5491 520.3851 520.283 519.814 519.5634 519.3705 519.1104 518.7858 518.3244 517.4935 517.0638 516.6125 516.1161 515.6942 515.405 515.3085 515.2748 
549.2214 548.9714 548.4756 548.2242 547.9071 547.5854 547.3391 547.0844 546.4932 546.2061 545.9025 545.5862 545.3138 544.9798 544.3928 544.0353 543.7271 543.4113 543.033 542.3547 542.0111 541.6676 541.3266 540.9717 540.6031 539.8678 539.4932 539.0819 538.6581 538.2589 537.8274 537.0117 536.6635 536.3281 535.9624 535.5673 535.1931 534.506 534.1694 533.7727 533.3714 533.0257 532.6406 531.9065 531.5018 531.0781 530.72 530.3774 529.9839 529.2445 528.9027 528.5613 528.222 527.8766 527.1744 526.9065 526.6375 526.3165 525.9646 525.5565 524.5671 524.0506 523.6208 523.1926 522.627 521.9691 520.2733 519.4772 519.0757 519.0715 519.0518 519.1896 520.1959 520.2761 520.1438 520.0227 519.9053 519.7733 519.4627 519.2714 519.0648 518.8109 518.5426 518.1624 517.3378 516.9433 516.4354 515.8758 515.3526 514.7672 514.7015 514.6641 
548.5242 548.2749 547.8615 547.594 547.2816 546.9805 546.7261 546.4698 545.8757 545.5898 545.3062 544.9987 544.7015 544.3659 543.7779 543.4248 543.087 542.7895 542.5059 541.8145 541.4712 541.1268 540.7872 540.4259 540.0244 539.309 538.8975 538.4792 538.1047 537.7186 537.2825 536.4529 536.0648 535.7059 535.3777 535.0112 534.58 533.8951 533.5582 533.162 532.7637 532.4015 531.9767 531.2592 530.8752 530.4647 530.037 529.6625 529.3203 528.5257 528.1942 527.8204 527.4608 527.162 526.5132 526.2094 525.9328 525.6596 525.3732 525.0551 524.1586 523.6973 523.2864 522.896 522.2919 521.4287 519.9492 519.3043 519.0562 519.0751 519.0735 519.0831 519.6 519.685 519.642 519.5778 519.3991 519.2216 519.1735 519.019 518.7678 518.4861 518.1727 517.8918 517.2394 516.8955 516.3718 515.7263 515.1787 514.203 514.0663 514.0412 
547.9232 547.6616 547.2028 546.9163 546.6198 546.3723 546.1133 545.8563 545.2903 544.9884 544.7299 544.4473 544.088 543.7491 543.1613 542.8295 542.5395 542.233 541.8873 541.2385 540.8908 540.5454 540.2064 539.8589 539.4756 538.7349 538.3295 537.9288 537.5275 537.1031 536.7107 535.8981 535.5125 535.1185 534.7532 534.4063 534.0158 533.2797 532.9478 532.551 532.1542 531.7996 531.3689 530.5932 530.2093 529.7955 529.3795 528.9982 528.6095 527.8348 527.4808 527.0848 526.6813 526.3893 525.844 525.4996 525.2323 525.0203 524.7684 524.497 523.6973 523.3298 522.8586 522.3043 521.7178 520.9835 519.6074 519.2653 519.1198 519.0744 519.075 519.0737 519.2158 519.2734 519.2286 519.1617 519.1066 519.074 518.9638 518.6778 518.3874 518.1038 517.7608 517.3164 517.1158 516.8785 516.4563 515.6871 514.7607 513.7058 513.4677 513.4537 
547.3094 547.0511 546.5278 546.27 546.0162 545.7595 545.5009 545.2425 544.738 544.4139 544.1079 543.8268 543.4837 543.1729 542.5736 542.2796 541.983 541.6566 541.3224 540.691 540.3777 540.056 539.6924 539.2977 538.9099 538.1989 537.7759 537.3688 536.962 536.5455 536.1571 535.3356 534.953 534.567 534.1746 533.7993 533.4614 532.6832 532.3329 531.9453 531.5204 531.1331 530.7507 529.9235 529.5485 529.1417 528.7231 528.3195 527.5529 527.1342 526.7543 526.4083 526.0107 525.6281 525.1086 524.8689 524.6439 524.4009 524.1439 523.8939 523.1349 522.7036 522.2528 521.7768 521.229 520.5145 519.4344 519.1632 519.0557 519.0327 519.0788 519.0749 519.0885 519.0981 519.0814 519.074 519.0743 519.0965 518.6585 518.2757 517.9434 517.633 517.3521 516.9139 516.7424 516.6383 516.3643 515.4786 514.133 513.0255 512.8434 512.8743 
546.6968 546.4382 545.9202 545.6873 545.4253 545.1419 544.8883 544.6303 544.1197 543.7959 543.4941 543.2106 542.8787 542.3184 542.0206 541.7177 541.4183 541.1101 540.7705 540.1155 539.8132 539.4992 539.1235 538.7432 538.4012 537.6322 537.2114 536.8123 536.4109 535.9871 535.5959 534.7759 534.3937 534.0067 533.6202 533.2327 532.8461 532.0844 531.7153 531.3309 530.908 530.5327 530.1426 529.2798 528.878 528.4674 528.0559 527.6727 526.8389 526.4651 526.072 525.6937 525.3325 524.9645 524.516 524.2952 524.0916 523.8763 523.5869 523.2772 522.5727 522.1721 521.801 521.3321 520.7721 520.2188 519.3137 519.0421 518.9192 518.9312 518.9728 519.0392 519.0745 519.0748 519.0787 519.116 519.0319 518.8181 518.1497 517.7932 517.4351 517.1393 516.9398 516.5743 516.4206 516.3459 516.0827 514.9999 513.4019 512.638 512.4819 512.3658 
546.0845 545.8262 545.3041 545.12 544.8805 544.5584 544.2755 544.0178 543.5054 543.2134 542.9095 542.6122 542.3038 541.7579 541.4619 541.1572 540.8613 540.5396 540.1982 539.6111 539.2747 538.9252 538.5849 538.2508 537.8934 537.0757 536.6638 536.2201 535.8043 535.4319 535.0406 534.2183 533.8325 533.4467 533.0621 532.6725 532.2917 531.5176 531.1318 530.7445 530.3665 529.9667 529.534 528.6754 528.2441 527.8098 527.3946 526.9932 526.1921 525.7921 525.3926 525.0587 524.782 524.49 523.9382 523.7484 523.4874 523.2339 523.023 522.7404 522.1304 521.7524 521.2535 520.6543 520.1925 519.8845 518.943 518.7335 518.6567 518.6389 518.5962 518.6943 519.0135 518.9442 518.7395 518.6105 518.4501 518.2419 517.6083 517.2861 516.9536 516.7167 516.553 516.2088 516.0392 515.9139 515.598 514.7015 513.4684 512.61 512.4023 512.0244 
545.4725 545.2141 544.6887 544.4952 544.299 543.9992 543.6578 543.3994 542.8882 542.644 542.3347 542.0104 541.7568 541.1423 540.8864 540.6041 540.2952 540.0007 539.6939 539.0419 538.7133 538.3655 538.0242 537.6896 537.3345 536.4728 536.0341 535.6324 535.2612 534.8582 534.4246 533.657 533.2747 532.8876 532.4985 532.1188 531.724 530.9573 530.5264 530.1483 529.7894 529.35 528.9142 528.0563 527.6265 527.201 526.7762 526.343 525.5043 525.1699 524.8383 524.5333 524.2863 524.0274 523.42 523.1681 522.9059 522.6384 522.4058 522.1568 521.5899 521.116 520.6473 520.2301 519.7453 519.2433 518.6796 518.5057 518.3954 518.3587 518.3328 518.2941 518.3781 518.3237 518.1204 517.889 517.7222 517.5432 517.0094 516.7288 516.4971 516.2971 516.0607 515.7155 515.5479 515.3337 515.0586 514.5078 513.6019 512.7061 512.3566 511.9321 
544.8661 544.6061 544.1181 543.9127 543.6821 543.4015 543.103 542.8465 542.2943 542.0204 541.7445 541.4372 541.1472 540.592 540.2795 540.0131 539.7444 539.4359 539.1353 538.5 538.1533 537.8141 537.4476 537.0701 536.717 535.8583 535.4654 535.0884 534.6741 534.2484 533.8748 533.1029 532.7119 532.3262 531.9441 531.5495 531.1749 530.4028 529.9943 529.5739 529.1582 528.7422 528.373 527.5203 527.0972 526.6321 526.1536 525.7238 524.9085 524.6426 524.3391 524.0248 523.7733 523.5185 522.9144 522.6304 522.3829 522.1294 521.8468 521.5323 520.8203 520.4434 520.1253 519.834 519.4657 518.8524 518.4715 518.2879 518.0688 517.9871 517.966 517.7988 517.6359 517.6094 517.4238 517.1706 517.0096 516.565 516.3584 516.1779 516.0062 515.8015 515.5466 515.2012 515.024 514.8551 514.6167 514.191 513.6268 512.9116 512.5463 512.0804 
544.2025 543.9466 543.5208 543.2722 543.003 542.7474 542.4932 542.2355 541.6772 541.4015 541.1603 540.8712 540.5268 540.0231 539.735 539.4192 539.1393 538.8821 538.5792 537.9368 537.5929 537.2605 536.8741 536.4584 536.1122 535.2449 534.8869 534.4976 534.0803 533.702 533.3052 532.5347 532.1552 531.7678 531.3766 531.001 530.6009 529.8354 529.407 529.0115 528.6284 528.2024 527.3743 526.944 526.5167 526.0736 525.6188 525.1935 524.4857 524.1634 523.8176 523.5082 523.2631 523.0049 522.4805 522.1603 521.8665 521.614 521.3651 521.071 520.2623 519.9511 519.6212 519.2169 518.7911 518.558 518.1532 517.8447 517.5825 517.4623 517.4072 517.2847 516.9228 516.7732 516.5979 516.444 516.2051 515.9265 515.7445 515.5692 515.3967 515.2202 515.0395 514.6848 514.5749 514.4411 514.2092 513.9623 513.7434 513.1289 512.7581 512.231 
543.5259 543.2729 542.8564 542.6232 542.3952 542.1316 541.8687 541.3596 541.1113 540.8185 540.5301 540.2645 539.9794 539.4109 539.1484 538.876 538.5616 538.2671 538.0189 537.3372 536.9821 536.6097 536.2169 535.8398 535.4397 534.6371 534.2729 533.8771 533.4748 533.1393 532.7606 531.9863 531.5958 531.2101 530.8247 530.426 530.0568 529.2834 528.8727 528.4493 528.0414 527.61 526.7493 526.3204 525.8918 525.4547 525.0392 524.6825 523.9993 523.6467 523.3516 523.0555 522.7415 522.494 521.9172 521.6224 521.3585 521.1149 520.8203 520.4184 519.7831 519.4936 519.2109 518.7831 518.3011 518.0717 517.7532 517.3802 517.0738 516.9024 516.7158 516.5953 516.1356 516.0349 515.7101 515.561 515.4856 515.232 515.0956 514.9618 514.7781 514.6055 514.4285 514.1496 514.0589 514.0287 513.9506 513.7554 513.5941 513.2485 513.0776 512.5991 
542.9333 542.7193 542.2883 542.0799 541.8369 541.5906 541.3809 540.8114 540.5414 540.2571 539.9804 539.7125 539.4102 538.8657 538.548 538.2741 538.0157 537.7183 537.4088 536.731 536.3271 535.9417 535.5593 535.1584 534.7899 534.0301 533.6544 533.3101 532.9231 532.5304 532.1799 531.4004 530.991 530.6 530.2643 529.8829 529.4762 528.7054 528.3334 527.944 527.5058 527.0704 526.2131 525.7845 525.3505 524.9496 524.6029 524.2458 523.5511 523.2335 522.8913 522.5919 522.3029 521.9853 521.3804 521.0966 520.8595 520.5706 520.2425 519.9493 519.341 519.1041 518.7102 518.2323 517.8915 517.6394 517.0829 516.8671 516.5756 516.2145 515.9384 515.5347 515.0435 514.9451 514.9143 514.9452 514.8307 514.5649 514.4125 514.2909 514.1678 513.9827 513.8165 513.6329 513.539 513.5101 513.4786 513.3738 513.2975 513.1371 513.0756 512.5838 
542.3314 542.1538 541.7118 541.4829 541.2379 541.0359 540.8061 540.2499 539.9811 539.7329 539.4523 539.146 538.8517 538.283 538.0059 537.7023 537.3967 537.0765 536.7273 536.0399 535.6767 535.2792 534.8842 534.5297 534.181 533.3951 533.0504 532.6749 532.2773 531.9202 531.5734 530.7809 530.4317 530.0338 529.6418 529.2997 528.944 528.1832 527.7609 527.3396 526.9355 526.5712 525.7065 525.2767 524.8355 524.444 524.1151 523.7673 523.0784 522.7417 522.3837 522.0806 521.8066 521.465 520.9459 520.6316 520.2911 519.9818 519.7188 519.4626 518.861 518.5983 518.2329 517.8274 517.5801 517.3217 516.6552 516.2184 515.7421 515.3503 515.0314 514.6738 514.038 514.0981 514.1879 514.2493 514.2219 513.9659 513.7874 513.6714 513.5416 513.3762 513.3036 513.2203 513.1275 513.0339 512.9821 512.9888 512.9769 512.8184 512.5693 512.1003 
541.7159 541.5403 541.1151 540.9028 540.6859 540.468 540.2551 539.736 539.4734 539.2238 538.928 538.5863 538.2872 537.6821 537.4329 537.093 536.6943 536.3531 536.009 535.3209 534.9814 534.6257 534.2326 533.8372 533.4915 532.7858 532.451 532.0541 531.6497 531.2899 530.8782 530.1625 529.8223 529.4705 529.1207 528.7616 528.3513 527.6562 527.2478 526.8058 526.3846 525.9688 525.1786 524.765 524.3782 523.9962 523.5975 523.2563 522.5701 522.2207 521.9286 521.6351 521.3147 521.0411 520.4526 520.1382 519.7727 519.4581 519.2065 518.9483 518.4384 518.0523 517.7449 517.5543 517.2718 516.9396 516.2877 515.7861 515.3094 514.8669 514.3471 513.1117 513.248 513.5542 513.6242 513.6447 513.7063 513.3666 513.0813 512.9742 512.9958 512.9629 512.887 512.8022 512.7794 512.7279 512.6746 512.6571 512.5692 512.3319 511.987 511.4581 
541.1021 540.9308 540.5163 540.3098 540.1317 539.9128 539.6871 539.2207 539.0148 538.7496 538.4161 538.0522 537.6708 537.1018 536.7243 536.3408 535.9807 535.6387 535.2947 534.6062 534.2621 533.9208 533.5668 533.2057 532.8533 532.093 531.7632 531.3571 530.9746 530.6874 530.325 529.6374 529.2999 528.9144 528.5164 528.1735 527.4781 527.072 526.6959 526.3099 525.8696 525.4367 524.6632 524.2538 523.8773 523.4974 523.085 522.744 522.058 521.7139 521.3707 521.0684 520.7847 520.4613 519.7874 519.4689 519.2157 518.9511 518.6929 518.4363 517.8558 517.494 517.191 516.9448 516.6877 516.418 515.7466 515.2761 514.8492 514.4234 513.8357 513.0302 512.9606 512.9912 512.9846 513.0123 513.0932 512.9237 512.8002 512.7701 512.7822 512.7533 512.6777 512.5984 512.506 512.4185 512.3308 512.2459 512.1494 511.7258 511.5046 510.95 
540.4897 540.1479 539.903 539.6923 539.53 539.3479 539.1488 538.7834 538.5599 538.2947 537.9544 537.5416 537.1227 536.338 535.9586 535.6097 535.2682 534.9241 534.5795 533.8911 533.5468 533.2022 532.8588 532.5164 532.1722 531.3967 531.0239 530.6685 530.3467 530.0786 529.7361 529.0462 528.7038 528.35 527.9988 527.6394 526.8715 526.5295 526.1282 525.7354 525.3629 524.9272 524.1516 523.7423 523.3644 522.9848 522.5729 522.2317 521.5455 521.2025 520.8475 520.5423 520.2735 519.926 519.3101 518.987 518.6847 518.4331 518.1742 517.9185 517.3278 517.0315 516.7779 516.5197 516.2648 516.0005 515.3291 514.8608 514.4202 514.0681 513.6026 512.9752 512.976 512.9223 512.8691 512.8753 512.8774 512.7978 512.7083 512.6149 512.5698 512.5469 512.4708 512.3939 512.2354 512.1056 512.0287 511.9163 511.7454 511.2457 510.9896 510.4407 
539.8771 539.5423 539.2935 539.0789 538.913 538.7407 538.5699 538.2273 538.0338 537.8648 537.5448 537.0211 536.5372 535.6798 535.2623 534.8923 534.5522 534.21 533.8721 533.1843 532.834 532.4897 532.1506 531.8094 531.454 530.7233 530.402 530.0422 529.7374 529.4709 529.1213 528.4314 528.0819 527.7374 527.4001 527.0527 526.3545 525.9451 525.5609 525.2263 524.8593 524.4218 523.6442 523.2326 522.8512 522.473 522.0602 521.7187 521.0325 520.6792 520.3851 520.1036 519.7628 519.415 518.7953 518.5383 518.2769 518.0189 517.7642 517.4968 516.882 516.6278 516.369 516.1104 515.8552 515.5909 514.9122 514.5062 514.1167 513.7551 513.3041 512.9381 512.9875 512.9366 512.7873 512.6915 512.7577 512.6698 512.6115 512.5195 512.4326 512.3447 512.2584 512.0791 511.9939 511.9209 511.7509 511.5338 511.4216 510.8953 510.6316 510.2469 
539.2756 538.8635 538.6505 538.4713 538.2997 538.1263 537.9543 537.6158 537.4536 537.2705 536.9439 536.4501 535.9247 534.9915 534.5577 534.1735 533.8444 533.4849 533.071 532.3741 532.0939 531.744 531.3386 530.9962 530.6574 530.0425 529.7546 529.4456 529.0917 528.7754 528.4996 527.805 527.5228 527.1838 526.7715 526.432 525.7517 525.405 525 524.6137 524.2495 523.8259 523.0555 522.6796 522.3482 521.9637 521.5468 521.2057 520.5147 520.2366 519.9459 519.5599 519.1414 518.8069 518.2852 518.027 517.7678 517.5088 517.2538 516.9858 516.3694 516.1159 515.8566 515.5978 515.3391 515.082 514.5007 514.1521 513.8085 513.4663 513.1095 512.833 512.9539 512.9377 512.8434 512.7607 512.6646 512.5726 512.5101 512.4161 512.3312 512.2438 512.1556 511.9012 511.7853 511.6564 511.4758 511.3365 511.2169 510.6986 510.5564 510.2681 
538.5718 538.2087 538.0295 537.8638 537.6942 537.5265 537.3478 536.9401 536.73 536.4311 536.083 535.7011 535.2377 534.2721 533.8409 533.4681 533.101 532.6891 532.337 531.6478 531.3162 530.9708 530.612 530.2592 529.9241 529.33 529.0372 528.7858 528.4821 528.147 527.8812 527.2621 526.9585 526.6083 526.2614 525.9023 525.131 524.7911 524.4482 524.0593 523.6553 523.2944 522.5103 522.1785 521.7812 521.3781 521.0367 520.693 520.0048 519.6657 519.324 518.9769 518.6251 518.2894 517.7704 517.5117 517.2526 516.9937 516.7388 516.4714 515.8538 515.6004 515.3416 515.0777 514.8377 514.4149 514.1658 513.7936 513.389 513.0538 512.687 512.6569 512.9261 512.9788 512.9784 512.9429 512.7677 512.5714 512.4479 512.3106 512.2341 512.1223 511.9551 511.6984 511.5185 511.3998 511.2861 511.1075 510.9315 510.6063 510.3787 510.1215 
538.0018 537.5949 537.4385 537.2167 537.0034 536.8238 536.576 536.071 535.8163 535.5535 535.2586 534.8872 534.4464 533.5681 533.1389 532.7066 532.3154 531.9483 531.5323 530.8392 530.4937 530.1418 529.8313 529.5504 529.209 528.6116 528.3176 528.0626 527.7958 527.5331 526.925 526.6522 526.3477 525.9951 525.6565 525.295 524.514 524.1737 523.8367 523.4468 523.033 522.6937 522.0063 521.5951 521.206 520.8678 520.5257 520.1809 519.4976 519.0875 518.6903 518.3902 518.1133 517.7765 517.2552 516.9963 516.7368 516.4828 516.2067 515.8583 515.3088 515.0911 514.8265 514.5629 514.3193 513.9813 513.757 513.3845 512.9816 512.6427 512.275 512.3043 512.8135 513.0048 512.976 512.9633 512.8704 512.5148 512.408 512.2701 512.1238 512.0194 511.8543 511.501 511.3933 511.2625 511.075 510.8936 510.7219 510.376 510.224 510.0184 
537.4238 536.922 536.6748 536.4713 536.2667 536.0146 535.7529 535.2328 534.9785 534.6799 534.3384 533.9922 533.6248 532.7661 532.3248 531.9398 531.5633 531.1503 530.8012 530.1127 529.7687 529.42 529.0703 528.748 528.4838 527.8946 527.5907 527.3823 527.1826 526.9185 526.3966 526.0731 525.7238 525.379 525.0392 524.678 523.8972 523.5572 523.2121 522.8716 522.499 522.0793 521.3895 521.0434 520.7049 520.3207 519.9064 519.5645 518.8765 518.5324 518.1808 517.874 517.5976 517.2612 516.7385 516.4861 516.1771 515.8557 515.6013 515.3453 514.7516 514.5151 514.3143 514.0438 513.7992 513.4539 513.299 513.0394 512.6409 512.2224 511.878 511.9191 512.4998 512.8619 512.9138 512.8702 512.7811 512.4595 512.2679 512.0865 511.905 511.7487 511.6489 511.2923 511.118 510.9527 510.7491 510.5192 510.3456 510.376 510.224 510.0184 
536.7225 536.1867 535.9503 535.6957 535.4457 535.1843 534.9244 534.4117 534.1606 533.8517 533.4985 533.1599 532.81 531.94 531.5679 531.178 530.7808 530.4112 529.9919 529.2996 528.9451 528.6489 528.3573 528.0244 527.7612 527.1409 526.8773 526.6649 526.4655 526.2211 525.7049 525.4234 525.1151 524.761 524.4225 524.0634 523.2794 522.9396 522.594 522.2558 521.8854 521.4618 520.7713 520.4266 520.0817 519.7424 519.3737 518.9505 518.2551 517.9764 517.678 517.3214 516.9955 516.7397 516.1491 515.8566 515.6059 515.3533 515.0676 514.7396 514.2483 513.9473 513.6926 513.4294 513.185 512.8373 512.7374 512.5711 512.2321 511.8249 511.506 511.682 512.0635 512.101 511.8833 511.719 511.7208 511.55 511.3009 511.1181 510.9684 510.8069 510.6268 510.1991 511.118 510.9527 510.7491 510.5192 510.3456 510.0183 509.9163 509.7989 
535.9106 535.4657 535.2362 534.9695 534.7097 534.4503 534.1938 533.6122 533.3333 533.0304 532.6865 532.3232 531.9034 531.1181 530.7511 530.3633 529.9562 529.6189 529.2565 528.5419 528.2352 527.877 527.5671 527.2916 526.9538 526.4233 526.1566 525.9437 525.7447 525.4979 525.0696 524.7365 524.4441 524.1586 523.7786 523.3565 522.6662 522.3212 521.9834 521.5967 521.1829 520.8407 520.1531 519.8087 519.4696 519.0845 518.6701 518.3292 517.7185 517.4037 517.046 516.7409 516.4653 516.1283 515.6033 515.3463 515.0934 514.8015 514.4708 514.2153 513.699 513.4427 513.1838 512.9208 512.6763 512.3228 512.1418 511.9751 511.7774 511.5706 511.3914 511.1799 511.2201 510.9124 510.3847 510.0067 509.7723 509.2611 511.3009 511.1181 510.9684 510.8069 510.6268 510.1991 510.0639 509.9465 509.8145 509.7258 509.5884 509.4965 509.4255 509.3417 
535.2754 534.7676 534.5165 534.2588 533.9982 533.7426 533.4738 532.7845 532.5082 532.2165 531.8286 531.416 531.0652 530.3752 529.9749 529.5341 529.1335 528.7936 528.4481 527.756 527.4058 527.1063 526.8174 526.4835 526.2225 525.7045 525.4366 525.2217 525.0229 524.7758 524.351 524.0164 523.7233 523.4326 523.0811 522.7383 521.9678 521.5961 521.2569 520.912 520.5689 520.2243 519.5331 519.1938 518.7955 518.3888 518.0792 517.813 517.1238 516.7756 516.4845 516.1958 515.8684 515.5994 514.9874 514.7286 514.4636 514.2101 513.963 513.4459 513.1874 512.9291 512.6705 512.408 512.1635 511.7286 511.5226 511.3434 511.2069 511.0916 510.937 510.8067 510.3354 510.9124 510.3847 510.0067 509.7723 509.2611 509.3143 509.4251 509.5285 509.5541 509.3749 509.0175 508.9019 508.8209 508.727 508.6555 508.6936 509.0829 509.1298 509.0865 
534.5708 534.0554 533.73 533.4286 533.178 532.9263 532.6535 532.0401 531.729 531.3875 531.0018 530.5814 530.2383 529.5585 529.1556 528.709 528.3076 527.9697 527.6249 526.934 526.5798 526.2754 526.0278 525.7475 525.1367 524.8748 524.6677 524.5059 524.3054 524.0417 523.5204 523.2611 523.0071 522.7096 522.36 522.0142 521.3287 520.9858 520.641 520.2949 519.9472 519.6042 518.8376 518.4628 518.1232 517.8221 517.5467 517.197 516.5075 516.2286 515.925 515.6101 515.3341 514.9995 514.4794 514.1541 513.8401 513.6264 513.4399 512.9338 512.6748 512.4159 512.1569 511.8978 511.638 511.2057 510.9713 510.759 511.2069 511.0916 510.937 510.8067 510.3354 509.6592 508.7964 507.9076 507.5649 507.2081 507.1425 507.5038 508.0902 508.3536 508.1177 507.7817 507.666 507.592 507.5056 507.4305 507.5563 508.5478 508.7569 508.7246 
533.8505 533.3322 533.0707 532.8168 532.5172 532.1955 531.934 531.2467 530.9034 530.5557 530.2073 529.8655 529.5101 528.727 528.3224 527.9348 527.5624 527.1448 526.7988 526.1035 525.8193 525.518 525.1931 524.9341 524.5012 524.2648 523.9994 523.7319 523.5006 523.3166 522.7998 522.5442 522.2254 521.9172 521.6429 521.2927 520.6857 520.369 520.0245 519.6406 519.2269 518.8837 518.1996 517.8556 517.5658 517.2778 516.9238 516.5775 515.972 515.6476 515.3475 515.0631 514.7292 514.4691 513.8547 513.5361 513.2773 513.0833 512.8427 512.4077 512.1573 511.9037 512.1569 511.8978 511.638 511.2057 510.9713 510.759 510.535 510.3187 510.2273 509.7719 509.4132 508.9 508.0478 507.1101 506.7641 506.7752 506.7633 506.9135 507.3466 507.425 506.9929 506.8515 506.7823 506.7594 506.7404 506.6726 506.81 508.2383 508.3978 508.2411 
533.1305 532.6193 532.294 531.99 531.7475 531.4391 531.0284 530.4266 530.0696 529.7817 529.4592 529.038 528.6926 528.0091 527.6065 527.1689 526.7336 526.3192 525.9739 525.279 524.9893 524.7303 524.503 524.3181 523.7968 523.5369 523.2772 523.0174 522.7523 522.5049 522.0815 521.7483 521.4496 521.2053 520.9183 520.5847 519.9896 519.6386 519.2934 518.9496 518.6116 518.2739 517.58 517.3055 517.0076 516.6511 516.3063 515.9805 515.3807 515.0317 514.7365 514.4463 514.1219 513.8536 513.2775 512.9904 512.7325 513.0833 512.8427 512.4077 512.1573 511.9037 511.6515 511.4016 511.157 510.7118 510.5225 510.3088 510.0901 509.9199 509.7686 509.5525 509.3731 508.7482 507.8061 507.1276 506.7982 506.7817 506.7748 506.7645 506.9388 507.0996 506.8005 506.7752 506.7752 506.7752 506.774 506.7752 506.9774 508.0295 507.9305 507.6391 
532.4122 531.8163 531.5265 531.2778 530.9858 530.6313 530.2937 529.7012 529.3439 529.0577 528.738 528.3149 527.9717 527.2079 526.8357 526.4545 526.0178 525.5836 525.1576 524.525 524.3321 524.1236 523.8567 523.5947 523.0753 522.8157 522.556 522.2959 522.0372 521.7765 521.2527 520.9966 520.7384 520.4849 520.1996 519.863 519.2663 518.9196 518.5799 518.2358 517.9128 517.6441 516.965 516.6855 516.3882 516.0306 515.7092 515.4499 514.7653 514.4851 514.1833 513.8686 514.1219 513.8536 513.2775 512.9904 512.7325 512.4968 512.3088 511.7974 511.601 511.3831 511.1687 510.9671 510.7094 510.2206 510.0235 509.8498 509.6731 509.4901 509.2779 508.7207 508.4637 508.0677 507.5206 507.1027 506.9159 506.8123 506.7722 506.7708 506.8189 506.9071 506.8163 506.7748 506.7752 506.7744 506.7762 506.9166 507.2998 507.6217 507.3108 506.9412 
531.691 531.0915 530.8018 530.5561 530.2576 529.9297 529.6605 529.0508 528.7379 528.3923 528.0113 527.5939 527.2502 526.4874 526.1148 525.7355 525.2954 524.8812 524.5372 523.9161 523.6574 523.3925 523.1335 522.8738 522.3547 522.0956 521.8358 521.5759 521.3166 521.0566 520.538 520.2785 520.0197 519.7611 519.4754 519.1328 518.5197 518.2094 517.9121 517.6287 517.2832 516.9435 516.3546 516.0695 515.7719 515.4219 515.7092 515.4499 514.7653 514.4851 514.1833 513.8686 513.5897 512.9921 512.743 512.4877 512.2295 511.9646 511.7139 511.2953 511.0278 510.8163 510.6009 510.3305 510.115 509.7724 509.6028 509.3691 509.1238 508.918 508.6086 508.17 507.8599 507.6151 507.396 507.1086 506.9627 506.8243 506.7711 506.7729 506.8047 506.8625 506.8198 506.7746 506.7744 506.7793 506.9215 507.2296 507.313 506.9672 506.6073 506.2492 
530.9665 530.4476 530.1951 529.8816 529.5681 529.2915 528.955 528.3616 528.0118 527.6667 527.3271 526.9609 526.5394 525.7704 525.3922 525.0593 524.6826 524.2673 523.5771 523.2996 522.9841 522.6736 522.4189 522.1531 521.6348 521.3755 521.1158 520.8562 520.5969 520.3373 519.8186 519.5599 519.3001 518.9949 518.6758 518.4137 517.8018 517.5535 517.2502 516.9374 516.6578 516.9435 516.3546 516.0695 515.7719 515.4219 515.1077 514.828 514.2236 513.9041 513.5994 513.3239 512.9999 512.4921 512.2338 511.9753 511.7169 511.4596 511.1963 510.7626 510.5334 510.2639 509.9961 509.7614 509.5663 509.1186 509.0096 508.7848 508.5278 508.3999 508.2393 507.4397 507.3497 507.1572 506.9088 506.9576 506.8522 506.7932 506.7737 506.7722 506.8165 506.8445 506.6861 506.7767 506.7803 506.8978 507.1039 507.1909 506.694 506.3476 505.9815 505.5799 
530.3435 529.829 529.5767 529.2643 528.9501 528.6775 528.3294 527.7105 527.3989 527.0536 526.6746 526.2604 525.9063 525.1237 524.7891 524.3932 523.9875 523.6509 522.9627 522.6082 522.3181 522.0714 521.777 521.4435 520.9151 520.6561 520.3967 520.1372 519.8784 519.6191 519.1 518.8479 518.5295 518.2103 517.9624 517.7062 517.8018 517.5535 517.2502 516.9374 516.6578 516.3353 515.7394 515.455 515.1514 514.8386 514.5723 514.2202 513.6003 513.2979 512.9983 512.7483 512.4966 511.9804 511.7224 511.4639 511.206 510.9462 510.6882 510.2598 510.0199 509.7572 509.4999 509.2363 508.982 508.5535 508.3547 508.189 508.0703 507.9361 507.6118 507.053 507.0053 506.7749 506.6008 506.675 506.6887 506.7666 506.7761 506.7737 506.8179 506.8088 506.619 506.7726 506.8455 506.9595 506.9478 506.6827 506.0553 505.7436 505.3556 504.9778 
529.6359 529.2158 528.9554 528.644 528.3325 528.0599 527.7148 527.021 526.6749 526.3301 525.9901 525.6239 525.2027 524.5138 524.1052 523.7141 523.3812 523.0344 522.3448 521.9987 521.7055 521.4042 521.0863 520.8093 520.1924 519.9381 519.6782 519.42 519.1567 518.8863 519.1 518.8479 518.5295 518.2103 517.9624 517.7062 517.1248 516.8387 516.5861 516.2864 515.9651 515.7155 515.1252 514.8402 514.5381 514.2216 513.9504 513.6057 513.007 512.7581 512.5043 512.2451 511.9851 511.4691 511.2114 510.9531 510.6933 510.4398 510.2157 509.7679 509.5044 509.2469 508.989 508.7308 508.4662 508.0283 507.8435 507.6476 507.4322 507.0994 506.718 506.5112 506.2485 506.1706 506.2349 506.2056 506.2277 506.5847 506.6576 506.674 506.6807 506.621 506.4872 506.6969 506.7398 506.6755 506.4184 506.0532 505.4575 505.125 504.7814 504.4449 
529.0198 528.6028 528.2747 527.9689 527.7208 527.4435 527.098 526.4076 526.0639 525.7215 525.3381 524.9238 524.5853 523.8187 523.4449 523.1046 522.7567 522.3928 521.6972 521.379 521.0264 520.7275 520.4426 520.0894 519.4789 519.9381 519.6782 519.42 519.1567 518.8863 518.3829 518.1296 517.8162 517.4977 517.2433 516.9849 516.4734 516.2225 515.9166 515.6073 515.3594 515.1036 514.5121 514.226 513.9248 513.6068 513.339 513.0203 512.48 512.2226 511.9617 511.7128 511.4767 510.9583 510.7006 510.4426 510.1773 509.9522 509.7777 509.2518 508.9952 508.7351 508.4726 508.225 507.9945 507.528 507.2948 506.9953 506.6204 506.2858 506.103 505.6113 505.4552 505.3812 505.4387 505.5181 505.4835 505.8671 505.8605 506.028 506.2986 506.3819 506.4052 506.4347 506.3087 506.079 505.7944 505.4966 504.8553 504.5341 504.2289 503.8815 
528.3973 527.978 527.7281 527.4171 527.0978 526.8264 526.4817 525.7928 525.4483 525.0509 524.6498 524.3155 523.955 523.1766 522.8381 522.4421 522.0375 521.6985 521.0115 520.6597 521.0264 520.7275 520.4426 520.0894 519.4789 519.2188 518.962 518.7011 518.4009 518.086 517.6713 517.4128 517.0968 516.7862 516.5505 516.2889 515.7664 515.5165 515.2604 515.0071 514.7491 514.4894 513.8903 513.6146 513.3109 512.9864 512.7369 512.1597 511.8834 511.63 511.3666 511.1311 510.937 510.449 510.1902 509.9323 509.6703 509.4286 509.2234 508.7441 508.4795 508.2422 508.0041 507.7597 507.5586 507.0869 506.7779 506.4066 506.0826 505.8323 505.5391 504.9808 504.8121 504.6605 504.5703 504.5619 504.3793 504.6793 504.945 505.4692 506.0044 506.1934 506.0981 505.9914 505.7704 505.5005 505.2401 504.9737 504.3678 503.8073 503.1924 502.548 
527.777 527.3346 527.1137 526.797 526.4814 526.2109 525.8668 525.1725 524.7658 524.3713 524.0332 523.6725 522.8946 522.5569 522.1569 522.4421 522.0375 521.6985 521.0115 520.6597 520.3698 520.0718 519.7122 519.3803 518.7798 518.4994 518.2405 517.9324 517.6119 517.3707 516.9283 516.686 516.3898 516.1157 515.9255 515.6552 515.1182 514.8906 514.6256 514.367 514.1103 513.8426 513.251 513.0032 512.7081 512.4064 512.1533 511.6455 511.3872 511.1277 510.8705 510.6048 510.3586 509.9464 509.6812 509.4218 509.1624 508.9095 508.6842 508.2338 507.9951 507.7924 507.5674 507.3085 507.0895 506.6101 506.2455 505.9391 505.7075 505.4306 505.0771 504.4319 504.1603 503.9138 503.6608 503.3372 502.9803 503.1712 503.6951 504.7649 505.7271 505.8743 505.6831 505.5578 505.3189 505.077 504.7518 504.1665 502.9207 502.0833 501.3428 500.7649 
527.1802 526.75 526.4902 526.1895 525.8776 525.5966 525.2527 524.4808 524.1062 524.3713 524.0332 523.6725 522.8946 522.5569 522.1569 521.769 521.4319 521.0726 520.3853 520.0418 519.6925 519.3431 518.9999 518.6515 518.0405 517.7787 517.4599 517.1559 516.9087 516.6488 516.1173 515.9302 515.7256 515.4612 515.1953 514.9352 514.4195 514.1573 513.8989 513.6387 513.3856 513.1517 512.6429 512.4055 512.1718 511.9052 511.6192 511.1021 510.8687 510.624 510.3635 510.1029 509.8549 509.3956 509.1616 508.9196 508.6525 508.4244 508.2484 507.7224 507.5423 507.3262 507.069 506.862 506.6505 506.0659 505.8175 505.57 505.2966 505.0062 504.6908 503.8762 503.5591 503.1765 502.807 502.4143 501.8981 501.6848 501.9989 503.1759 504.8696 505.7999 505.4994 505.1412 504.608 504.0856 503.4926 502.6074 500.7992 500.1337 499.7313 499.6383 
526.6495 526.1274 525.8702 525.6147 525.8776 525.5966 525.2527 524.4808 524.1062 523.7192 523.3171 522.9786 522.2045 521.8404 521.508 521.1644 520.7794 520.369 519.6652 519.3153 518.972 518.6276 518.2838 517.9371 517.3083 516.9893 516.7009 516.4545 516.1949 515.9358 515.4112 515.2194 515.007 514.7363 514.4829 514.2503 513.7356 513.4753 513.2155 512.9517 512.7146 512.5425 512.0278 511.8146 511.5959 511.3068 510.9944 510.4751 510.2964 510.0814 509.8149 509.5577 509.2973 508.7649 508.5857 508.3712 508.0956 507.866 507.6882 507.1662 506.946 506.6999 506.4812 506.2888 505.9782 505.4961 505.2577 505.0048 504.7135 504.3597 504.0082 503.2582 502.9077 502.4848 502.0502 501.6052 501.15 500.6534 500.7911 501.3451 502.4261 503.6224 503.9643 503.6068 503.0775 502.5111 501.7905 500.8358 499.1083 498.4586 498.0006 497.7596 
526.6495 526.1274 525.8702 525.6147 525.3185 524.9666 524.6151 523.8329 523.4345 523.0503 522.7156 522.3391 521.5804 521.2261 520.8777 520.4969 520.0997 519.7642 518.9645 518.5923 518.2557 517.912 517.5678 517.2236 516.5238 516.2478 515.9835 515.7049 515.4473 515.1873 514.6893 514.4833 514.2682 514.0316 513.8105 513.6087 513.0922 512.8552 512.6139 512.348 512.109 511.9305 511.4203 511.1547 510.9097 510.6805 510.4268 509.9091 509.6932 509.4584 509.1936 508.9301 508.6791 508.2027 507.9764 507.7701 507.5343 507.2844 507.0693 506.5999 506.3283 506.0905 505.8899 505.6457 505.3514 504.9408 504.6771 504.3961 504.1036 503.7766 503.3392 502.6977 502.349 501.9385 501.4916 501.0101 500.5388 499.8972 499.9194 500.0338 500.218 500.6236 501.4384 501.5926 501.2503 500.5295 499.6859 498.7553 497.2677 496.6547 496.0758 495.4816 
526.0273 525.5162 525.2531 524.9379 524.583 524.2386 523.8965 523.1541 522.7684 522.4276 522.0579 521.652 520.954 520.5433 520.17 519.8243 519.4731 519.1162 518.2667 517.9109 517.5554 517.1948 516.853 516.5085 515.8173 515.5182 515.2114 514.9105 514.6565 514.3956 513.9581 513.7194 513.4957 513.3421 513.1623 512.9247 512.4017 512.2113 512.007 511.736 511.4964 511.0698 510.8082 510.5424 510.3332 510.1459 509.883 509.3662 509.1035 508.8354 508.5969 508.3701 508.1134 507.6965 507.4428 507.2084 506.9781 506.7233 506.5118 506.0967 505.8692 505.6642 505.4222 505.1664 504.9632 504.5359 504.2992 503.9839 503.6516 503.3333 502.9627 502.2873 501.9261 501.5546 501.093 500.5751 499.5615 499.2716 499.2196 499.1234 498.9228 498.8203 498.687 498.633 498.2033 497.5 496.804 496.1354 495.1621 494.9558 494.8054 494.6186 
525.4152 524.8692 524.5567 524.2133 523.8669 523.5225 522.834 522.501 522.1088 521.7208 521.377 521.0211 520.2662 519.9099 519.5641 519.1707 518.7684 518.3929 517.6226 517.2841 516.8803 516.4729 516.138 515.7943 515.11 514.7536 514.4366 514.1697 513.9096 513.649 513.2405 513.0301 512.8264 512.6589 512.4944 512.3208 511.7979 511.6022 511.3943 511.1241 510.8841 510.4581 510.1963 509.931 509.7179 509.5265 509.2641 508.7471 508.4815 508.2481 508.0417 507.8359 507.6149 507.1333 506.8841 506.6447 506.4075 506.1692 506.0068 505.5891 505.35 505.138 504.9297 504.7167 504.4954 504.0646 503.8682 503.596 503.2377 502.8852 502.5507 501.8773 501.5226 501.156 500.6757 500.1054 499.073 498.7166 498.4845 498.1651 497.568 496.7479 495.568 495.3419 495.1897 495.0288 494.8758 494.7296 494.5522 494.5763 494.5751 494.5768 
524.7549 524.0679 523.7806 523.4891 523.1549 522.8093 522.1183 521.7739 521.4345 521.0995 520.7324 520.322 519.6122 519.2804 518.8718 518.4732 518.123 517.7199 516.9495 516.5662 516.178 515.7867 515.4239 515.0765 514.3524 514.035 513.6945 513.3702 513.1224 512.904 512.5682 512.4014 512.2348 512.0452 511.8401 511.6638 511.1885 510.9896 510.7826 510.5125 510.2722 509.8464 509.5845 509.3195 509.1059 508.9147 508.6527 508.1282 507.9047 507.7024 507.4652 507.2099 506.996 506.5238 506.2939 506.1218 505.9127 505.6667 505.4905 505.0609 504.851 504.6274 504.4254 504.2507 504.0515 503.6356 503.401 503.1131 502.7822 502.4852 502.1416 501.4509 501.1289 500.7267 500.2112 499.6472 498.5636 498.1119 497.6263 497.1667 496.6028 495.6797 494.5097 494.5051 494.5711 494.5755 494.5751 494.5751 494.5751 494.5753 494.5677 494.5719 
