NCOLS 166
NROWS 25
XLLCORNER 615583.99
YLLCORNER 4621845.4
CELLSIZE 10
NODATA_VALUE -9999
1435.944 1436.058 1436.228 1436.404 1436.619 1437.004 1437.165 1437.306 1437.658 1437.865 1438.015 1438.355 1438.576 1438.707 1438.789 1438.99 1439.118 1439.2 1439.447 1439.529 1439.7 1440.059 1441.28 1441.976 1442.667 1444.238 1445.097 1445.94 1447.541 1448.404 1449.265 1450.114 1451.507 1452.002 1452.306 1452.64 1452.732 1452.813 1453.303 1453.613 1453.922 1454.206 1454.962 1455.315 1455.624 1456.158 1456.502 1456.861 1457.121 1457.687 1458.008 1458.432 1459.168 1459.559 1459.936 1460.762 1461.169 1461.635 1462.091 1462.933 1463.348 1463.786 1464.59 1465.068 1465.572 1466.813 1467.586 1468.456 1469.346 1471.058 1471.882 1472.631 1474.037 1474.539 1474.867 1475.165 1475.462 1475.877 1476.348 1477.408 1477.851 1478.16 1478.634 1478.859 1479.088 1479.646 1479.868 1480.08 1480.221 1480.878 1481.089 1481.312 1481.73 1481.85 1481.932 1481.969 1481.916 1481.916 1481.776 1481.333 1480.733 1479.407 1474.656 1470.436 1466.478 1462.667 1462.118 1461.602 1461.113 1460.502 1460.319 1460.325 1460.203 1460.243 1460.405 1460.579 1461.085 1461.364 1461.85 1463.209 1464.003 1464.643 1465.852 1466.215 1466.54 1466.901 1467.48 1467.569 1467.626 1467.717 1467.665 1467.621 1467.388 1467.22 1466.897 1466.621 1466.089 1465.1 1464.787 1464.509 1464.401 1464.354 1464.218 1464.176 1464.164 1464.013 1463.669 1463.466 1463.393 1463.183 1463.154 1462.998 1462.834 1462.756 1462.678 1462.602 1462.432 1462.367 1462.36 1462.362 1462.317 1462.238 1462.315 1462.436 1462.563 1462.759 
1435.884 1435.986 1436.245 1436.4 1436.567 1437.124 1437.342 1437.529 1437.842 1437.969 1438.131 1438.355 1438.576 1438.762 1438.905 1439.163 1439.261 1439.414 1439.609 1439.716 1439.816 1440.175 1441.248 1441.903 1442.67 1444.11 1444.888 1445.665 1447.367 1448.192 1448.982 1449.838 1451.091 1451.551 1451.935 1452.102 1452.134 1452.281 1452.566 1453.199 1453.525 1453.895 1454.67 1455.045 1455.354 1455.907 1456.185 1456.524 1456.878 1457.37 1457.751 1458.14 1458.914 1459.311 1459.74 1460.641 1461.083 1461.584 1462.126 1463.142 1463.588 1463.99 1465.042 1465.523 1466.032 1467.182 1467.871 1468.733 1469.494 1471.176 1471.998 1472.683 1473.91 1474.479 1474.867 1475.165 1475.715 1476.064 1476.492 1477.559 1478.061 1478.38 1478.998 1479.282 1479.505 1479.95 1480.21 1480.506 1480.735 1481.216 1481.509 1481.733 1482.154 1482.269 1482.335 1482.413 1482.294 1482.219 1482.14 1481.446 1480.624 1479.642 1475.806 1471.694 1467.156 1464.277 1462.184 1461.645 1461.345 1460.877 1460.727 1460.674 1460.578 1460.644 1460.752 1460.944 1461.446 1461.732 1462.172 1463.535 1464.229 1464.922 1466.11 1466.554 1467.004 1467.42 1467.865 1468.062 1468.144 1467.937 1467.997 1467.844 1467.498 1467.209 1466.821 1466.385 1465.541 1465.1 1464.787 1464.184 1464.171 1464.161 1464.121 1464.039 1463.943 1463.722 1463.393 1463.28 1463.277 1463.138 1463.084 1463.083 1462.933 1462.855 1462.775 1462.696 1462.525 1462.476 1462.552 1462.452 1462.472 1462.527 1462.507 1462.91 1463.224 1463.401 
1435.806 1435.854 1436.257 1436.416 1436.65 1437.122 1437.417 1437.732 1438.111 1438.232 1438.383 1438.528 1438.736 1438.762 1439.25 1439.463 1439.598 1439.723 1439.8 1439.806 1439.939 1440.306 1441.266 1441.924 1442.685 1444.023 1444.778 1445.48 1446.317 1447.872 1448.582 1449.368 1450.558 1450.93 1451.25 1451.409 1451.57 1451.942 1452.262 1452.855 1453.114 1453.497 1454.377 1454.74 1455.043 1455.618 1455.89 1456.264 1456.555 1457.098 1457.448 1457.786 1458.625 1459.02 1459.485 1460.469 1460.972 1461.558 1462.139 1463.163 1463.658 1464.156 1465.283 1465.863 1466.45 1467.557 1468.194 1468.878 1469.627 1471.31 1472.113 1472.823 1474.07 1474.654 1475.173 1475.471 1475.715 1476.064 1476.789 1477.679 1478.214 1478.67 1479.313 1479.59 1479.818 1480.114 1480.708 1480.927 1481.149 1481.709 1481.929 1482.15 1482.499 1482.71 1482.848 1482.933 1482.722 1482.712 1482.59 1481.524 1480.944 1480.011 1477.225 1473.569 1468.389 1464.77 1462.269 1461.778 1461.489 1461.215 1461.08 1460.996 1460.889 1461 1461.131 1461.253 1461.778 1462.108 1462.56 1463.786 1464.374 1465.071 1466.436 1466.943 1467.432 1467.799 1468.348 1468.496 1468.539 1468.4 1468.4 1468.289 1467.554 1467.121 1466.45 1465.783 1464.78 1464.496 1464.252 1464.184 1464.171 1464.054 1463.951 1463.826 1463.74 1463.612 1463.387 1463.36 1463.207 1463.266 1463.143 1462.997 1462.984 1462.883 1462.877 1462.801 1462.707 1462.76 1462.686 1462.647 1462.762 1462.758 1462.863 1463.515 1463.986 1464.077 
1435.639 1435.804 1436.235 1436.419 1436.648 1437.219 1437.589 1437.884 1438.095 1438.683 1438.816 1438.969 1439.058 1439.198 1439.25 1439.463 1439.949 1439.956 1439.958 1440.032 1440.286 1440.652 1441.525 1442.013 1442.615 1443.996 1444.689 1445.382 1446.07 1447.592 1448.256 1448.805 1450.067 1450.404 1450.629 1450.863 1451.162 1451.56 1451.875 1452.488 1452.792 1453.172 1454.07 1454.449 1454.819 1455.347 1455.637 1455.915 1456.211 1456.824 1457.076 1457.382 1458.224 1458.679 1459.189 1460.209 1460.737 1461.416 1462.042 1463.08 1463.625 1464.163 1465.453 1466.058 1466.611 1467.746 1468.396 1469.078 1469.917 1471.552 1472.331 1473.095 1474.584 1475.316 1475.849 1476.269 1476.442 1476.515 1476.789 1477.679 1478.527 1478.901 1479.628 1479.908 1480.142 1480.429 1481.047 1481.35 1481.656 1482.119 1482.343 1482.569 1482.978 1483.119 1483.268 1483.429 1483.241 1483.192 1482.824 1482.005 1481.346 1480.547 1478.231 1475.153 1469.692 1465.15 1462.375 1461.967 1461.657 1461.423 1461.216 1461.143 1461.31 1461.371 1461.419 1461.526 1462.031 1462.364 1462.81 1464.032 1464.582 1465.272 1466.714 1467.319 1467.835 1468.346 1468.837 1469.004 1469.028 1468.884 1468.656 1468.466 1468.104 1466.798 1465.986 1465.076 1464.126 1464.145 1464.156 1464.168 1464.131 1464.054 1464.043 1463.709 1463.587 1463.594 1463.461 1463.379 1463.314 1463.24 1463.191 1463.192 1463.119 1462.953 1462.885 1462.882 1462.885 1462.865 1462.784 1462.757 1462.803 1462.957 1463.178 1463.855 1464.291 1464.435 
1435.547 1435.694 1436.166 1436.429 1436.656 1437.262 1437.57 1437.907 1438.302 1439.089 1439.296 1439.421 1439.538 1439.553 1439.567 1439.975 1439.949 1439.956 1440.435 1440.703 1440.793 1441.075 1441.673 1442.203 1442.657 1443.854 1444.492 1445.187 1445.886 1447.144 1447.768 1448.389 1449.391 1449.715 1450.095 1450.457 1450.725 1451.059 1451.442 1452.091 1452.493 1452.952 1453.8 1454.228 1454.541 1455.159 1455.45 1455.669 1455.863 1456.38 1456.682 1456.999 1457.708 1458.236 1458.831 1459.381 1460.509 1461.169 1461.839 1462.94 1463.481 1464.059 1465.414 1466.036 1466.685 1467.255 1468.534 1469.242 1470.19 1471.878 1472.72 1473.507 1475.062 1475.804 1476.396 1476.729 1476.955 1477.067 1477.343 1478.04 1478.527 1479.222 1479.878 1480.254 1480.547 1480.774 1481.44 1481.668 1481.967 1482.496 1482.675 1482.979 1483.383 1483.589 1483.875 1483.964 1483.899 1483.692 1483.373 1482.815 1482.104 1481.233 1478.803 1475.924 1470.958 1465.864 1462.612 1462.252 1461.959 1461.537 1461.394 1461.386 1461.547 1461.563 1461.628 1461.761 1462.2 1462.51 1463.065 1464.343 1464.993 1465.719 1466.355 1467.773 1468.416 1468.96 1469.485 1469.599 1469.64 1469.323 1469.009 1468.7 1468.217 1466.54 1465.147 1464.23 1464.154 1464.123 1464.063 1464.014 1463.925 1463.85 1463.792 1463.709 1463.707 1463.683 1463.552 1463.504 1463.494 1463.294 1463.31 1463.303 1463.229 1463.171 1463.098 1463.091 1463.045 1462.979 1462.978 1463.007 1463.119 1463.261 1463.337 1463.95 1464.326 1464.537 
1435.447 1435.632 1436.117 1436.393 1436.661 1437.306 1437.634 1438.026 1438.408 1439.308 1439.729 1439.857 1439.795 1439.729 1439.801 1440.094 1440.21 1440.367 1440.435 1440.703 1441.038 1441.258 1441.905 1442.299 1442.772 1443.823 1444.35 1444.898 1445.582 1446.817 1447.358 1447.898 1448.859 1449.289 1449.591 1450.104 1450.419 1450.738 1451.116 1451.986 1452.366 1452.765 1453.549 1453.952 1454.322 1454.577 1455.082 1455.309 1455.466 1455.94 1456.197 1456.45 1457.259 1457.737 1458.368 1458.91 1460.216 1460.877 1461.525 1462.714 1463.302 1463.921 1465.175 1465.855 1466.552 1467.206 1468.601 1469.419 1470.244 1472.114 1472.972 1473.813 1475.396 1476.089 1476.633 1477.001 1477.472 1477.641 1477.854 1478.567 1478.872 1479.222 1479.878 1480.562 1480.862 1481.17 1481.775 1482.085 1482.38 1482.844 1483.1 1483.395 1483.907 1484.196 1484.405 1484.558 1484.694 1484.605 1484.283 1483.628 1482.834 1482.109 1479.287 1476.528 1472.151 1467.087 1462.921 1462.539 1462.1 1461.759 1461.71 1461.718 1461.654 1461.725 1461.763 1462.035 1462.411 1462.774 1463.391 1464.631 1465.439 1466.187 1466.875 1468.427 1469.093 1469.671 1470.276 1470.405 1470.387 1469.906 1469.438 1469.038 1468.396 1466.114 1464.345 1464.145 1464.03 1463.96 1463.95 1463.939 1463.85 1463.807 1463.882 1463.688 1463.707 1463.683 1463.612 1463.602 1463.544 1463.601 1463.562 1463.634 1463.636 1463.517 1463.503 1463.419 1463.252 1463.164 1463.092 1463.173 1463.221 1463.383 1463.528 1464.045 1464.261 1464.699 
1435.414 1435.65 1436.072 1436.339 1436.618 1437.365 1437.715 1438.104 1438.485 1439.276 1439.583 1439.803 1439.858 1439.786 1439.803 1440.336 1440.487 1440.588 1440.595 1440.94 1441.038 1441.198 1441.938 1442.323 1442.853 1443.722 1444.239 1444.712 1445.308 1446.451 1447.046 1447.509 1448.403 1448.792 1449.177 1449.497 1450.109 1450.441 1450.898 1451.848 1452.275 1452.587 1453.355 1453.717 1454.031 1454.355 1454.725 1454.909 1455.074 1455.418 1455.624 1455.922 1456.757 1457.233 1457.8 1458.382 1459.84 1460.532 1461.196 1462.388 1463.06 1463.677 1464.834 1465.544 1466.241 1467.014 1468.609 1469.497 1470.365 1472.395 1473.325 1474.188 1475.752 1476.361 1476.776 1477.251 1477.776 1478.05 1478.294 1479 1479.343 1479.553 1480.212 1480.562 1480.862 1481.479 1482.095 1482.379 1482.6 1483.214 1483.498 1483.72 1483.933 1484.61 1484.838 1485.14 1485.519 1485.48 1485.378 1484.608 1483.963 1482.949 1481.932 1477.547 1473.918 1468.607 1463.158 1462.646 1462.343 1462.046 1461.9 1461.787 1461.893 1461.819 1462.02 1462.146 1462.643 1463.02 1463.636 1464.996 1465.86 1466.717 1467.526 1469.235 1469.939 1470.552 1471.254 1471.466 1471.438 1470.63 1470.003 1469.467 1468.67 1466.198 1464.685 1464.211 1464.047 1463.96 1463.882 1463.927 1463.885 1463.889 1463.871 1463.787 1463.765 1463.634 1463.612 1463.602 1463.948 1464.051 1464.059 1464.028 1463.944 1463.896 1463.805 1463.723 1463.609 1463.587 1463.499 1463.405 1463.481 1463.491 1463.635 1464.038 1464.276 1464.803 
1435.363 1435.554 1435.992 1436.304 1436.564 1437.309 1437.714 1438.068 1438.478 1439.281 1439.474 1439.645 1439.857 1439.782 1439.804 1440.05 1440.465 1440.446 1440.505 1440.774 1440.952 1441.198 1441.938 1442.304 1442.74 1443.133 1444.145 1444.6 1445.051 1446.118 1446.637 1447.097 1447.997 1448.384 1448.776 1449.169 1449.839 1450.232 1450.618 1451.513 1451.895 1452.273 1453.095 1453.556 1453.906 1454.021 1454.375 1454.392 1454.496 1454.786 1454.945 1455.272 1456.032 1456.598 1457.208 1457.877 1459.381 1460.068 1460.76 1462.077 1462.75 1463.317 1464.547 1465.265 1466.011 1466.815 1468.533 1469.482 1470.479 1472.572 1473.585 1474.5 1476.043 1476.618 1476.958 1477.419 1478.052 1478.424 1478.734 1479.282 1479.619 1479.865 1480.242 1480.872 1481.177 1481.479 1482.408 1482.697 1482.934 1483.519 1483.827 1484.119 1484.351 1485.042 1485.362 1485.745 1486.324 1486.643 1486.618 1485.85 1485.095 1484.018 1482.526 1478.694 1475.768 1470.716 1463.884 1463.062 1462.653 1462.162 1461.95 1461.942 1461.97 1462.03 1462.092 1462.278 1462.877 1463.295 1463.916 1465.6 1466.59 1467.483 1468.35 1470.204 1470.927 1471.525 1472.31 1472.468 1472.438 1471.556 1470.945 1470.104 1469.082 1466.453 1464.857 1464.22 1464.04 1463.965 1463.918 1463.893 1463.886 1463.874 1463.811 1463.811 1463.83 1463.838 1463.785 1463.864 1463.948 1464.444 1464.638 1464.513 1464.396 1464.273 1464.157 1464.068 1463.986 1463.887 1463.81 1463.727 1463.638 1463.792 1463.869 1464.085 1464.31 1464.989 
1435.249 1435.395 1435.931 1436.223 1436.574 1436.875 1437.655 1437.969 1438.438 1439.16 1439.392 1439.657 1439.877 1439.798 1439.769 1439.957 1440.144 1440.142 1440.14 1440.272 1440.479 1440.834 1441.826 1442.304 1442.74 1443.023 1443.934 1444.398 1444.852 1445.778 1446.215 1446.607 1447.536 1448.016 1448.466 1448.782 1449.616 1449.944 1450.404 1451.232 1451.703 1452.159 1452.947 1453.325 1453.626 1453.795 1454.005 1454.045 1453.989 1454.101 1454.114 1454.388 1455.276 1455.907 1456.531 1457.208 1458.825 1459.566 1460.314 1461.807 1462.444 1462.974 1464.26 1464.993 1465.769 1466.57 1468.472 1469.422 1470.505 1472.628 1473.698 1474.609 1475.596 1476.816 1477.135 1477.528 1478.329 1478.613 1478.918 1479.548 1479.842 1480.199 1480.543 1481.188 1481.492 1481.812 1482.408 1482.697 1483.335 1483.834 1484.119 1484.354 1484.653 1485.279 1485.676 1486.134 1487.064 1487.577 1488.095 1487.126 1486.113 1485.245 1484.134 1479.938 1477.069 1472.835 1464.925 1463.411 1462.954 1462.241 1462.042 1462.062 1462.07 1462.103 1462.247 1462.463 1463.208 1463.683 1464.298 1466.341 1467.393 1468.405 1469.466 1471.376 1472.095 1472.748 1473.57 1473.668 1473.579 1473.22 1471.777 1470.928 1469.742 1466.786 1465.222 1464.351 1464.069 1464.017 1464.023 1463.998 1463.932 1463.93 1463.951 1463.964 1464.015 1464.032 1464.21 1464.29 1464.394 1464.444 1464.638 1466.405 1466.14 1465.527 1465.205 1465.014 1464.521 1464.277 1464.249 1464.073 1463.893 1463.887 1463.883 1464.062 1464.385 1465.374 
1435.161 1435.362 1435.857 1436.137 1436.531 1436.842 1437.574 1437.93 1438.311 1439.073 1439.306 1439.616 1439.918 1439.813 1439.634 1439.712 1439.656 1439.662 1439.663 1439.721 1439.963 1440.471 1441.694 1442.169 1442.563 1443.023 1443.934 1444.192 1444.572 1445.448 1445.844 1446.309 1447.243 1447.713 1448.167 1448.566 1449.346 1449.733 1450.119 1451.083 1451.613 1452.069 1452.86 1453.213 1453.419 1453.441 1453.494 1453.588 1453.589 1453.307 1453.366 1453.558 1453.919 1455.129 1455.835 1456.646 1458.336 1459.156 1459.922 1461.479 1462.188 1462.761 1463.316 1464.646 1465.485 1466.326 1468.237 1469.226 1470.302 1472.674 1473.747 1474.738 1475.719 1477.022 1477.37 1477.655 1478.488 1478.829 1479.132 1479.827 1480.144 1480.556 1480.801 1481.513 1481.839 1482.189 1482.711 1483.029 1483.335 1483.834 1484.451 1484.74 1485.043 1485.65 1485.982 1486.43 1487.498 1488.055 1488.577 1488.144 1487.205 1486.588 1485.706 1481.602 1478.757 1475.388 1466.157 1463.741 1463.064 1462.345 1462.15 1462.16 1462.079 1462.378 1462.543 1462.897 1463.634 1464.117 1464.94 1465.979 1468.243 1469.427 1470.627 1472.658 1473.423 1474.053 1474.826 1475.002 1474.909 1474.311 1472.58 1471.548 1470.315 1467.395 1465.914 1464.89 1464.078 1464.067 1464.054 1463.989 1464.159 1464.241 1464.39 1464.587 1464.636 1464.735 1465.2 1465.595 1465.934 1466.318 1466.547 1466.405 1466.14 1467.707 1467.278 1466.894 1466.117 1465.72 1465.33 1464.755 1464.184 1464.106 1464.099 1464.186 1464.72 1466.08 
1435.08 1435.315 1435.75 1436.01 1436.365 1436.722 1437.469 1437.772 1438.114 1438.9 1439.18 1439.532 1439.783 1439.567 1439.374 1439.35 1439.333 1439.363 1439.392 1439.646 1439.921 1440.435 1441.528 1441.982 1442.454 1442.921 1443.751 1444.192 1444.38 1445.259 1445.641 1446.017 1446.951 1447.383 1447.773 1448.237 1449.144 1449.55 1450.011 1450.881 1451.419 1451.875 1452.274 1452.854 1452.928 1453.013 1452.99 1452.865 1452.804 1452.532 1452.541 1452.733 1453.093 1454.411 1455.125 1455.972 1457.871 1458.702 1459.53 1461.058 1461.765 1462.438 1463.029 1464.31 1465.147 1466.041 1467.901 1468.94 1470.067 1472.557 1473.688 1474.759 1475.74 1477.096 1477.484 1477.854 1478.589 1479.013 1479.346 1480.111 1480.483 1480.796 1481.124 1481.87 1482.196 1482.45 1483.05 1483.337 1483.623 1484.149 1484.451 1484.74 1485.128 1485.775 1486.159 1486.536 1487.485 1488.01 1488.461 1488.901 1488.88 1488.7 1487.754 1484.479 1481.618 1477.949 1468 1464.576 1463.291 1462.546 1462.246 1462.187 1462.239 1462.724 1463.146 1463.513 1464.218 1464.877 1465.744 1466.849 1469.284 1470.567 1471.843 1473.984 1474.684 1475.233 1475.781 1475.808 1475.652 1475.011 1473.219 1472.115 1470.971 1468.52 1467.192 1465.916 1464.668 1464.64 1464.74 1464.826 1465.176 1465.473 1465.8 1466.505 1466.743 1467.03 1467.703 1468.109 1468.543 1468.832 1468.922 1468.756 1468.479 1467.707 1467.278 1469.293 1468.112 1467.545 1466.922 1466.356 1465.095 1464.67 1464.568 1465.642 1466.574 1467.102 
1434.9 1435.129 1435.734 1436.043 1436.297 1436.636 1437.3 1437.579 1437.92 1438.601 1438.938 1439.254 1439.251 1439.119 1439.053 1439.046 1439.067 1439.172 1439.225 1439.72 1440.061 1440.439 1441.349 1441.806 1442.25 1442.712 1443.6 1443.979 1444.38 1445.259 1445.397 1445.706 1446.155 1447.072 1447.47 1447.942 1448.804 1449.32 1449.713 1450.756 1451.191 1451.578 1451.973 1452.447 1452.5 1452.44 1452.194 1452.134 1452.071 1451.904 1451.863 1451.982 1452.347 1453.724 1454.501 1455.348 1457.261 1458.213 1459.051 1460.602 1461.32 1461.954 1462.636 1463.907 1464.67 1465.601 1467.631 1468.662 1469.823 1472.371 1473.579 1474.673 1475.654 1477.088 1477.569 1478.038 1478.74 1479.12 1479.509 1480.359 1480.732 1481.117 1481.504 1482.213 1482.463 1482.833 1483.419 1483.63 1483.853 1484.138 1484.701 1484.847 1485.128 1485.832 1486.15 1486.536 1487.449 1487.907 1488.351 1488.679 1489.288 1489.419 1489.393 1488.491 1485.871 1480.375 1469.945 1465.496 1462.852 1462.266 1462.18 1462.181 1462.245 1463.194 1463.687 1464.115 1465.216 1465.919 1466.843 1467.895 1470.369 1471.731 1473.027 1475.256 1476.008 1476.395 1476.738 1476.663 1476.47 1475.947 1474.146 1473.038 1471.869 1469.969 1469.06 1467.985 1466.763 1466.695 1466.962 1467.145 1467.681 1468.081 1468.437 1469.188 1469.582 1470.059 1471.029 1471.486 1471.863 1472.124 1472.229 1471.992 1471.619 1470.593 1469.995 1469.293 1471.446 1469.709 1468.769 1468.084 1466.978 1466.509 1466.27 1467.628 1467.987 1468.162 
1434.771 1435.068 1435.678 1435.968 1436.248 1436.498 1437.087 1437.367 1437.728 1438.327 1438.531 1438.669 1438.711 1438.723 1438.745 1438.817 1438.976 1439.112 1439.135 1439.63 1439.939 1440.335 1440.772 1441.646 1442.056 1442.519 1443.289 1443.679 1444.134 1444.972 1445.397 1445.706 1445.754 1446.674 1447.08 1447.607 1448.428 1448.827 1449.3 1450.338 1450.808 1451.262 1451.589 1451.972 1451.878 1451.81 1451.641 1451.483 1451.34 1451.371 1451.471 1451.626 1451.847 1453.125 1453.983 1454.833 1456.724 1457.725 1458.631 1460.238 1460.93 1461.598 1462.237 1463.583 1464.31 1465.179 1467.316 1468.403 1469.614 1472.124 1473.367 1474.537 1475.47 1476.983 1477.543 1477.983 1478.832 1479.243 1479.661 1480.165 1481.074 1481.474 1481.852 1482.563 1482.891 1483.181 1483.723 1483.945 1484.173 1484.393 1484.884 1485.037 1485.254 1485.832 1486.15 1486.548 1487.403 1487.769 1488.155 1488.557 1489.182 1489.406 1489.578 1490.068 1488.074 1481.77 1470.86 1466.009 1463.001 1462.194 1462.186 1462.19 1462.33 1463.739 1464.384 1465.029 1466.341 1466.97 1467.925 1469.038 1471.534 1472.912 1474.207 1476.447 1477.057 1477.458 1477.886 1477.844 1477.464 1476.895 1474.984 1473.619 1472.832 1471.688 1471.148 1470.689 1470.196 1470.126 1470.084 1470.249 1470.792 1471.244 1471.651 1472.519 1472.983 1473.468 1474.08 1475.174 1475.465 1475.664 1475.584 1475.38 1474.971 1473.852 1473.041 1472.213 1471.446 1469.709 1471.336 1470.518 1469.5 1469.135 1468.964 1469.19 1469.265 1469.281 
1434.764 1435.015 1435.328 1435.816 1436.076 1436.363 1436.889 1437.178 1437.474 1437.966 1438.076 1438.158 1438.324 1438.481 1438.487 1438.613 1438.806 1438.95 1439.068 1439.597 1439.885 1440.247 1440.594 1441.404 1441.858 1442.324 1443.083 1443.41 1443.772 1444.591 1445.003 1445.33 1445.754 1446.674 1446.75 1447.124 1448.128 1448.528 1448.989 1449.924 1450.37 1450.751 1451.07 1451.382 1451.334 1451.113 1450.944 1450.893 1450.899 1450.94 1451.082 1451.328 1451.62 1452.692 1453.568 1454.42 1456.379 1457.314 1458.23 1459.881 1460.62 1461.306 1461.915 1463.268 1463.942 1464.803 1466.897 1468.074 1469.316 1470.592 1473.092 1474.301 1475.281 1476.763 1477.216 1477.859 1478.828 1479.335 1479.83 1480.314 1481.376 1481.86 1482.276 1482.906 1483.279 1483.636 1484.039 1484.286 1484.489 1484.7 1485 1485.161 1485.369 1485.85 1486.175 1486.548 1487.403 1487.574 1487.976 1488.445 1489.112 1489.42 1489.667 1489.16 1486.054 1481.312 1471.135 1466.297 1463.159 1462.238 1462.185 1462.182 1462.259 1463.581 1464.574 1465.641 1467.262 1467.979 1468.924 1470.043 1472.512 1473.839 1475.134 1477.246 1477.953 1478.43 1478.62 1478.601 1478.146 1477.505 1475.423 1474.175 1473.687 1473.437 1473.304 1473.022 1472.97 1473.236 1473.228 1473.557 1474.135 1474.536 1475.084 1475.904 1476.262 1476.743 1477.372 1478.356 1478.603 1478.779 1478.621 1478.334 1477.978 1476.785 1475.907 1475.01 1474.109 1472.211 1471.336 1470.518 1471.69 1471.316 1471.055 1470.677 1470.489 1470.233 
1434.623 1434.919 1435.176 1435.655 1435.941 1436.205 1436.765 1437.023 1437.24 1437.641 1437.791 1437.814 1437.956 1438.269 1438.341 1438.407 1438.687 1438.875 1439.027 1439.507 1439.792 1440.072 1440.421 1441.309 1441.691 1442.124 1442.95 1443.292 1443.575 1444.332 1444.71 1445.095 1445.405 1446.38 1446.75 1446.747 1447.651 1448.094 1448.49 1449.35 1449.775 1450.212 1450.388 1450.65 1450.63 1450.569 1450.577 1450.579 1450.591 1450.668 1450.758 1451.029 1451.405 1452.376 1453.27 1454.121 1455.974 1456.924 1457.922 1458.854 1460.38 1461.005 1461.688 1462.966 1463.6 1464.344 1466.419 1467.611 1468.854 1470.214 1472.788 1473.953 1475.019 1476.585 1477.065 1477.719 1478.781 1479.37 1479.945 1480.517 1481.703 1482.219 1482.676 1483.346 1483.704 1484.11 1484.419 1484.662 1484.802 1484.923 1485.159 1485.315 1485.464 1485.924 1486.246 1486.566 1487.242 1487.574 1487.976 1488.354 1489.058 1489.42 1489.659 1488.369 1484.914 1480.838 1471.302 1466.525 1463.397 1462.292 1462.186 1462.171 1462.174 1463.275 1464.089 1464.867 1466.336 1468.355 1469.436 1470.706 1473.268 1474.524 1475.822 1477.837 1478.645 1479.136 1479.426 1479.258 1478.777 1477.919 1475.732 1474.912 1474.665 1474.942 1474.999 1474.923 1475.001 1475.416 1475.823 1476.434 1477.242 1477.687 1478.318 1479.199 1479.596 1480.085 1480.637 1481.559 1481.771 1481.89 1481.705 1481.462 1481 1479.472 1478.515 1477.499 1476.512 1474.529 1473.62 1472.842 1471.69 1471.316 1472.724 1472.059 1471.687 1471.442 
1434.484 1434.727 1434.962 1435.562 1435.852 1436.021 1436.555 1436.755 1437.043 1437.355 1437.472 1437.571 1437.721 1438.037 1438.201 1438.322 1438.511 1438.733 1438.968 1439.397 1439.582 1439.837 1440.299 1441.218 1441.603 1442.012 1442.785 1443.042 1443.295 1443.951 1444.284 1444.68 1445.073 1445.96 1446.345 1446.747 1447.651 1447.614 1448.072 1448.471 1449.144 1449.504 1449.755 1450.028 1450.023 1450.045 1450.124 1450.082 1450.177 1450.336 1450.552 1450.832 1451.291 1452.208 1452.972 1453.822 1455.718 1456.702 1457.627 1458.55 1460.214 1460.877 1461.506 1462.663 1463.281 1463.927 1465.929 1467.145 1468.446 1469.822 1472.52 1473.636 1474.667 1476.37 1477.027 1477.488 1478.702 1479.372 1480.016 1480.659 1482.07 1482.649 1483.163 1484.024 1484.4 1484.61 1484.864 1484.976 1485.073 1485.152 1485.201 1485.358 1485.467 1485.836 1486.145 1486.499 1487.071 1487.48 1487.891 1488.354 1489.023 1489.3 1489.467 1488.032 1484.456 1480.569 1476.362 1466.525 1463.359 1462.284 1462.185 1462.185 1462.188 1462.766 1463.452 1464.141 1465.551 1468.296 1469.795 1471.163 1473.845 1475.06 1476.295 1478.405 1479.102 1479.668 1480.119 1480.147 1479.619 1478.734 1476.284 1475.792 1475.763 1476.397 1476.717 1477.014 1477.36 1478.1 1478.73 1479.473 1480.611 1481.181 1481.793 1482.957 1483.434 1483.826 1484.224 1484.838 1484.98 1485.103 1485.087 1484.78 1484.221 1482.391 1481.276 1480.005 1478.828 1476.458 1475.572 1474.825 1473.502 1473.086 1472.724 1473.542 1472.689 1472.433 
1434.412 1434.706 1434.869 1435.35 1435.597 1435.81 1436.346 1436.511 1436.768 1437.077 1437.208 1437.37 1437.525 1437.885 1437.995 1438.149 1438.458 1438.636 1438.919 1439.411 1439.592 1439.843 1440.259 1441.114 1441.506 1441.916 1442.539 1442.787 1443.102 1443.325 1443.936 1444.309 1444.692 1445.554 1445.955 1446.41 1447.191 1447.614 1448.072 1447.942 1448.694 1448.909 1449.147 1449.412 1449.456 1449.625 1449.922 1449.97 1449.987 1450.127 1450.5 1450.818 1451.126 1451.968 1452.687 1453.614 1455.521 1456.532 1457.521 1458.526 1460.104 1460.784 1461.398 1462.441 1463.059 1463.613 1465.313 1466.593 1467.995 1469.443 1472.104 1473.282 1474.282 1475.934 1476.587 1477.205 1478.448 1479.168 1479.991 1480.752 1482.393 1483.149 1483.865 1484.841 1485.169 1485.327 1485.383 1485.341 1485.309 1485.323 1485.397 1485.487 1485.493 1485.854 1485.996 1486.204 1486.524 1487.315 1487.775 1488.241 1489.023 1489.3 1489.391 1488.251 1484.795 1480.77 1476.524 1466.955 1463.601 1462.322 1462.185 1462.185 1462.19 1462.575 1463.054 1463.817 1465.066 1468.407 1470.065 1471.588 1474.339 1475.596 1476.737 1478.77 1479.56 1480.28 1480.822 1480.99 1480.789 1480.079 1477.896 1477.555 1477.685 1478.664 1479.261 1479.905 1480.432 1481.594 1482.285 1483.063 1484.475 1485.092 1485.708 1486.755 1487.234 1487.757 1487.958 1488.184 1488.307 1488.401 1488.44 1488.091 1487.49 1486.71 1484.28 1482.788 1481.362 1478.519 1477.26 1476.236 1474.896 1474.516 1473.966 1473.542 1472.689 1473.203 
1434.275 1434.451 1434.742 1435.193 1435.364 1435.597 1436.087 1436.314 1436.536 1436.644 1437.029 1437.177 1437.316 1437.709 1437.79 1437.992 1438.455 1438.647 1438.876 1439.189 1439.683 1439.97 1440.347 1441.109 1441.445 1441.739 1442.303 1442.551 1442.838 1443.103 1443.661 1443.962 1444.372 1445.121 1445.513 1445.896 1446.742 1447.19 1447.581 1447.942 1448.694 1448.423 1448.656 1449.005 1449.173 1449.338 1449.595 1449.742 1449.97 1450.057 1450.514 1450.826 1451.132 1451.933 1452.589 1453.524 1455.365 1456.39 1457.528 1458.466 1460.1 1460.767 1461.383 1462.327 1462.84 1463.391 1464.914 1466.14 1467.495 1468.956 1471.757 1472.894 1473.892 1475.432 1476.029 1476.64 1477.269 1478.722 1479.754 1480.77 1482.802 1483.772 1484.74 1485.78 1486.03 1486.207 1486.129 1485.696 1485.573 1485.491 1485.411 1485.457 1485.485 1485.718 1485.895 1486.082 1486.433 1487.186 1487.595 1488.038 1488.866 1489.204 1489.391 1488.251 1485.703 1481.498 1477.343 1467.633 1463.942 1462.345 1462.19 1462.185 1462.185 1462.408 1462.99 1463.843 1465.177 1468.571 1470.314 1471.917 1474.783 1476.056 1477.262 1479.33 1480.17 1480.903 1481.574 1482.215 1482.229 1481.944 1481.155 1481.087 1481.215 1481.531 1482.758 1483.493 1484.185 1485.609 1486.325 1487.079 1488.357 1489 1489.594 1490.094 1490.903 1491.412 1491.543 1491.608 1491.621 1491.599 1491.359 1491 1490.417 1489.698 1487.215 1485.595 1483.98 1480.661 1479.193 1477.848 1475.817 1475.256 1474.798 1474.403 1473.625 1473.203 
1434.141 1434.416 1434.59 1435.028 1435.25 1435.488 1435.918 1436.109 1436.35 1436.428 1436.731 1436.895 1437.175 1437.518 1437.663 1437.897 1438.321 1438.617 1438.891 1439.149 1439.714 1440.038 1440.383 1441.067 1441.38 1441.683 1442.009 1442.213 1442.424 1442.712 1443.189 1443.48 1443.925 1444.635 1445.028 1445.419 1446.279 1446.693 1447.131 1447.392 1448.192 1448.423 1448.27 1448.703 1448.902 1449.132 1449.408 1449.626 1449.782 1450.021 1450.52 1450.848 1451.232 1452.053 1452.689 1453.548 1455.381 1456.367 1457.461 1458.538 1460.35 1461.046 1461.57 1462.508 1462.825 1463.24 1463.769 1465.72 1467.14 1468.608 1471.439 1472.491 1473.498 1474.938 1475.515 1475.994 1476.501 1477.935 1479.307 1480.576 1483.352 1484.551 1485.597 1486.891 1487.115 1487.083 1486.807 1486.082 1485.762 1485.584 1485.327 1485.365 1485.45 1485.551 1485.781 1486.004 1486.303 1487 1487.45 1487.85 1488.754 1489.107 1489.389 1488.669 1485.703 1481.498 1478.165 1469.142 1465.451 1462.972 1462.184 1462.185 1462.185 1462.356 1462.984 1464.079 1465.514 1468.947 1470.779 1472.455 1475.256 1476.599 1477.801 1478.883 1480.875 1481.81 1482.567 1483.544 1483.81 1483.955 1484.33 1484.45 1484.615 1485.09 1486.578 1487.283 1487.953 1489.29 1489.97 1490.686 1492.048 1492.74 1493.388 1493.984 1494.793 1495.082 1495.216 1495.139 1494.92 1494.739 1493.982 1493.438 1492.827 1491.954 1489.727 1488.238 1486.677 1483.117 1481.326 1479.689 1476.962 1476.055 1475.461 1475.047 1474.276 1473.877 
1433.911 1434.143 1434.365 1434.947 1435.157 1435.316 1435.733 1435.949 1435.994 1436.18 1436.551 1436.817 1436.951 1437.358 1437.581 1437.81 1438.236 1438.524 1438.835 1439.118 1439.652 1439.927 1440.242 1440.838 1441.124 1441.428 1441.757 1441.898 1442.026 1442.219 1442.707 1443.042 1443.428 1444.219 1444.609 1444.996 1445.779 1446.184 1446.567 1446.969 1447.699 1448.008 1448.27 1448.703 1448.697 1448.933 1449.109 1449.526 1449.704 1450.008 1450.64 1450.964 1451.348 1452.268 1453.006 1453.783 1454.687 1456.566 1457.568 1458.564 1460.609 1461.41 1462.147 1463.135 1463.464 1463.746 1464.034 1465.796 1467.173 1468.594 1471.153 1472.243 1473.115 1474.363 1474.89 1475.357 1475.818 1476.851 1478.091 1480.368 1483.969 1485.477 1486.707 1487.844 1488.03 1487.993 1487.799 1486.351 1485.896 1485.536 1485.211 1485.216 1485.264 1485.401 1485.555 1485.713 1485.982 1486.78 1487.172 1487.642 1488.549 1488.956 1489.355 1489.139 1486.755 1482.461 1478.165 1470.617 1466.702 1463.964 1462.166 1462.185 1462.178 1462.152 1463.31 1464.346 1465.93 1469.476 1471.227 1472.902 1475.864 1477.153 1478.436 1479.589 1481.757 1482.855 1483.69 1485.014 1485.533 1485.857 1486.349 1486.821 1487.399 1487.947 1489.619 1490.394 1491.089 1492.512 1493.304 1494.14 1495.743 1496.59 1497.427 1498.222 1498.903 1499.134 1499.164 1498.77 1498.153 1497.723 1496.583 1495.862 1495.063 1494.105 1491.739 1490.471 1489.125 1485.686 1483.679 1481.777 1478.434 1477.112 1476.127 1475.572 1474.752 1474.355 
1433.803 1434.029 1434.269 1434.638 1434.879 1435.107 1435.54 1435.668 1435.737 1435.965 1436.396 1436.589 1436.786 1437.217 1437.397 1437.635 1438.174 1438.427 1438.742 1439.011 1439.478 1439.702 1439.924 1440.51 1440.764 1441.075 1441.392 1441.484 1441.53 1441.636 1442.182 1442.535 1442.888 1443.68 1444.091 1444.482 1444.915 1445.793 1446.18 1446.57 1447.221 1447.552 1447.935 1448.389 1448.697 1448.933 1448.994 1449.457 1449.713 1450.027 1450.755 1451.097 1451.55 1452.542 1453.342 1454.11 1454.937 1456.794 1457.794 1458.788 1460.907 1461.858 1462.683 1463.914 1464.332 1464.75 1465.105 1466.392 1467.623 1468.749 1471.043 1472.007 1472.777 1474.117 1474.635 1475.006 1475.446 1476.667 1478.463 1481.132 1484.838 1486.208 1487.537 1488.616 1488.705 1488.73 1488.537 1486.454 1485.887 1485.501 1485.021 1484.946 1484.953 1485.031 1485.295 1485.485 1485.695 1486.577 1486.988 1487.423 1488.372 1488.851 1489.246 1489.488 1487.834 1483.566 1479.424 1470.617 1466.702 1465.14 1462.078 1462.185 1462.189 1462.311 1463.713 1464.912 1466.501 1470.076 1471.871 1473.47 1476.569 1477.901 1479.19 1480.476 1482.996 1484.008 1484.838 1486.179 1486.749 1487.236 1488.233 1488.928 1489.738 1490.577 1492.302 1493.122 1494.039 1495.755 1496.622 1497.51 1499.257 1500.174 1501.05 1501.731 1502.416 1502.546 1502.475 1501.784 1501.046 1500.485 1499.157 1498.223 1497.175 1496.127 1493.723 1492.342 1490.999 1488.079 1486.13 1483.99 1481.987 1478.479 1477.146 1476.238 1475.22 1474.728 
1433.646 1433.914 1434.001 1434.542 1434.746 1434.912 1435.331 1435.476 1435.619 1435.774 1436.307 1436.442 1436.615 1437.062 1437.274 1437.512 1438.042 1438.327 1438.578 1438.809 1439.283 1439.502 1439.65 1440.088 1440.345 1440.616 1440.8 1440.881 1440.853 1440.947 1441.572 1441.94 1442.312 1443.185 1443.625 1444.015 1444.53 1445.423 1445.805 1446.192 1446.956 1447.274 1447.577 1448.174 1448.435 1448.747 1448.994 1449.457 1449.746 1450.122 1450.901 1451.291 1451.679 1452.883 1453.666 1454.429 1455.187 1456.951 1458.025 1459.019 1461.172 1462.212 1463.112 1464.598 1465.252 1465.816 1466.18 1467.351 1468.125 1469.06 1471.188 1472.066 1472.815 1474.109 1474.68 1475.294 1475.839 1477.743 1479.817 1482.836 1486.947 1487.34 1488.056 1488.581 1488.417 1488.346 1488.17 1486.351 1485.662 1485.29 1484.68 1484.585 1484.603 1484.647 1484.842 1485.1 1485.396 1486.265 1486.727 1487.13 1488.112 1488.669 1489.121 1489.465 1488.562 1484.714 1480.275 1471.913 1468.128 1465.14 1462.078 1462.175 1462.196 1462.398 1464.141 1465.557 1467.164 1470.619 1472.461 1474.214 1477.367 1478.783 1480.161 1481.603 1484.16 1485.16 1485.986 1487.401 1487.997 1488.728 1490.447 1491.316 1492.184 1493.059 1495.054 1495.994 1496.953 1498.902 1499.878 1500.747 1502.552 1503.385 1504.199 1504.855 1505.441 1505.463 1505.305 1504.318 1503.72 1503.074 1502.422 1500.458 1499.295 1498.117 1495.637 1494.201 1492.762 1489.905 1488.269 1486.25 1484.095 1480.082 1478.472 1477.121 1475.666 1475.11 
1433.399 1433.622 1433.775 1434.352 1434.551 1434.706 1434.943 1435.266 1435.434 1435.66 1436.048 1436.261 1436.41 1436.915 1437.179 1437.342 1437.624 1438.145 1438.375 1438.614 1439.064 1439.238 1439.394 1439.705 1439.903 1440.092 1440.231 1440.147 1440.115 1440.356 1440.972 1441.32 1441.797 1442.72 1443.206 1443.655 1444.14 1445.109 1445.515 1445.898 1446.717 1447.088 1447.393 1448.028 1448.361 1448.659 1448.895 1449.405 1449.746 1450.134 1450.943 1451.4 1451.874 1453.153 1453.877 1454.638 1455.399 1457.327 1458.25 1459.244 1461.391 1462.48 1463.532 1465.099 1465.775 1466.298 1466.888 1468.091 1468.748 1469.595 1471.33 1472.189 1473.011 1473.709 1474.923 1475.614 1476.335 1479.725 1482.126 1485.215 1488.524 1488.315 1488.083 1487.837 1487.376 1487.212 1487.048 1485.893 1485.296 1484.87 1484.234 1484.176 1484.146 1484.14 1484.324 1484.593 1484.953 1485.792 1486.245 1486.746 1487.818 1488.429 1488.922 1489.291 1488.885 1485.641 1480.99 1472.776 1469.275 1466.383 1462.575 1462.175 1462.196 1462.515 1464.417 1465.994 1467.7 1471.295 1473.13 1474.873 1478.17 1479.821 1481.346 1482.868 1485.494 1486.431 1487.325 1488.929 1489.91 1490.859 1491.81 1493.851 1494.872 1495.892 1497.906 1498.835 1499.858 1501.823 1502.863 1503.865 1504.889 1506.649 1507.426 1508.044 1508.513 1508.404 1508.172 1507.008 1506.259 1505.446 1504.663 1502.561 1501.373 1500.125 1497.373 1495.966 1494.486 1491.412 1489.864 1488.131 1486.104 1481.819 1479.905 1478.412 1476.142 1475.49 
1433.263 1433.429 1433.662 1434.131 1434.373 1434.589 1434.676 1435.178 1435.321 1435.478 1435.892 1436.061 1436.282 1436.72 1436.929 1437.209 1437.47 1437.945 1438.168 1438.345 1438.778 1438.918 1439.077 1439.475 1439.616 1439.71 1439.737 1439.66 1439.666 1439.899 1440.524 1440.874 1441.342 1442.225 1442.819 1443.366 1443.884 1444.776 1445.21 1445.627 1446.528 1446.892 1447.221 1447.89 1448.252 1448.584 1448.816 1449.45 1449.818 1450.134 1450.943 1451.407 1451.873 1452.551 1454.053 1454.764 1455.615 1457.475 1458.481 1459.475 1461.626 1462.685 1463.665 1464.527 1466.06 1466.73 1467.338 1468.58 1469.286 1470.051 1471.685 1472.472 1473.32 1474.146 1475.636 1476.275 1477.504 1481.689 1484.536 1487.476 1488.976 1488.512 1487.849 1487.311 1486.526 1486.166 1485.905 1485.135 1484.708 1484.298 1483.735 1483.657 1483.589 1483.578 1483.821 1484.044 1484.384 1485.236 1485.684 1486.234 1487.369 1488.021 1488.668 1489.187 1489.217 1486.464 1481.373 1473.274 1470.126 1467.306 1463.005 1462.081 1462.18 1462.515 1464.637 1466.364 1468.222 1472.014 1473.9 1475.661 1477.426 1481.017 1482.845 1484.453 1486.846 1487.804 1488.779 1490.969 1492.029 1493.144 1494.247 1496.59 1497.682 1498.722 1500.771 1501.543 1502.577 1504.776 1505.871 1506.973 1508.084 1510.038 1510.878 1511.426 1511.833 1511.558 1511.11 1509.63 1508.709 1507.801 1506.799 1504.5 1503.273 1501.992 1499.086 1497.555 1496.04 1492.823 1491.259 1489.63 1487.924 1483.569 1481.423 1479.668 1476.769 1475.855 
1433.104 1433.314 1433.473 1434.044 1434.244 1434.397 1434.547 1434.97 1435.133 1435.357 1435.724 1435.961 1436.186 1436.549 1436.809 1437.116 1437.293 1437.747 1437.965 1438.12 1438.483 1438.689 1438.845 1439.165 1439.249 1439.331 1439.432 1439.463 1439.534 1439.636 1440.139 1440.531 1440.954 1441.916 1442.532 1443.058 1443.552 1444.598 1444.997 1445.431 1446.34 1446.743 1447.13 1447.533 1448.126 1448.569 1448.83 1449.427 1449.755 1450.128 1451.019 1451.407 1451.873 1452.637 1454.104 1454.926 1455.908 1457.689 1458.702 1459.705 1461.805 1462.778 1463.686 1464.533 1466.181 1466.862 1467.547 1468.916 1469.638 1470.473 1472.161 1472.968 1473.732 1474.571 1476.553 1477.711 1479.157 1483.649 1486.156 1488.466 1489.021 1488.38 1487.678 1486.98 1485.876 1485.448 1485.039 1484.297 1483.92 1483.554 1483.063 1482.905 1482.857 1482.9 1483.154 1483.394 1483.789 1484.607 1485.109 1485.661 1486.838 1487.504 1488.205 1488.827 1489.136 1486.476 1481.218 1473.308 1470.41 1467.851 1465.376 1462.227 1462.156 1462.245 1464.637 1466.364 1468.643 1472.788 1474.713 1476.635 1478.503 1482.385 1484.319 1485.852 1488.51 1489.648 1490.855 1493.262 1494.46 1495.65 1496.837 1499.262 1500.401 1501.294 1503.27 1504.198 1505.365 1507.677 1508.934 1510.111 1511.213 1513.039 1513.617 1513.95 1514.277 1514.049 1513.591 1512.148 1511.032 1509.853 1508.71 1506.326 1505.005 1503.646 1500.601 1498.977 1497.435 1494.149 1492.502 1490.931 1489.347 1485.24 1482.95 1480.834 1477.414 1476.217 
