NCOLS 44
NROWS 94
XLLCORNER 366555.66
YLLCORNER 4096836.8
CELLSIZE 10
NODATA_VALUE -9999
3458.078 3458.851 3459.241 3460.701 3460.142 3459.956 3459.784 3459.609 3459.145 3457.91 3457.117 3456.191 3455.191 3454.035 3451.688 3451.213 3451.213 3451.213 3451.213 3451.213 3451.213 3451.213 3451.213 3451.213 3451.213 3451.213 3451.213 3451.213 3451.213 3451.213 3451.213 3451.213 3451.213 3451.213 3451.213 3451.213 3451.213 3452.072 3453.71 3456.025 3459.32 3461.215 3462.331 3462.444 
3457.5 3458.098 3459.241 3459.398 3459.267 3459.11 3458.957 3458.713 3458.336 3457.2 3456.379 3455.631 3454.688 3453.469 3451.567 3451.213 3451.213 3451.213 3451.213 3451.213 3451.213 3451.213 3451.213 3451.213 3451.213 3451.213 3451.213 3451.213 3451.213 3451.213 3451.213 3451.213 3451.213 3451.213 3451.213 3451.213 3451.213 3451.379 3452.264 3454.198 3456.918 3459.603 3461.902 3462.116 
3457.5 3458.098 3458.407 3458.498 3458.536 3458.477 3458.344 3458.032 3457.645 3456.511 3455.842 3455.136 3454.204 3453.158 3451.545 3451.213 3451.213 3451.213 3451.213 3451.213 3451.213 3451.213 3451.213 3451.213 3451.213 3451.213 3451.213 3451.213 3451.213 3451.213 3451.213 3451.213 3451.213 3451.213 3451.213 3451.213 3451.213 3451.213 3451.648 3453.001 3454.544 3457.207 3460.711 3461.049 
3457.47 3457.949 3458.204 3458.048 3457.845 3457.779 3457.708 3457.531 3457.074 3455.926 3455.282 3454.628 3453.733 3452.822 3451.406 3451.213 3451.213 3451.213 3451.213 3451.213 3451.213 3451.213 3451.213 3451.213 3451.213 3451.213 3451.213 3451.213 3451.213 3451.213 3451.213 3451.213 3451.213 3451.213 3451.213 3451.213 3451.213 3451.213 3451.441 3452.144 3453.128 3455.07 3458.66 3459.483 
3457.829 3458.264 3458.067 3457.968 3457.414 3457.312 3457.199 3456.938 3456.481 3455.386 3454.737 3454.029 3453.287 3451.492 3451.213 3451.213 3451.213 3451.213 3451.213 3451.213 3451.213 3451.213 3451.213 3451.213 3451.213 3451.213 3451.213 3451.213 3451.213 3451.213 3451.213 3451.213 3451.213 3451.213 3451.213 3451.213 3451.213 3451.213 3451.209 3451.588 3452.698 3453.847 3457.195 3458.371 
3458.061 3458.078 3458.119 3457.95 3457.291 3456.986 3456.704 3456.363 3455.893 3454.739 3454.132 3453.38 3452.608 3451.363 3451.213 3451.213 3451.213 3451.213 3451.213 3451.213 3451.213 3451.213 3451.213 3451.213 3451.213 3451.213 3451.213 3451.213 3451.213 3451.213 3451.213 3451.213 3451.213 3451.213 3451.213 3451.213 3451.213 3451.213 3451.213 3451.4 3452.542 3455.237 3456.512 3457.757 
3458.739 3458.787 3458.648 3458.381 3457.466 3456.914 3456.367 3455.869 3455.315 3454.164 3453.656 3453.008 3452.015 3451.213 3451.213 3451.213 3451.213 3451.213 3451.213 3451.213 3451.213 3451.213 3451.213 3451.213 3451.213 3451.213 3451.213 3451.213 3451.213 3451.213 3451.213 3451.213 3451.213 3451.213 3451.213 3451.213 3451.213 3451.213 3451.213 3451.204 3451.544 3454.84 3456.087 3457.421 
3460.13 3460.239 3460.073 3459.506 3457.695 3456.726 3455.886 3455.292 3454.714 3453.732 3453.172 3452.259 3451.286 3451.213 3451.213 3451.213 3451.213 3451.213 3451.213 3451.213 3451.213 3451.213 3451.213 3451.213 3451.213 3451.213 3451.213 3451.213 3451.213 3451.213 3451.213 3451.213 3451.213 3451.213 3451.213 3451.213 3451.213 3451.213 3451.213 3451.213 3451.213 3454.272 3455.502 3456.552 
3461.619 3461.744 3461.571 3460.936 3458.275 3456.915 3455.741 3454.831 3453.529 3453.143 3452.475 3451.693 3451.26 3451.213 3451.213 3451.213 3451.213 3451.213 3451.213 3451.213 3451.213 3451.213 3451.213 3451.213 3451.213 3451.213 3451.213 3451.213 3451.213 3451.213 3451.213 3451.213 3451.213 3451.213 3451.213 3451.213 3451.213 3451.213 3451.213 3451.213 3451.213 3452.701 3454.556 3455.727 
3463.518 3463.214 3462.368 3461.452 3459.198 3457.426 3455.796 3454.307 3452.832 3452.446 3451.63 3451.223 3451.213 3451.213 3451.213 3451.213 3451.213 3451.213 3451.213 3451.213 3451.213 3451.213 3451.213 3451.213 3451.213 3451.213 3451.213 3451.213 3451.213 3451.213 3451.213 3451.213 3451.213 3451.213 3451.213 3451.213 3451.213 3451.213 3451.213 3451.213 3451.213 3451.208 3452.42 3454.282 
3465.69 3465.055 3463.898 3462.349 3459.907 3458.034 3455.751 3453.787 3452.174 3451.543 3451.269 3451.226 3451.213 3451.213 3451.213 3451.213 3451.213 3451.213 3451.213 3451.213 3451.213 3451.213 3451.213 3451.213 3451.213 3451.213 3451.213 3451.213 3451.213 3451.213 3451.213 3451.213 3451.213 3451.213 3451.213 3451.213 3451.213 3451.213 3451.213 3451.213 3451.213 3451.213 3451.722 3453.087 
3467.773 3466.7 3465.391 3461.805 3460.303 3458.567 3456.243 3454.038 3451.57 3451.344 3451.277 3451.229 3451.213 3451.213 3451.213 3451.213 3451.213 3451.213 3451.213 3451.213 3451.213 3451.213 3451.213 3451.213 3451.213 3451.213 3451.213 3451.213 3451.213 3451.213 3451.213 3451.213 3451.213 3451.213 3451.213 3451.213 3451.213 3451.213 3451.213 3451.213 3451.213 3451.213 3451.188 3451.541 
3470.057 3468.438 3466.56 3462.57 3460.756 3459.141 3457.199 3454.313 3451.419 3451.371 3451.286 3451.231 3451.213 3451.213 3451.213 3451.213 3451.213 3451.213 3451.213 3451.213 3451.213 3451.213 3451.213 3451.213 3451.213 3451.213 3451.213 3451.213 3451.213 3451.213 3451.213 3451.213 3451.213 3451.213 3451.213 3451.213 3451.213 3451.213 3451.213 3451.213 3451.213 3451.213 3451.213 3451.225 
3472.607 3470.598 3468.331 3463.656 3461.542 3459.559 3457.248 3454.725 3452.027 3451.503 3451.294 3451.233 3451.213 3451.213 3451.213 3451.213 3451.213 3451.213 3451.213 3451.213 3451.213 3451.213 3451.213 3451.213 3451.213 3451.213 3451.213 3451.213 3451.213 3451.213 3451.213 3451.213 3451.213 3451.213 3451.213 3451.213 3451.213 3451.213 3451.213 3451.213 3451.213 3451.213 3451.213 3451.213 
3475.37 3473.146 3470.653 3465.092 3462.695 3460.505 3458.311 3456.111 3452.912 3452.438 3451.788 3451.557 3451.239 3451.213 3451.213 3451.213 3451.213 3451.213 3451.213 3451.213 3451.213 3451.213 3451.213 3451.213 3451.213 3451.213 3451.213 3451.213 3451.213 3451.213 3451.213 3451.213 3451.213 3451.213 3451.213 3451.213 3451.213 3451.213 3451.213 3451.213 3451.213 3451.213 3451.213 3451.213 
3478.186 3475.933 3473.535 3467.475 3464.662 3462.317 3460.437 3458.453 3455.147 3453.945 3453.291 3452.641 3451.299 3451.213 3451.213 3451.213 3451.213 3451.213 3451.213 3451.213 3451.213 3451.213 3451.213 3451.213 3451.213 3451.213 3451.213 3451.213 3451.213 3451.213 3451.213 3451.213 3451.213 3451.213 3451.213 3451.213 3451.213 3451.213 3451.213 3451.213 3451.213 3451.213 3451.213 3451.213 
3481.438 3479.153 3476.843 3471.317 3468.125 3465.147 3462.621 3460.754 3457.643 3456.041 3454.939 3454.057 3452.591 3452.05 3451.654 3451.213 3451.213 3451.213 3451.213 3451.213 3451.213 3451.213 3451.213 3451.213 3451.213 3451.213 3451.213 3451.213 3451.213 3451.213 3451.213 3451.213 3451.213 3451.213 3451.213 3451.213 3451.213 3451.213 3451.213 3451.213 3451.213 3451.213 3451.213 3451.213 
3485.653 3483.024 3480.684 3475.56 3472.01 3468.44 3465.424 3462.853 3459.525 3458.028 3456.792 3455.854 3454.415 3453.934 3453.297 3452.442 3452.02 3451.213 3451.213 3451.213 3451.213 3451.213 3451.213 3451.213 3451.213 3451.213 3451.213 3451.213 3451.213 3451.213 3451.213 3451.213 3451.213 3451.213 3451.213 3451.213 3451.213 3451.213 3451.213 3451.213 3451.213 3451.213 3451.213 3451.213 
3490.791 3487.831 3485.142 3479.759 3476.156 3472.208 3468.611 3465.377 3460.793 3459.553 3458.392 3457.575 3456.375 3455.828 3455.125 3454.35 3453.716 3451.545 3451.213 3451.213 3451.213 3451.213 3451.213 3451.213 3451.213 3451.213 3451.213 3451.213 3451.213 3451.213 3451.213 3451.213 3451.213 3451.213 3451.213 3451.213 3451.213 3451.213 3451.213 3451.213 3451.213 3451.213 3451.213 3451.213 
3495.982 3492.734 3489.821 3483.788 3480.27 3476.369 3472.27 3464.991 3462.284 3460.67 3459.84 3459.337 3458.592 3458.058 3457.274 3456.287 3455.319 3453.197 3451.93 3451.213 3451.213 3451.213 3451.213 3451.213 3451.213 3451.213 3451.213 3451.213 3451.213 3451.213 3451.213 3451.213 3451.213 3451.213 3451.213 3451.213 3451.213 3451.213 3451.213 3451.213 3451.213 3451.213 3451.213 3451.213 
3500.837 3497.473 3494.389 3487.929 3484.303 3480.611 3476.821 3468.754 3465.034 3462.663 3461.874 3461.438 3460.721 3460.439 3459.777 3458.552 3457.278 3454.866 3453.623 3452.276 3451.314 3451.213 3451.213 3451.213 3451.213 3451.213 3451.213 3451.213 3451.213 3451.213 3451.213 3451.213 3451.213 3451.213 3451.213 3451.213 3451.213 3451.213 3451.213 3451.213 3451.213 3451.213 3451.213 3451.213 
3505.661 3502.39 3499.48 3492.844 3488.819 3484.94 3481.156 3473.436 3469.694 3467.043 3465.606 3464.747 3463.884 3463.346 3462.219 3460.701 3459.489 3456.892 3455.482 3453.632 3451.365 3451.213 3451.213 3451.213 3451.213 3451.213 3451.213 3451.213 3451.213 3451.213 3451.213 3451.213 3451.213 3451.213 3451.213 3451.213 3451.213 3451.213 3451.213 3451.213 3451.213 3451.213 3451.213 3451.213 
3510.814 3507.784 3502.114 3498.286 3493.824 3489.52 3485.264 3477.64 3474.536 3472.109 3470.483 3469.199 3467.424 3466.58 3465.212 3463.512 3461.79 3459.101 3457.654 3455.836 3453.57 3451.213 3451.213 3451.213 3451.213 3451.213 3451.213 3451.213 3451.213 3451.213 3451.213 3451.213 3451.213 3451.213 3451.213 3451.213 3451.213 3451.213 3451.213 3451.213 3451.213 3451.213 3451.213 3451.213 
3515.936 3513.081 3506.969 3503.218 3498.818 3494.115 3489.514 3481.019 3478.03 3475.816 3474.246 3473.46 3471.516 3470.219 3468.672 3467.074 3463.185 3461.515 3459.949 3458.097 3455.747 3451.213 3451.213 3451.213 3451.213 3451.213 3451.213 3451.213 3451.213 3451.213 3451.213 3451.213 3451.213 3451.213 3451.213 3451.213 3451.213 3451.213 3451.213 3451.213 3451.213 3451.213 3451.213 3451.213 
3521.763 3518.396 3511.407 3507.593 3503.611 3498.978 3493.832 3484.666 3481.356 3479.058 3477.94 3477.344 3476.174 3474.999 3473.229 3471.211 3466.768 3464.664 3462.5 3460.354 3458.314 3454.019 3452.363 3451.213 3451.213 3451.213 3451.213 3451.213 3451.213 3451.213 3451.213 3451.213 3451.213 3451.213 3451.213 3451.213 3451.213 3451.213 3451.213 3451.213 3451.213 3451.213 3451.213 3451.213 
3529.702 3524.809 3516.301 3512.921 3509.248 3504.528 3499.59 3490.663 3486.259 3483.331 3482.452 3481.846 3480.872 3479.861 3478.124 3476.082 3471.286 3468.521 3465.718 3462.925 3460.554 3456.541 3454.631 3453.099 3451.991 3451.213 3451.213 3451.213 3451.213 3451.213 3451.213 3451.213 3451.213 3451.213 3451.213 3451.213 3451.213 3451.213 3451.213 3451.213 3451.213 3451.213 3451.213 3451.213 
3538.304 3532.338 3521.448 3517.782 3513.939 3509.235 3507.106 3497.7 3492.944 3489.36 3488.395 3486.251 3485.429 3484.448 3482.872 3481.235 3476.258 3473.068 3469.918 3466.66 3463.462 3459.66 3457.586 3453.099 3451.991 3451.311 3451.215 3451.213 3451.213 3451.213 3451.213 3451.213 3451.213 3451.213 3451.213 3451.213 3451.213 3451.213 3451.213 3451.213 3451.213 3451.213 3451.213 3451.213 
3545.989 3540.381 3527.663 3521.902 3517.705 3515.698 3513.94 3504.919 3500.023 3495.098 3494.151 3490.936 3489.923 3488.949 3487.619 3486.055 3481.186 3478.083 3475.074 3472.189 3469.138 3459.66 3457.586 3454.616 3452.245 3452.383 3451.738 3451.248 3451.31 3451.309 3451.213 3451.213 3451.213 3451.213 3451.213 3451.213 3451.213 3451.213 3451.213 3451.213 3451.213 3451.213 3451.213 3451.213 
3553.471 3548.136 3535.653 3528.433 3524.021 3523.967 3520.761 3512.606 3506.498 3498.802 3497.18 3495.892 3494.965 3493.783 3492.553 3490.838 3486.03 3482.939 3480.31 3478.73 3469.138 3464.054 3461.626 3458.979 3456.071 3454.065 3454.247 3454.348 3454.068 3453.454 3451.381 3451.472 3451.369 3451.213 3451.213 3451.213 3451.213 3451.213 3451.213 3451.213 3451.213 3451.213 3451.213 3451.213 
3561.833 3555.999 3544.374 3538.761 3534.365 3530.569 3526.725 3517.7 3510.248 3501.119 3500.606 3500.349 3499.693 3498.795 3497.52 3496.052 3491.435 3488.673 3480.31 3478.73 3476.68 3470.49 3466.748 3463.258 3460.732 3458.838 3458.388 3457.661 3456.988 3456.188 3454.931 3454.236 3453.184 3451.759 3451.52 3451.213 3451.213 3451.213 3451.213 3451.213 3451.213 3451.213 3451.213 3451.213 
3571.212 3564.24 3552.193 3546.618 3541.471 3536.772 3527.572 3522.751 3517.63 3512.434 3509.459 3506.888 3505.754 3504.607 3503.478 3501.678 3491.435 3488.673 3486.561 3485.308 3482.128 3478.584 3473.993 3469.621 3466.091 3463.395 3462.688 3461.966 3460.903 3459.793 3457.931 3456.934 3455.994 3455.208 3454.168 3451.323 3451.213 3451.213 3451.213 3451.213 3451.213 3451.213 3451.213 3451.213 
3580.094 3572.87 3560.148 3554.728 3549.82 3545.087 3534.766 3530.035 3525.89 3522.915 3519.807 3514.344 3513.149 3512.483 3503.478 3501.678 3497.304 3494.858 3493.046 3491.842 3488.002 3484.592 3480.347 3476.512 3473.871 3470.322 3468.927 3467.378 3465.386 3463.591 3461.26 3460.168 3458.869 3457.676 3455.256 3453.284 3451.508 3451.213 3451.213 3451.213 3451.213 3451.213 3451.213 3451.213 
3587.629 3581.178 3567.995 3562.413 3557.36 3552.302 3541.997 3536.572 3532.38 3529.101 3526.459 3521.553 3520.754 3512.483 3511.299 3509.45 3503.12 3500.165 3498.848 3498.633 3495.404 3491.691 3486.774 3482.433 3480.076 3478.526 3476.432 3473.894 3471.077 3468.691 3464.982 3463.23 3461.404 3459.883 3457.396 3455.835 3453.395 3451.213 3451.213 3451.213 3451.213 3451.213 3451.213 3451.213 
3595.021 3582.308 3575.799 3569.738 3564.68 3560.491 3547.428 3540.196 3535.611 3534.681 3533.928 3521.553 3520.754 3521.358 3521.56 3519.411 3510.52 3507.119 3506.038 3505.969 3503.839 3500.644 3495.173 3490.166 3487.769 3485.632 3483.688 3480.897 3477.124 3473.871 3468.999 3466.792 3464.38 3462.2 3458.911 3457.447 3455.263 3452.502 3451.899 3451.213 3451.213 3451.213 3451.213 3451.213 
3605.578 3589.607 3583.367 3577.419 3571.786 3567.286 3553.723 3543.459 3538.84 3534.681 3533.928 3530.821 3531.046 3528.418 3527.884 3523.007 3518.912 3516.132 3515.544 3515.224 3511.003 3507.054 3502.457 3498.373 3495.713 3492.628 3489.979 3485.964 3481.897 3475.339 3472.757 3470.572 3468.184 3465.244 3460.29 3459.1 3457.928 3456.353 3454.632 3451.422 3451.213 3451.213 3451.213 3451.213 
3619.14 3596.368 3590.407 3584.634 3578.548 3570.674 3556.001 3543.459 3538.84 3537.951 3537.864 3546.246 3541.875 3535.532 3533.657 3528.253 3524.666 3522.843 3523.687 3524.139 3519.193 3514.11 3508.938 3504.305 3501.606 3500.9 3497.327 3491.808 3487.023 3479.284 3476.773 3475.148 3473.131 3469.582 3462.527 3460.885 3459.698 3458.471 3456.728 3452.883 3451.55 3451.213 3451.213 3451.213 
3628.988 3604.497 3596.268 3589.875 3581.927 3573.016 3556.001 3548.878 3544.832 3543.698 3544.585 3560.267 3556.499 3542.461 3539.031 3533.616 3531.662 3530.519 3530.145 3529.812 3525.248 3521.05 3516.166 3511.755 3509.326 3506.84 3503.622 3498.598 3493.27 3484.109 3481.684 3481.018 3479.757 3476.532 3467.824 3464.708 3462.467 3460.481 3458.611 3454.352 3452.789 3451.653 3451.207 3451.213 
3637.953 3613.964 3603.803 3594.906 3581.927 3573.016 3559.26 3555.99 3554.514 3554.839 3552.743 3564.112 3556.997 3548.502 3544.021 3538.46 3537.726 3537.763 3537.623 3536.312 3530.302 3526.445 3522.263 3518.455 3515.758 3512.019 3508.67 3504.087 3499.257 3491.451 3489.492 3488.561 3486.84 3483.556 3475.458 3471.162 3467.181 3463.5 3460.671 3455.905 3453.945 3452.534 3451.702 3451.213 
3643.486 3623.406 3603.803 3594.906 3585.816 3578.751 3566.935 3564.493 3564.043 3563.357 3563.199 3561.525 3558.082 3552.718 3548.462 3543.308 3543.29 3543.988 3543.972 3542.869 3536.485 3532.344 3527.834 3523.539 3520.045 3519.019 3515.826 3510.29 3504.638 3499.73 3499.395 3497.417 3494.315 3490.776 3482.631 3477.841 3472.625 3467.413 3462.888 3457.775 3455.564 3453.654 3452.525 3451.332 
3643.486 3623.406 3612.131 3601.984 3592.537 3584.491 3577.615 3577.464 3576.399 3575.473 3567.874 3563.274 3558.923 3555.754 3552.635 3550.094 3550.395 3550.2 3549.975 3548.55 3542.585 3538.842 3534.75 3530.593 3526.903 3525.688 3522.923 3517.779 3512.005 3507.467 3507.253 3505.34 3502.449 3498.708 3489.056 3483.961 3478.304 3471.766 3461.968 3459.373 3457.37 3455.457 3453.87 3452.097 
3645.097 3633.735 3620.601 3609.392 3600.16 3592.376 3587.612 3587.936 3586.515 3583.252 3574.243 3565.258 3560.426 3557.854 3556.503 3556.504 3557.7 3557.804 3556.75 3554.756 3548.635 3544.958 3541.215 3537.826 3533.824 3532.087 3528.812 3523.495 3518.685 3515.11 3514.808 3513.046 3509.844 3505.669 3495.626 3489.564 3482.675 3475.68 3463.591 3460.412 3458.978 3457.201 3455.562 3453.187 
3643.131 3642.321 3631.993 3617.984 3606.5 3597.208 3598.54 3599.427 3596.511 3591.199 3577.028 3569.981 3564.596 3561.867 3561.034 3563.06 3565.224 3564.882 3564.142 3562.025 3555.344 3551.5 3547.59 3543.677 3541.009 3540.557 3537.264 3530.873 3524.209 3522.22 3523.164 3520.906 3517.287 3512.617 3502.42 3495.251 3486.373 3478.915 3466.498 3462.591 3460.514 3459.092 3457.487 3454.712 
3642.074 3645.543 3641.651 3630.213 3618.895 3606.937 3609.521 3609.496 3606.513 3599.56 3583.759 3578.347 3573.691 3571.003 3569.607 3571.686 3574.752 3575.143 3573.232 3566.257 3562.024 3558.075 3554.275 3550.715 3548.165 3547.508 3545.127 3540.027 3533.556 3529.526 3529.162 3527.064 3524.04 3514.526 3508.259 3500.111 3489.883 3481.066 3470.365 3466.39 3463.236 3460.768 3459.179 3456.516 
3639.755 3643.294 3643.939 3639.682 3628.408 3622.118 3622.994 3622.521 3618.89 3610.34 3592.972 3586.784 3583.455 3582.719 3582.44 3584.548 3586.29 3586.12 3583.524 3574.615 3569.665 3564.841 3560.46 3557.571 3555.384 3553.858 3551.19 3546.927 3542.352 3535.709 3534.17 3532.316 3529.369 3520.21 3512.535 3503.064 3492.605 3482.742 3474.709 3470.474 3465.846 3461.988 3460.212 3457.958 
3636.354 3640.566 3641.338 3640.688 3636.73 3634.749 3637.654 3636.818 3629.742 3622.286 3600.62 3595.364 3593.159 3592.35 3593.011 3597.786 3597.173 3594.825 3591.556 3583.562 3578.914 3573.604 3568.039 3563.902 3562.898 3561.383 3558.617 3554.685 3549.439 3540.481 3539.357 3538.329 3535.073 3524.566 3516.395 3506.391 3497.208 3489.406 3480.444 3476.143 3470.677 3464.838 3461.337 3459.503 
3634.406 3636.385 3637.65 3637.776 3638.389 3642.286 3644.75 3644.525 3637.712 3630.078 3609.44 3602.336 3602.05 3602.235 3608.273 3611.642 3609.786 3604.472 3599.733 3590.995 3586.789 3581.812 3576.558 3572.506 3570.536 3569.168 3566.762 3562.763 3557.128 3547.842 3545.936 3544.553 3541.195 3529.3 3521.233 3512.545 3504.583 3498.658 3487.912 3483.243 3477.653 3471.161 3465.605 3461.098 
3629.906 3632.3 3634.137 3635.737 3638.354 3642.106 3643.748 3643.756 3640.51 3635.696 3621.1 3614.533 3614.099 3614.643 3617.965 3623.102 3622.519 3614.895 3608.513 3597.61 3592.713 3588.12 3583.18 3579.001 3578.573 3578.659 3576.524 3570.557 3558.723 3554.923 3552.423 3550.168 3546.715 3534.665 3525.941 3518.04 3511.876 3506.783 3496.075 3490.283 3484.343 3478.576 3467.996 3464.977 
3625.901 3628.389 3630.647 3633.137 3635.789 3640.92 3642.661 3644.116 3644.61 3642.539 3630.586 3626.49 3628.051 3628.455 3629.145 3633.266 3634.352 3627.098 3617.771 3604.891 3599.27 3594.536 3590.091 3586.297 3587.025 3587.575 3584.836 3578.899 3565.538 3561.142 3558.632 3555.907 3551.739 3540.094 3532.005 3524.1 3518.599 3514.293 3504.202 3498.099 3490.237 3482.431 3473.207 3470.067 
3622.44 3625.146 3627.533 3629.803 3633.482 3638.3 3640.304 3642.406 3644.508 3645.7 3641.343 3639.327 3639.649 3639.566 3642.054 3645.301 3646.787 3641.149 3632.084 3613.944 3607.211 3601.184 3596.626 3594.814 3596.636 3595.958 3593.325 3586.709 3573.916 3568.913 3565.253 3561.815 3556.925 3545.368 3538.656 3531.524 3525.851 3522.471 3510.734 3504.081 3496.197 3487.824 3478.738 3475.425 
3619.178 3621.662 3624.35 3627.386 3630.392 3635.303 3637.538 3640.069 3642.509 3645.734 3645.89 3645.89 3646.656 3647.932 3652.216 3654.011 3654.764 3653.394 3650.104 3629.393 3618.853 3610.351 3604.902 3610.1 3612.049 3608.26 3603.145 3595.597 3581.392 3576.133 3571.447 3566.971 3562.386 3548.786 3541.315 3535.544 3531.315 3527.239 3515.113 3507.796 3500.459 3494.059 3484.636 3481.125 
3615.403 3618.197 3621.195 3624.107 3626.862 3631.776 3634.125 3636.812 3639.598 3644.451 3646.385 3648.097 3650.502 3653.647 3660.416 3661.858 3662.195 3663.633 3667.661 3652.045 3640.28 3629.6 3622.606 3625.768 3625.561 3619.696 3611.974 3602.653 3587.446 3581.322 3575.775 3571.101 3566.635 3552.67 3544.495 3539.399 3535.304 3525.551 3519.015 3511.259 3503.869 3498.719 3490.728 3487.043 
3610.944 3613.907 3617.148 3620.307 3623.022 3627.753 3630.078 3632.884 3635.811 3641.759 3644.646 3647.65 3651.103 3655.009 3662.76 3665.489 3667.887 3671.985 3679.267 3673.042 3663.586 3654.552 3645.103 3638.653 3634.791 3627.9 3619.512 3608.756 3591.765 3584.37 3578.104 3573.323 3568.534 3556.087 3550.026 3544.494 3539.792 3529.39 3523.214 3516.558 3510.085 3505.023 3496.806 3492.015 
3605.874 3608.926 3612.238 3615.532 3621.349 3623.705 3626.024 3628.665 3631.773 3638.067 3641.006 3643.8 3646.993 3651.201 3659.689 3663.351 3667.442 3672.779 3678.209 3682.841 3677.475 3669.267 3661.62 3649.057 3643.756 3636.56 3625.855 3615.414 3595.759 3586.967 3580.01 3575.81 3570.978 3560.621 3555.416 3549.967 3545.248 3533.717 3527.038 3520.902 3515.525 3510.903 3503.416 3492.015 
3600.878 3603.712 3606.906 3610.384 3616.657 3619.227 3621.632 3624.271 3627.44 3634.103 3637.303 3640.263 3643.309 3647.286 3655.557 3659.412 3663.259 3667.924 3678.26 3681.778 3680.177 3674.407 3669.83 3655.336 3647.369 3639.066 3630.004 3620.797 3598.567 3590.889 3584.032 3579.572 3570.615 3565.585 3560.802 3555.416 3549.601 3537.247 3530.674 3524.408 3519.189 3510.903 3503.416 3497.856 
3596.674 3599.018 3601.86 3605.081 3611.644 3614.394 3616.966 3619.852 3623.146 3629.916 3633.17 3636.138 3639.347 3642.84 3650.906 3654.983 3659.007 3663.16 3671.999 3676.125 3679.213 3680.141 3679.573 3658.149 3649.127 3639.626 3632.076 3621.813 3601.477 3595.705 3590.365 3585.26 3576.049 3570.633 3564.986 3558.979 3552.515 3540.715 3535.403 3524.408 3519.189 3515.981 3508.079 3502.025 
3592.805 3595.039 3597.537 3600.312 3606.518 3609.487 3612.307 3615.355 3618.727 3625.458 3628.662 3631.745 3635.098 3638.488 3645.883 3650.142 3654.476 3658.791 3667.774 3673.016 3678.725 3683.048 3682.592 3664.275 3655.471 3645.827 3636.715 3625.874 3608.824 3601.859 3596.458 3591.1 3581.242 3574.734 3567.613 3561.11 3555.77 3545.422 3535.403 3529.851 3524.688 3523.248 3512.747 3506.241 
3588.955 3591.103 3593.479 3596.172 3601.582 3604.376 3607.288 3610.436 3613.846 3620.898 3624.301 3627.524 3630.845 3637.665 3641.344 3645.564 3650.39 3655.275 3663.382 3668.491 3674.594 3679.128 3680.51 3670.016 3662.287 3654.141 3644.47 3634.415 3616.894 3609.269 3602.846 3596.579 3583.987 3577.275 3570.373 3564.327 3555.77 3545.422 3540.775 3536.337 3532.363 3529.068 3519.064 3512.571 
3585.08 3587.212 3589.511 3592.056 3597.177 3599.633 3602.23 3605.165 3608.586 3615.902 3619.653 3623.167 3626.552 3633.669 3637.458 3641.608 3646.341 3651.343 3659.817 3664.047 3669.049 3673.362 3674.646 3671.274 3667.17 3660.561 3651.717 3633.462 3623.859 3615.184 3607.282 3599.689 3585.545 3579.685 3570.373 3564.327 3559.951 3553.031 3547.623 3542.488 3538.234 3532.093 3525.563 3519.545 
3581.094 3583.208 3585.497 3587.929 3592.882 3595.245 3597.613 3600.168 3603.098 3610.227 3614.165 3618.076 3621.885 3629.613 3633.777 3637.837 3642.234 3647.141 3656.124 3660.214 3664.234 3668.198 3670.537 3671.844 3670.073 3664.673 3657.713 3641.449 3631.534 3621.382 3612.018 3602.715 3585.545 3579.685 3574.961 3570.638 3567.738 3561.954 3556.55 3550.467 3545.697 3542.618 3535.492 3528.293 
3577.158 3579.171 3581.366 3583.801 3588.655 3590.916 3593.168 3595.578 3598.18 3604.266 3608.117 3612.476 3616.863 3625.871 3630.252 3634.507 3638.918 3643.535 3652.793 3657.095 3660.798 3664.501 3668.247 3671.916 3671.383 3668.723 3663.844 3649.129 3639.702 3629.136 3618.399 3602.715 3587.471 3581.568 3579.037 3579.585 3579.337 3569.778 3563.381 3558.008 3554.195 3548.955 3544.733 3540.891 
3573.201 3575.167 3577.267 3579.576 3584.363 3586.626 3588.787 3591.052 3596.292 3599.061 3602.297 3606.555 3611.988 3622.394 3627.042 3631.444 3635.879 3640.503 3649.561 3653.905 3658.04 3661.991 3669.282 3674.638 3678.037 3675.631 3670.382 3656.156 3646.876 3629.136 3618.399 3606.425 3593.232 3588.029 3585.986 3587.634 3588.099 3578.636 3571.19 3564.486 3559.874 3556.959 3554.545 3551.597 
3569.252 3570.878 3572.918 3575.159 3579.815 3582.145 3584.378 3586.675 3592.014 3594.935 3597.989 3601.877 3607.442 3618.918 3623.847 3628.228 3632.733 3637.327 3646.041 3650.418 3654.884 3659.296 3667.93 3673.4 3678.677 3681.336 3680.34 3656.156 3646.876 3635.711 3623.051 3611.342 3598.373 3596.496 3596.767 3599.589 3591.696 3585.945 3580.119 3573.781 3569.485 3566.631 3564.726 3561.438 
3565.162 3566.585 3568.244 3570.249 3574.857 3577.208 3579.539 3582.123 3587.964 3591.191 3594.774 3598.691 3603.497 3615.108 3620.368 3625.069 3629.405 3633.742 3642.411 3646.862 3651.455 3656.131 3666.002 3672.151 3678.454 3681.336 3680.34 3664.08 3654.177 3643.139 3631.777 3620.746 3604.535 3602.668 3605.436 3606.692 3599.02 3592.933 3587.089 3583.086 3583.671 3577.65 3573.549 3568.808 
3561.074 3562.078 3563.314 3566.927 3569.079 3571.55 3574.344 3577.362 3583.926 3587.686 3591.654 3595.724 3600.146 3611.053 3616.589 3621.594 3625.768 3629.986 3638.626 3643.099 3647.802 3652.745 3662.907 3669.019 3678.454 3683.497 3686.092 3674.493 3664.283 3655.551 3646.256 3634.024 3617.282 3614.243 3612.432 3610.905 3604.178 3599.575 3595.933 3594.494 3593.216 3586.905 3582.032 3575.763 
3557.577 3558.486 3559.736 3561.875 3563.237 3565.427 3568.594 3572.33 3580.817 3585.095 3589.072 3593.038 3597.296 3606.838 3612.148 3617.292 3621.975 3630.372 3634.734 3639.159 3643.809 3648.923 3662.907 3669.019 3675.867 3681.605 3685.496 3684.246 3677.046 3668.37 3659.742 3636.779 3627.684 3623.086 3620.765 3616.399 3608.616 3604.875 3603.64 3604.689 3601.942 3593.42 3586.989 3580.647 
3555.22 3556.303 3557.361 3559.181 3559.414 3559.982 3562.849 3567.365 3577.828 3582.582 3586.54 3590.23 3594.163 3602.523 3607.43 3612.584 3617.503 3626.509 3630.835 3635.235 3643.809 3648.923 3659.688 3665.565 3671.947 3677.804 3682.741 3687.841 3685.031 3678.72 3669.743 3648.307 3639.902 3633.266 3626.81 3620.848 3614.583 3613.223 3612.66 3611.486 3608.402 3599.732 3591.967 3584.473 
3553.329 3554.356 3555.226 3556.769 3556.376 3556.31 3558.872 3562.293 3573.918 3579.485 3583.778 3587.203 3590.846 3598.61 3602.875 3607.847 3612.944 3622.406 3630.835 3635.235 3639.766 3644.709 3655.937 3661.864 3667.915 3674.088 3679.653 3688.016 3689.243 3686.263 3679.968 3661.241 3652.504 3643.474 3634.919 3625.771 3619.945 3621.638 3621.496 3618.118 3613.393 3602.864 3596.364 3590.149 
3551.661 3552.751 3553.737 3555.054 3555.385 3556.38 3558.142 3560.313 3569.248 3575.28 3580.129 3584.116 3587.639 3595.109 3598.951 3603.152 3608.184 3622.406 3626.795 3631.154 3635.702 3640.32 3651.906 3658.099 3664.151 3670.145 3675.84 3685.842 3690.6 3692.474 3689.197 3674.264 3665.843 3655.962 3645.054 3635.558 3628.121 3629.604 3627.992 3623.823 3618.661 3604.6 3599.278 3595.379 
3550.563 3551.796 3553.021 3554.544 3555.371 3556.276 3557.762 3559.586 3565.502 3571.364 3576.513 3580.754 3588.12 3591.731 3595.43 3603.152 3608.184 3618.054 3622.676 3627.131 3631.702 3636.481 3647.755 3654.187 3660.402 3666.073 3677.603 3681.81 3688.523 3698.167 3699.819 3684.715 3675.095 3665.18 3654.274 3645.41 3639.781 3637.813 3633.633 3628.237 3622.873 3609.359 3603.543 3599.051 
3550.134 3551.33 3552.709 3554.382 3555.294 3556.193 3557.561 3558.909 3563.514 3568.224 3573.263 3577.534 3584.916 3591.731 3595.43 3599.318 3603.622 3613.451 3618.254 3622.947 3627.686 3632.636 3643.678 3649.804 3655.788 3661.388 3672.982 3679.053 3686.461 3695.844 3703.887 3697.622 3686.242 3675.162 3664.273 3656.228 3648.208 3644.537 3639.618 3633.701 3620.981 3614.432 3607.957 3602.596 
3550.311 3551.72 3552.864 3554.487 3555.561 3556.562 3557.558 3558.996 3562.754 3566.273 3570.544 3574.914 3584.916 3588.48 3592.028 3595.784 3599.667 3608.928 3613.861 3618.633 3623.469 3628.654 3639.691 3645.479 3651.285 3656.868 3668.624 3675.146 3682.367 3690.89 3698.949 3704.111 3696.741 3685.592 3676.256 3665.548 3653.819 3648.758 3643.982 3637.865 3624.311 3618.054 3611.625 3605.724 
3551.417 3552.588 3553.613 3555.03 3555.955 3556.841 3557.725 3560.376 3562.425 3565.273 3570.544 3574.914 3581.779 3585.23 3588.819 3592.408 3596.116 3604.579 3609.58 3614.448 3619.353 3624.59 3635.776 3641.539 3647.205 3652.604 3663.862 3670.858 3678.153 3685.317 3692.529 3699.799 3696.793 3690.706 3684.573 3673.561 3657.008 3650.698 3645.13 3638.987 3625.491 3619.362 3613.661 3608.022 
3552.749 3553.748 3554.626 3555.974 3556.677 3557.356 3557.842 3560.029 3562.425 3565.273 3568.698 3572.594 3579.052 3582.158 3585.64 3589.231 3592.873 3600.955 3605.552 3610.457 3615.328 3625.832 3631.713 3637.656 3643.404 3648.726 3659.728 3666.71 3674.43 3681.44 3687.598 3691.982 3692.38 3691.036 3685.228 3665.799 3657.685 3651.569 3645.286 3639.592 3626.129 3619.849 3614.484 3609.293 
3554.728 3555.507 3556.15 3557.228 3557.526 3557.663 3557.842 3560.029 3561.859 3564.603 3567.511 3570.659 3576.552 3579.369 3582.419 3586.136 3589.729 3597.514 3601.803 3606.519 3611.347 3621.674 3627.535 3633.699 3639.619 3645.228 3656.643 3663.109 3670.467 3677.762 3683.074 3688.951 3689.907 3688.997 3683.638 3664.607 3657.29 3651.383 3644.562 3639.284 3627.367 3621.758 3617.203 3612.316 
3557.715 3558.241 3558.567 3558.674 3558.732 3557.663 3558.182 3559.86 3561.679 3564.071 3566.664 3569.26 3574.549 3577.184 3579.948 3582.941 3586.524 3594.343 3598.33 3602.595 3607.524 3618.07 3623.858 3629.902 3635.895 3641.823 3653.869 3660.034 3666.821 3674.104 3680.079 3687.175 3688.311 3687.815 3682.395 3663.614 3656.767 3651.163 3644.947 3639.901 3629.981 3624.944 3620.585 3616.277 
3560.672 3561.24 3561.258 3558.674 3558.732 3558.817 3558.928 3559.867 3561.571 3563.531 3565.545 3568.279 3573.188 3575.437 3577.677 3580.278 3587.118 3591.044 3595.045 3599.224 3603.668 3614.637 3620.326 3626.19 3632.474 3638.888 3651.548 3658.028 3664.775 3671.92 3678.313 3686.063 3687.708 3687.548 3682.414 3664.71 3658.112 3653.134 3647.81 3642.72 3632.815 3627.428 3622.245 3618.34 
3562.974 3561.24 3561.258 3561.008 3560.529 3560.213 3560.098 3560.696 3561.888 3563.698 3565.519 3568.033 3572.437 3574.237 3575.985 3578.291 3583.992 3588.087 3592.195 3596.216 3600.224 3611.154 3616.743 3622.511 3629.013 3635.769 3649.545 3656.901 3663.932 3670.79 3682.308 3685.857 3688.372 3688.748 3683.717 3668.227 3661.167 3655.836 3650.846 3645.898 3635.308 3629.028 3623.111 3619.571 
3562.974 3563.65 3563.657 3562.956 3562.129 3561.814 3562.032 3562.838 3563.482 3564.74 3566.888 3568.613 3572.327 3574.127 3575.927 3577.424 3582.003 3585.663 3589.76 3593.864 3598.085 3607.799 3613.529 3619.298 3625.569 3632.68 3647.585 3656.278 3664.02 3670.884 3682.734 3687.118 3690.455 3691.184 3686.138 3672.072 3664.546 3658.546 3653.469 3648.421 3637.99 3631.77 3625.864 3622.168 
3565.051 3565.84 3565.848 3565.031 3564.5 3564.333 3564.63 3565.386 3566.101 3567.145 3568.308 3569.789 3572.913 3574.257 3575.863 3577.377 3580.643 3583.69 3587.875 3592.119 3596.321 3604.975 3610.941 3616.791 3622.992 3630.356 3646.607 3656.263 3664.789 3671.837 3684.939 3691.19 3695.14 3695.193 3689.787 3675.709 3667.96 3661.277 3655.693 3650.418 3639.103 3635.071 3631.76 3628.306 
3566.895 3567.531 3567.931 3567.801 3567.538 3567.354 3567.624 3568.297 3568.817 3569.458 3570.317 3572.539 3573.695 3574.82 3576.163 3577.465 3579.851 3582.415 3586.539 3591.004 3594.934 3603.605 3609.385 3615.368 3621.337 3637.396 3646.819 3656.661 3665.745 3673.7 3691.213 3699.309 3702.082 3700.286 3694.177 3679.134 3671.115 3663.776 3658.391 3655.749 3651.405 3645.227 3640.885 3635.483 
3569.107 3569.93 3570.628 3570.619 3570.615 3570.608 3570.656 3571.134 3571.448 3571.96 3572.562 3573.773 3574.592 3575.587 3576.674 3577.842 3580.042 3582.281 3586.159 3590.648 3595.039 3603.157 3608.786 3614.722 3620.103 3637.41 3647.239 3657.38 3667.338 3677.549 3699.316 3709.389 3712.627 3706.535 3698.643 3682.884 3674.602 3666.43 3660.729 3661.54 3658.208 3650.711 3643.96 3641.319 
3572.044 3572.992 3573.964 3573.924 3573.761 3573.664 3573.718 3574.107 3574.211 3574.299 3574.593 3575.232 3575.866 3576.716 3577.717 3578.552 3581.603 3584.089 3587.864 3592.582 3597.32 3604.942 3610.111 3615.624 3620.681 3638.609 3648.124 3658.343 3669.948 3682.742 3705.86 3717.044 3722.73 3715.785 3703.697 3686.636 3678.463 3670.059 3661.794 3661.464 3657.942 3651.667 3645.908 3642.115 
3575.444 3576.763 3577.552 3577.292 3576.662 3576.546 3576.93 3577.171 3577.194 3577.05 3576.805 3576.94 3577.326 3577.982 3579.1 3580.574 3584.226 3587.445 3591.349 3595.891 3600.712 3609.483 3614.387 3619.654 3625.279 3642.412 3650.852 3660.881 3674.739 3688.115 3711.954 3723.468 3729.498 3723.2 3710.119 3691.254 3684.228 3677.455 3670.835 3664.376 3660.073 3655.567 3650.276 3644.713 
3578.193 3579.807 3580.927 3580.234 3579.248 3578.985 3579.951 3580.22 3580.271 3580.12 3579.504 3578.634 3578.667 3579.376 3581.042 3583.327 3587.718 3590.676 3594.324 3598.61 3608.644 3613.765 3619.191 3625.028 3631.55 3647.643 3656.448 3667.123 3681.334 3693.821 3718.325 3731.242 3740.021 3736.133 3706.065 3696.594 3690.469 3683.969 3678.259 3671.407 3666.635 3661.384 3656.287 3649.363 
3580.891 3582.543 3583.708 3582.896 3581.946 3581.691 3582.815 3583.175 3583.041 3582.731 3582.396 3580.256 3580.076 3581.505 3583.84 3586.667 3591.112 3593.868 3596.661 3600.062 3611.094 3616.515 3622.621 3630.093 3637.547 3653.605 3663.398 3674.652 3687.314 3699.427 3726.566 3739.21 3746.771 3746.913 3718.716 3704.506 3695.73 3690.227 3686.977 3680.092 3675.216 3668.29 3663.584 3658.251 
3583.93 3585.354 3586.304 3585.747 3585.113 3585.164 3585.925 3586.168 3586.136 3586.063 3585.744 3582.936 3582.994 3584.918 3587.666 3590.58 3595.013 3597.727 3600.286 3602.52 3615.298 3621.216 3627.572 3636.202 3644.036 3660.609 3670.774 3681.721 3693.019 3705.842 3735.64 3747.423 3754.055 3755.435 3734.32 3716.802 3702.734 3696.529 3694.274 3686.67 3682.965 3675.985 3670.704 3665.808 
3586.895 3588.82 3588.917 3588.889 3588.985 3588.929 3589.349 3589.494 3589.414 3589.341 3589.372 3587.77 3588.508 3590.499 3592.701 3597.633 3599.916 3602.481 3605.317 3607.91 3620.689 3626.511 3632.115 3639.721 3648.835 3668.232 3679.011 3689.625 3700.781 3714.805 3745.385 3754.961 3762.114 3764.057 3749.465 3733.742 3714.405 3701.001 3696.637 3696.388 3689.772 3682.452 3677.227 3674.353 
3590.829 3591.996 3592.28 3592.449 3592.475 3592.614 3592.9 3593.013 3593.149 3593.396 3593.674 3593.523 3593.79 3594.83 3597.005 3602.302 3605.197 3608.246 3611.986 3615.894 3626.388 3631.098 3635.399 3641.067 3653.729 3676.512 3687.431 3698.296 3711.595 3742.301 3753.483 3761.935 3769.271 3773.668 3762.298 3751.179 3733.69 3711.663 3704.279 3708.921 3703.325 3692.461 3685.728 3681.849 
3595.83 3595.211 3595.504 3595.929 3596.156 3596.323 3596.342 3596.459 3596.808 3597.406 3598.047 3598.317 3598.141 3598.8 3600.629 3606.998 3610.725 3614.574 3618.956 3623.778 3633.205 3637.085 3641.302 3647.569 3659.4 3684.347 3695.977 3708.688 3723.865 3751.176 3760.597 3769.428 3777.213 3782.276 3778.325 3768.098 3754.15 3739.592 3731.866 3716.791 3703.911 3698.26 3694.364 3691.888 
3599.819 3598 3598.188 3599.02 3599.956 3600.494 3599.954 3599.932 3600.45 3601.51 3602.664 3602.976 3602.221 3602.174 3603.859 3611.679 3616.557 3621.116 3625.499 3630.014 3639.673 3643.978 3648.733 3654.717 3665.097 3692.649 3705.942 3720.832 3736.475 3758.918 3768.33 3777.362 3785.108 3790.285 3789.67 3784.583 3775.175 3761.209 3754.573 3720.416 3706.181 3703.096 3705.101 3701.841 
3603.413 3600.987 3601.485 3602.839 3604.205 3605.084 3604.908 3604.684 3605.133 3606.287 3608.618 3607.806 3605.923 3604.749 3606.478 3616.55 3622.237 3627.308 3631.835 3636.22 3646.523 3651.829 3657.348 3663.775 3688.064 3703.08 3717.774 3732.867 3746.313 3766.648 3775.647 3784.248 3791.846 3798.062 3798.419 3793.995 3789.097 3782.278 3774.32 3749.394 3731.17 3727.416 3705.101 3701.841 
3606.99 3605.659 3606.621 3608.32 3610.332 3611.579 3611.591 3611.196 3611.358 3612.353 3614.364 3612.17 3608.79 3606.994 3608.862 3620.896 3627.14 3632.702 3637.691 3642.671 3653.854 3660.395 3668.192 3676.833 3699.818 3714.627 3729.622 3743.686 3755.277 3774.039 3782.114 3789.757 3798.504 3807.51 3810.624 3804.596 3798.302 3793.775 3778.751 3768.9 3731.17 3727.416 3726.575 3717.748 
3611.343 3612.077 3613.179 3614.997 3617.447 3618.811 3618.839 3618.459 3618.38 3619.033 3619.889 3616.887 3613.179 3611.056 3612.103 3625.553 3632.256 3638.136 3643.694 3649.267 3662.366 3671.073 3680.454 3689.872 3714.156 3727.966 3740.941 3753.132 3763.513 3780.668 3787.999 3793.635 3801.383 3821.997 3825.126 3823.516 3817.413 3807.033 3778.751 3768.9 3761.338 3756.459 3751.271 3734.101 
3616.323 3616.89 3618.514 3620.836 3623.178 3625.478 3625.797 3625.628 3625.546 3626.039 3627.044 3625.075 3621.651 3619.617 3620.615 3631.877 3638.6 3644.599 3650.953 3656.735 3674.003 3683.399 3692.267 3702.833 3729.009 3740.416 3751.601 3762.064 3770.992 3787.035 3794.345 3802.347 3813.035 3818.493 3827.78 3828.54 3828.39 3807.033 3791.994 3783.483 3776.819 3773.925 3771.33 3752.876 
