NCOLS 40
NROWS 112
XLLCORNER 277377.98
YLLCORNER 3855781.5
CELLSIZE 10
NODATA_VALUE -9999
1032.857 1037.005 1044.276 1052.318 1062.731 1068.727 1074.428 1075.243 1075.053 1069.399 1052.558 1047.377 1048.196 1051.471 1055.345 1058.949 1060.567 1060.957 1061.457 1062.281 1061.228 1049.467 1046.693 1045.287 1044.16 1042.509 1041.149 1039.146 1038.081 1037.006 1036.406 1035.871 1035.051 1034.815 1034.647 1034.415 1033.891 1033.497 1032.439 1031.87 
1038.455 1044.327 1051.267 1056.314 1066.41 1072.065 1074.428 1077.317 1075.887 1070.669 1055.239 1049.433 1047.383 1049.104 1051.897 1053.935 1054.598 1055.357 1056.13 1057.027 1057.068 1050.644 1047.118 1043.839 1040.447 1038.609 1037.953 1037.133 1036.619 1035.96 1035.434 1035.055 1034.263 1034.024 1033.68 1033.243 1032.921 1032.57 1031.563 1031.149 
1041.468 1048.602 1053.336 1058.224 1066.41 1072.065 1076.5 1078.788 1078.313 1075.028 1060.18 1053.506 1048.74 1047.269 1047.868 1048.352 1048.62 1049.301 1050.442 1051.226 1051.808 1050.788 1047.42 1042.439 1038.362 1036.7 1036.123 1035.974 1035.568 1035.063 1034.61 1034.201 1033.457 1033.177 1032.776 1032.327 1032 1031.211 1030.799 1030.435 
1039.864 1046.247 1051.784 1058.224 1069.477 1074.685 1077.397 1078.719 1080.437 1077.917 1065.587 1058.008 1051.685 1047.318 1043.156 1043.17 1043.969 1044.784 1045.74 1046.547 1047.231 1048.572 1045.646 1040.765 1037.849 1036.468 1035.581 1035.218 1034.77 1034.348 1033.915 1033.474 1032.632 1032.341 1031.981 1031.6 1031.167 1030.347 1030.037 1029.765 
1038.043 1044.158 1051.784 1057.912 1070.682 1076.118 1078.446 1078.634 1078.102 1072.752 1066.695 1059.41 1052.844 1047.682 1041.862 1037.551 1039.342 1040.663 1041.253 1041.746 1042.822 1043.362 1042.688 1040.495 1037.725 1036.478 1035.285 1034.697 1034.107 1033.644 1033.218 1032.782 1031.91 1031.579 1031.16 1030.809 1030.438 1029.611 1029.315 1029.048 
1038.742 1044.158 1050.201 1057.437 1070.548 1076.116 1078.737 1078.646 1077.907 1072.73 1066.26 1059.823 1054.742 1049.078 1043.526 1035.749 1035.935 1036.791 1037.215 1037.349 1038.075 1039.575 1040.945 1040.108 1037.732 1036.567 1034.885 1034.121 1033.481 1032.925 1032.433 1031.478 1031.114 1030.814 1030.436 1030.082 1029.724 1029.003 1028.645 1028.322 
1038.742 1044.706 1051.143 1065.285 1071.064 1076.263 1078.907 1078.392 1077.805 1073.068 1067.985 1062.662 1058.045 1053.383 1048.261 1036.527 1034.875 1035.216 1035.367 1035.772 1036.617 1038.056 1039.431 1039.058 1037.571 1036.569 1034.391 1033.562 1032.854 1032.221 1031.714 1030.676 1030.293 1030.039 1029.732 1029.376 1029.097 1028.45 1028.145 1027.777 
1039.107 1045.88 1052.68 1065.641 1070.937 1075.729 1078.001 1077.64 1077.852 1075.228 1071.588 1067.171 1062.466 1057.716 1044.925 1038.333 1035.201 1034.876 1035.075 1035.342 1035.687 1036.635 1038.017 1038.335 1037.349 1036.27 1033.96 1033.051 1032.25 1031.51 1030.858 1029.731 1029.439 1029.225 1028.962 1028.744 1028.404 1027.954 1027.637 1027.28 
1038.223 1045.56 1051.898 1061.546 1065.811 1070.152 1073.307 1075.412 1077.188 1077.394 1075.135 1070.817 1064.971 1059.706 1046.816 1040.034 1035.957 1035.11 1034.857 1034.9 1034.926 1035.706 1036.923 1037.532 1036.844 1034.521 1033.369 1032.388 1031.503 1030.733 1029.975 1028.87 1028.559 1028.359 1028.244 1028.045 1027.769 1027.391 1027.181 1026.855 
1034.433 1039.46 1045.096 1052.701 1056.405 1060.389 1065.083 1069.256 1072.081 1076.854 1076.046 1071.11 1064.558 1059.266 1046.98 1040.093 1036.272 1035.766 1034.856 1034.528 1034.267 1034.67 1035.504 1036.276 1035.679 1033.531 1032.465 1031.477 1030.606 1029.738 1028.879 1028.019 1027.794 1027.604 1027.433 1027.326 1027.053 1026.937 1026.747 1026.855 
1029.682 1033.063 1035.153 1042.157 1045.878 1050.975 1057.706 1063.511 1071.158 1074.414 1073.719 1068.502 1062.831 1057.774 1045.654 1039.252 1036.118 1035.563 1034.749 1034.077 1033.74 1033.717 1033.845 1034.096 1033.811 1032.277 1031.409 1030.507 1029.712 1028.911 1028.11 1027.187 1026.973 1026.809 1026.721 1026.698 1026.501 1026.476 1026.747 1026.354 
1025.67 1027.48 1030.081 1034.1 1040.232 1048.624 1053.557 1057.594 1065.43 1068.754 1069.006 1065.507 1060.479 1055.782 1043.393 1037.549 1035.829 1034.994 1034.238 1033.261 1032.945 1032.638 1032.461 1032.367 1031.998 1030.725 1030.149 1029.592 1028.893 1028.102 1026.923 1026.448 1026.128 1026.009 1025.992 1025.979 1026.131 1026.476 1026.378 1026.084 
1022.797 1023.695 1026.826 1036.155 1043.112 1049.684 1047.39 1045.831 1055.546 1059.437 1062.021 1061.951 1057.935 1053.518 1040.492 1036.034 1035.2 1034.433 1033.794 1032.704 1032.155 1031.639 1031.274 1031.023 1030.52 1029.304 1028.888 1028.574 1028.152 1027.656 1026.412 1025.896 1025.423 1025.183 1025.29 1025.979 1026.131 1026.117 1025.987 1025.771 
1022.336 1024.547 1035.063 1038.591 1042.428 1045.061 1041.183 1037.459 1044.067 1049.189 1053.706 1056.065 1054.393 1043.385 1037.844 1035.55 1034.677 1034.353 1033.68 1032.293 1031.544 1030.771 1030.121 1029.705 1029.189 1027.979 1027.633 1027.438 1027.371 1027.072 1026.042 1025.408 1024.756 1024.487 1025.29 1025.534 1025.588 1025.523 1025.445 1025.372 
1023.061 1025.965 1037.106 1040.196 1040.995 1039.562 1035.831 1031.649 1036.992 1042.041 1046.316 1049.334 1050.489 1043.271 1038.268 1035.884 1035.228 1034.876 1034.14 1031.893 1030.616 1029.587 1028.86 1028.401 1027.03 1026.662 1026.578 1026.459 1026.384 1026.343 1025.282 1024.605 1023.915 1024.487 1024.757 1025.095 1025.181 1024.943 1024.884 1025.308 
1023.926 1028.119 1038.256 1039.298 1038.057 1035.079 1030.242 1025.934 1032.554 1037.513 1041.515 1044.385 1047.237 1045.109 1040.707 1038 1036.659 1036.211 1035.629 1031.333 1029.132 1027.663 1027.275 1026.813 1026.051 1025.822 1025.74 1025.636 1025.529 1025.347 1024.369 1023.728 1023.915 1023.547 1023.81 1024.554 1024.39 1024.307 1024.589 1024.994 
1024.42 1028.519 1034.06 1033.48 1031.429 1028.048 1023.725 1024.134 1028.744 1033.225 1037.101 1040.456 1045.179 1048.714 1045.89 1042.687 1039.509 1037.811 1036.67 1030.878 1026.977 1025.634 1025.527 1025.398 1025.084 1024.919 1024.857 1024.825 1024.704 1024.438 1023.399 1023.728 1023.151 1022.786 1022.777 1023.382 1023.475 1023.665 1024.116 1024.755 
1024.881 1028.112 1025.857 1024.787 1023.799 1021.666 1018.508 1018.367 1023.273 1028.067 1032.008 1036.349 1041.788 1051.449 1050.855 1048.169 1044.314 1040.742 1034.882 1030.176 1026.144 1024.667 1024.451 1024.323 1024.012 1023.9 1023.828 1023.798 1023.679 1023.413 1023.399 1022.694 1022.193 1021.941 1021.761 1022.452 1022.705 1023.001 1023.612 1024.316 
1023.091 1026.23 1021.017 1018.381 1017.461 1016.179 1014.016 1012.422 1016.57 1021.568 1026.329 1032.341 1038.525 1050.341 1052.135 1051.201 1047.967 1043.354 1036.096 1031.234 1026.527 1024.456 1024.111 1023.523 1023.06 1022.972 1022.872 1022.75 1022.549 1022.926 1022.393 1021.807 1021.324 1021.115 1020.861 1021.424 1021.708 1022.148 1022.887 1023.61 
1019.562 1021.25 1016.485 1013.286 1012.797 1012.482 1011.379 1010.384 1012.687 1017.664 1024.095 1030.608 1036.854 1048.249 1051.823 1052.457 1049.49 1045.133 1036.952 1032.404 1027.576 1024.772 1024.103 1023.403 1022.518 1022.218 1021.904 1022.75 1022.549 1021.943 1021.536 1021.096 1020.685 1020.326 1020.043 1020.022 1020.33 1020.775 1021.276 1021.88 
1015.717 1017.081 1013.748 1011.383 1010.366 1010.229 1010.15 1010.528 1012.751 1018.012 1024.872 1030.749 1040.993 1045.273 1048.525 1049.7 1049.023 1045.5 1037.155 1032.928 1028.14 1025.019 1024.217 1022.684 1022.087 1021.598 1021.904 1021.719 1021.524 1020.993 1020.676 1020.313 1019.954 1019.601 1019.253 1019.269 1019.408 1019.567 1019.745 1019.717 
1013.443 1014.341 1012.365 1010.665 1009.126 1009.042 1009.346 1011.168 1014.078 1019.496 1025.492 1029.727 1037.628 1039.884 1041.323 1042.307 1043.003 1042.693 1037.06 1032.834 1028.445 1025.326 1024.182 1022.436 1021.623 1021.598 1021.224 1020.813 1020.607 1020.191 1019.865 1019.457 1019.062 1018.784 1018.347 1018.444 1018.521 1018.434 1018.44 1018.442 
1012.761 1013.256 1011.532 1009.863 1008.487 1008.236 1008.607 1010.914 1014.716 1020.071 1025.015 1027.451 1031.123 1032.97 1034.431 1035.76 1036.795 1037.601 1035.601 1031.68 1028.055 1025.485 1024.137 1022.076 1021.623 1021.004 1020.564 1020.269 1019.838 1019.372 1018.995 1018.619 1018.339 1017.998 1017.466 1017.537 1017.451 1017.187 1017.31 1017.362 
1011.115 1010.935 1009.52 1007.865 1007.206 1007.18 1009.24 1011.268 1014.151 1017.782 1021.194 1023.262 1023.733 1025.503 1028.273 1030.405 1031.423 1032.265 1030.54 1028.727 1027.511 1025.579 1024.183 1022.076 1021.163 1020.502 1019.982 1019.453 1019.089 1018.469 1018.173 1017.891 1017.554 1017.267 1016.659 1016.502 1016.466 1016.479 1016.453 1016.464 
1007 1006.102 1005.23 1004.511 1004.741 1005.6 1008.82 1011.157 1013.547 1015.148 1015.595 1016.067 1015.822 1018.913 1023.525 1026.348 1026.772 1025.074 1025.226 1026.022 1026.311 1025.456 1024.183 1021.487 1020.423 1019.643 1019.112 1018.528 1017.789 1017.559 1017.342 1017.059 1016.798 1016.468 1015.867 1015.651 1015.642 1015.651 1015.644 1015.714 
1002.959 1002.061 1001.352 1001.566 1002.564 1003.698 1005.701 1008.163 1010.876 1011.712 1011.311 1010.743 1010.769 1012.924 1016.861 1020.292 1020.908 1018.484 1019.717 1022.089 1023.579 1025.456 1023.843 1020.473 1019.057 1018.378 1017.874 1017.45 1016.815 1016.595 1016.326 1016.028 1015.81 1015.522 1015.089 1014.828 1014.761 1014.835 1014.86 1014.95 
1001.027 1000.368 999.983 1000.273 1001.066 1002.123 1003.333 1003.733 1004.668 1006.07 1006.338 1006.881 1007.998 1009.961 1012.734 1014.54 1013.756 1011.833 1012.544 1022.089 1023.579 1023.493 1021.831 1018.499 1017.606 1016.925 1016.453 1016.128 1015.724 1015.451 1015.222 1015.019 1014.756 1014.455 1014.13 1013.98 1013.951 1014.071 1014.191 1014.236 
999.709 999.4627 999.4327 999.6809 1000.132 1000.632 1000.999 1000.91 1000.922 1001.092 1001.176 1003.001 1004.329 1006.072 1008.097 1008.861 1008.362 1009.63 1012.544 1014.83 1017.413 1018.953 1017.39 1016.654 1015.846 1015.384 1015.187 1015.061 1014.854 1014.687 1014.48 1014.239 1014.045 1013.556 1013.283 1013.146 1013.21 1013.412 1013.535 1013.5 
998.8916 998.7646 998.7557 998.9711 999.3262 999.5836 999.836 999.8489 999.8112 999.8018 999.9513 1000.504 1001.008 1001.764 1002.434 1002.813 1003.192 1009.63 1010.926 1012.909 1014.65 1016.74 1015.753 1014.992 1014.186 1014.072 1014.138 1014.226 1014.183 1014.062 1013.895 1013.7 1013.428 1012.813 1012.475 1012.331 1012.48 1012.764 1012.838 1012.811 
998.1363 998.0256 998.0349 998.2812 998.4816 998.9119 999.0032 999.0571 999.1115 999.1846 999.3321 999.7152 999.8687 999.9725 1000.078 1000.025 1003.192 1007.707 1010.811 1012.485 1013.734 1015.002 1014.061 1013.073 1012.631 1012.93 1013.177 1013.273 1013.267 1013.22 1013.118 1012.909 1012.64 1012.02 1011.714 1011.563 1011.633 1011.864 1011.938 1012.205 
997.5843 997.5512 997.6232 997.7412 997.9001 998.1275 998.286 998.3996 998.4577 998.5554 998.7792 999.2212 999.5206 999.7756 999.99 1000.025 1002.222 1005.95 1009.237 1011.324 1013.178 1013.649 1013.128 1012.428 1012.021 1011.882 1012.069 1012.297 1012.251 1012.186 1012.119 1011.938 1011.667 1011.13 1010.869 1010.752 1010.79 1010.93 1011.002 1011.491 
996.9429 996.9477 997.0073 997.2014 997.2921 997.7321 997.9296 998.0942 998.1933 998.2116 998.5223 999.146 999.6018 999.9786 999.99 1000.079 1002.136 1005.626 1008.887 1010.941 1012.854 1013.439 1012.681 1012.204 1011.613 1011.284 1011.222 1011.205 1011.185 1011.135 1011.031 1010.921 1010.695 1010.24 1010.06 1009.958 1009.966 1010.113 1010.453 1010.74 
996.2926 996.3743 996.5385 996.7747 996.9252 997.4122 997.6041 997.7812 998.0493 998.355 998.9785 999.4521 999.9835 999.9786 1000.216 1000.661 1004.696 1006.273 1007.944 1010.789 1012.443 1013.278 1012.583 1011.996 1011.325 1010.831 1010.572 1010.26 1010.185 1010.125 1010.015 1009.866 1009.679 1009.213 1008.99 1008.942 1009.155 1009.362 1009.725 1010.014 
995.7577 995.8742 996.1239 996.3682 996.5992 997.1423 997.4253 997.6771 998.0527 998.5496 999.3765 999.4521 999.9835 1000.459 1000.936 1002.372 1005.335 1007.043 1008.82 1010.45 1011.985 1013.05 1012.498 1011.763 1011.028 1010.405 1009.891 1009.319 1009.151 1009.048 1008.899 1008.746 1008.603 1008.147 1007.937 1008.021 1008.326 1008.57 1009.066 1009.352 
995.2245 995.4579 995.7007 995.9474 996.2604 996.9135 997.2755 997.7327 998.209 998.5701 999.3765 999.9681 1000.485 1001.227 1002.478 1003.274 1005.723 1007.173 1008.898 1010.532 1011.621 1012.866 1012.14 1011.148 1010.253 1009.563 1009.008 1008.3 1008.006 1007.828 1007.65 1007.549 1007.349 1007.216 1007.204 1007.372 1007.567 1007.807 1008.312 1008.555 
994.7979 995.0361 995.2934 995.6245 996.3707 996.732 997.2399 997.8121 998.3497 998.5701 999.9424 1000.416 1000.824 1001.488 1002.327 1003.343 1005.503 1006.869 1008.311 1009.522 1010.961 1011.898 1010.849 1009.908 1009.168 1008.551 1008.112 1007.305 1006.947 1006.743 1006.574 1006.471 1006.399 1006.416 1006.513 1006.675 1006.84 1007.076 1007.564 1007.807 
994.3303 994.6326 994.8787 995.2034 996.1514 996.6894 997.2161 997.8394 998.3497 999.0236 1000.133 1000.69 1001.239 1001.848 1002.528 1004.355 1005.258 1006.28 1007.418 1008.419 1009.28 1009.771 1008.998 1008.495 1007.943 1007.497 1007.088 1006.395 1006.094 1005.886 1005.729 1005.681 1005.655 1005.718 1005.871 1006.022 1006.188 1006.426 1006.872 1007.066 
993.8335 994.0289 994.368 994.7786 995.7534 996.3563 996.9927 997.8394 998.515 999.1189 1000.354 1000.904 1001.512 1002.106 1002.697 1003.935 1004.722 1005.537 1006.295 1007.056 1007.576 1007.737 1007.503 1007.174 1006.725 1006.375 1005.849 1005.651 1005.425 1005.189 1004.986 1004.974 1004.902 1005.008 1005.201 1005.405 1005.565 1005.996 1006.2 1006.399 
993.2597 993.5104 993.8441 994.2547 995.3225 995.9572 996.9927 997.6415 998.4792 999.1693 1000.316 1000.972 1001.556 1002.153 1002.718 1003.7 1004.28 1004.8 1005.263 1005.675 1006.1 1006.224 1006.082 1005.899 1005.569 1005.261 1004.898 1004.823 1004.696 1004.482 1004.279 1004.209 1004.211 1004.357 1004.545 1004.799 1005.021 1005.353 1005.572 1005.779 
992.5881 992.7833 993.1146 993.5183 994.702 995.9572 996.6993 997.3941 998.1447 999.5098 1000.21 1000.849 1001.422 1001.987 1002.489 1003.297 1003.653 1004.043 1004.335 1004.615 1005.089 1005.08 1004.926 1004.735 1004.493 1004.14 1003.869 1003.845 1003.785 1003.686 1003.497 1003.312 1003.554 1003.787 1003.989 1004.173 1004.417 1004.729 1004.887 1005.086 
991.9335 992.0452 992.3834 993.5183 994.702 995.4124 996.2052 997.0596 997.8901 999.3385 1000.126 1000.773 1001.263 1001.764 1002.246 1002.797 1002.971 1003.207 1003.511 1003.772 1004.189 1004.224 1004.033 1003.76 1003.477 1003.121 1002.584 1002.659 1002.959 1002.808 1002.612 1002.69 1002.917 1003.169 1003.406 1003.627 1003.797 1004.206 1004.35 1004.511 
991.1027 991.2297 992.3834 993.4336 993.989 994.7375 995.6552 996.4863 997.3366 999.0576 999.8098 1000.442 1001.025 1001.52 1001.941 1002.239 1002.353 1002.508 1002.715 1003.052 1003.49 1003.516 1003.284 1002.925 1002.528 1002.313 1001.735 1001.589 1001.74 1001.82 1001.749 1002.141 1002.322 1002.56 1002.85 1003.027 1003.25 1003.628 1003.884 1004.07 
990.2 991.2297 991.6295 992.6456 993.3165 994.0541 994.8876 995.7579 996.7379 998.4987 999.2946 999.9788 1000.662 1001.172 1001.609 1001.719 1001.9 1002.04 1002.153 1002.342 1002.77 1002.713 1002.462 1002.13 1001.796 1001.553 1000.943 1000.718 1000.672 1000.841 1001.015 1001.606 1001.84 1002.092 1002.324 1002.482 1002.718 1003.209 1003.424 1003.551 
990.2 990.3757 990.6987 991.8628 992.563 993.2875 994.1544 995.0555 995.8751 997.6072 998.4375 999.23 1000.029 1000.61 1001.101 1001.303 1001.455 1001.618 1001.724 1001.7 1002.005 1001.948 1001.633 1001.28 1001.019 1000.54 1000.205 999.9294 999.9785 1000.418 1000.801 1001.2 1001.379 1001.579 1001.818 1002.053 1002.297 1002.742 1002.899 1003.031 
989.4253 989.458 989.8523 990.9643 991.6752 992.4561 993.2775 994.0856 994.8954 996.6188 997.4732 998.3078 999.0573 999.7156 1000.514 1000.731 1000.916 1001.047 1001.062 1001.045 1001.14 1001.068 1000.78 1000.487 1000.286 999.7488 999.3907 999.2217 999.4241 999.8878 1000.376 1000.777 1000.822 1000.98 1001.298 1001.544 1001.96 1002.17 1002.386 1002.516 
988.5421 988.7212 989.0463 990.3393 990.985 991.6663 992.3926 993.1154 994.5955 995.4327 996.3502 997.2327 998.0491 998.7401 999.6797 999.9565 1000.15 1000.229 1000.249 1000.277 1000.159 1000.064 999.9092 999.6813 999.3876 998.782 998.5351 998.5308 998.8214 999.2586 999.6946 1000.029 1000.193 1000.457 1000.775 1001.017 1001.438 1001.591 1001.749 1001.913 
988.0289 988.1326 988.4461 989.5588 990.175 990.8274 991.4655 992.132 993.6749 994.4402 995.2299 996.0666 996.8871 997.6002 998.6353 998.9222 999.1055 999.1989 999.2692 999.2711 999.1541 999.0623 998.9493 998.7286 998.3635 997.988 997.8297 997.9297 998.2618 998.5482 999.1241 999.3376 999.6097 999.9374 1000.266 1000.586 1001.082 1001.285 1001.405 1001.913 
987.6486 987.8292 988.0681 989.0342 989.6133 990.1852 990.7729 991.3843 992.64 993.3956 994.1222 994.9003 995.6922 996.4269 997.468 997.7937 997.9712 998.0666 998.1819 998.2328 998.108 997.9697 997.8461 997.631 997.3912 997.1252 997.1572 997.4093 997.6474 997.8227 998.4576 998.7204 998.9897 999.3188 999.6445 999.9641 1000.516 1000.765 1001.405 1001.471 
987.2495 987.4996 988.0529 988.4629 988.9794 989.5562 990.1049 990.5863 991.6602 992.3549 993.0871 993.7761 994.5258 995.8073 996.2126 996.535 996.7288 996.8781 996.9847 997.1456 996.9971 996.8105 996.7178 996.6475 996.5278 996.4343 996.4981 996.7131 996.9406 997.1027 997.7442 998.0064 998.2673 998.593 998.9127 999.2332 999.8247 1000.765 1000.88 1000.951 
986.8322 987.0761 987.7148 988.0664 988.4316 988.8912 989.3616 989.8626 990.8971 991.3788 992.0029 992.7485 993.4847 994.5367 994.965 995.3192 995.5808 995.7589 995.8168 995.9292 995.9401 995.8597 995.825 995.8112 995.7567 995.7258 995.7864 995.9597 996.1139 996.2671 996.798 997.1221 997.4338 997.7747 998.173 998.5027 999.8247 1000.059 1000.274 1000.414 
986.3929 986.6411 987.2964 987.623 987.9446 988.2715 988.6583 989.0953 989.9873 990.5012 991.0875 991.6984 992.4366 993.4243 993.8262 994.2198 994.477 994.5583 994.6646 994.8613 994.9331 994.9833 995.0159 994.9921 995.0322 995.0565 995.1219 995.2417 995.4713 995.6331 996.0933 996.3763 996.6983 997.0367 998.173 998.8255 999.1004 999.2902 999.4351 999.5676 
985.8881 986.1331 986.78 987.1097 987.4191 987.7529 988.071 988.7013 989.1412 989.6337 990.1315 990.699 991.4047 992.3649 992.7114 993.0571 993.3193 993.4441 993.6483 993.925 993.9802 994.0504 994.1317 994.238 994.3804 994.3873 994.4342 994.5986 994.7527 994.9058 995.372 995.6017 995.8601 997.0367 997.4357 998.0892 998.3633 998.5592 998.672 998.7314 
985.4522 985.6966 986.3185 986.6548 986.9202 987.2299 987.5556 988.1034 988.4319 988.7859 989.225 989.7488 990.3097 991.3049 991.6758 992.0674 992.4058 992.5649 992.9144 993.0272 993.1481 993.173 993.2109 993.5029 993.6585 993.7242 993.7789 993.8873 994.1174 994.2811 994.6274 994.912 995.8601 996.1995 996.6039 997.2881 997.5222 997.6779 997.7301 997.8058 
984.9787 985.1985 985.8192 986.1567 986.4719 986.7468 987.0339 987.6 987.8685 988.1581 988.5037 988.7791 989.2593 990.3245 990.7984 991.1874 991.5036 991.7209 992.114 992.2181 992.3005 992.3574 992.4269 992.6041 992.9458 992.9916 993.0833 993.2586 993.4924 993.8676 994.1143 994.912 995.2414 995.5677 995.8784 996.4198 996.6502 996.7518 996.854 996.9775 
984.6169 985.0228 985.303 985.6204 985.957 986.2869 986.5687 987.0873 987.3848 987.6805 987.9271 988.1413 988.521 989.5492 990.031 990.4319 990.7961 991.0434 991.5327 991.6229 991.6326 991.7155 991.7868 991.8639 992.2292 992.3801 992.4608 992.619 992.7722 993.1309 994.1143 994.3484 994.6094 994.9131 995.1591 995.6717 995.8037 995.9683 996.108 996.123 
984.116 984.6254 984.8585 985.136 985.4768 985.8057 986.1031 986.6469 986.9102 987.205 987.4876 987.7401 988.4734 988.9304 989.3585 989.7802 990.1769 990.4181 990.916 991.0648 991.0789 991.0884 991.1592 991.3719 991.5348 991.6887 991.8408 991.9949 992.1472 993.1309 993.4301 993.7311 993.9343 994.1031 994.4119 994.8284 994.9788 995.1325 995.2086 995.1597 
983.7092 984.1578 984.4222 984.7301 985.0738 985.3939 985.6373 986.2499 986.4774 986.7512 987.0721 987.3281 988.0728 988.4165 988.8013 989.2104 989.5533 989.8713 990.3166 990.4819 990.5715 990.5652 990.6326 990.7419 990.9087 991.0617 991.2156 991.3688 992.1472 992.5182 992.7636 992.998 993.2336 993.4805 993.8832 994.0347 994.1859 994.2602 994.2903 994.4411 
983.2557 983.6678 983.9764 984.3029 984.5944 984.9215 985.5113 985.7594 986.0203 986.3391 986.654 986.9103 987.6783 987.9987 988.337 988.6855 989.0129 989.2748 989.7612 989.9213 989.9873 990.0403 990.0291 990.124 990.2272 990.3553 991.2156 991.3688 991.5226 991.9971 992.2449 992.4498 992.6096 992.8399 993.2588 993.4103 993.4645 993.4975 993.6619 993.7324 
982.7802 983.2733 983.5404 983.8258 984.1273 984.4583 984.9906 985.259 985.5806 985.9209 986.2387 986.4904 987.1695 987.4963 987.8343 988.1478 988.4012 988.881 989.1432 989.3099 989.3675 989.4257 989.4118 989.4286 989.5436 990.3553 990.615 990.8369 990.9189 991.3665 991.6075 991.8165 991.9747 992.1296 992.5212 992.6194 992.7213 992.835 992.9619 993.0386 
982.3146 982.8035 983.0681 983.3588 983.6539 983.9825 984.5095 984.8392 985.1743 985.5095 985.8312 986.0803 986.7007 987.0345 987.3048 987.6218 987.8649 988.3642 988.5052 988.6067 988.7484 988.8057 988.7919 988.7994 989.5436 989.7394 989.9877 990.2178 990.5274 990.7339 990.9322 991.1124 991.3377 991.5159 991.783 991.9258 992.1542 992.2974 992.392 992.4683 
982.025 982.309 982.6036 982.8894 983.1843 983.4588 984.0404 984.3403 984.6746 985.0064 985.3287 985.5844 986.1205 986.4598 986.7847 987.0991 987.3444 987.7765 987.9317 988.0523 988.1221 988.1827 988.1719 988.7994 988.9691 989.2316 989.4461 989.5902 989.8965 990.0392 990.2355 990.463 990.6379 990.8583 991.171 991.3712 991.5319 991.7184 991.8493 991.954 
981.5866 981.8329 982.1301 982.4199 982.7042 982.9993 983.5693 983.8899 984.2259 984.5701 984.8865 985.3481 985.691 985.9827 986.256 986.578 986.8257 987.1485 987.3096 987.4326 987.4963 987.5666 988.1719 988.2336 988.5112 988.7643 988.8055 988.8715 989.1623 989.3104 989.4988 989.7499 989.9869 990.162 990.6151 990.776 990.9506 991.1245 991.225 991.3893 
981.1519 981.3958 981.6855 982.0046 982.2519 982.5776 983.1346 983.4844 983.7913 984.0607 984.3882 984.8702 985.1781 985.4691 985.7353 986.0502 986.2196 986.5212 986.6835 986.8089 986.8733 987.5666 987.6314 987.7787 988.0527 988.2075 988.1985 988.2538 988.4471 988.6032 988.7914 989.0394 989.2809 989.7752 990.0304 990.2426 990.3712 990.4704 990.599 990.7272 
980.7256 980.9895 981.2391 981.5179 981.84 982.1713 982.7219 983.0249 983.3019 983.6147 983.8674 984.3465 984.6475 984.9516 985.1926 985.4276 985.5889 986.011 986.118 986.1803 986.8733 986.9408 987.1599 987.3214 987.4793 987.613 987.6652 987.662 987.861 988.0225 988.2194 988.454 988.7242 989.1972 989.437 989.6467 989.8092 989.9686 990.0421 990.105 
980.3091 980.5757 980.8415 981.1304 981.3387 981.9796 982.3133 982.6071 982.843 983.1179 983.4306 983.9277 984.1763 984.4227 984.6683 984.9046 985.218 985.379 986.118 986.1803 986.2448 986.3297 986.6737 986.7784 986.9545 987.0677 987.0646 987.1387 987.4031 987.5605 987.7767 987.9771 988.2855 988.7098 988.9183 989.1439 989.2934 989.4052 989.4794 989.5554 
979.8111 980.1105 980.4088 980.675 980.9625 981.5571 981.8502 982.1404 982.4175 982.5928 982.9135 983.4197 983.6608 983.9062 984.132 984.2875 984.5953 985.379 985.4947 985.5544 985.6425 985.8015 986.0402 986.1669 986.3285 986.4606 986.5514 986.7649 986.9527 987.1215 987.3041 987.5617 987.8026 988.2189 988.4331 988.6126 988.7231 988.8355 988.916 988.9648 
979.4514 979.704 979.9944 980.3065 980.5696 981.0701 981.3248 981.5719 981.8419 982.1538 982.4095 982.7915 983.0392 983.2823 983.5046 983.6651 984.5953 984.7555 984.8706 984.9666 985.1291 985.2738 985.4321 985.6554 985.772 985.8685 986.0286 986.2502 986.4688 986.6854 986.8611 987.1119 987.3547 987.7476 987.9373 988.0355 988.1559 988.2762 988.3525 988.337 
979.1098 979.4006 979.6427 979.9132 980.2296 980.7394 980.9422 981.1338 981.3849 981.6387 982.0597 982.2054 982.4022 982.6489 982.8925 983.6651 984.0836 984.1746 984.3232 984.531 984.595 984.6671 984.8877 985.0499 985.2145 985.3817 985.5433 985.7855 985.9553 986.1536 986.3314 986.5834 986.8299 987.2214 987.3555 987.4747 987.5868 987.6573 987.7844 987.7828 
978.7358 978.9924 979.257 979.5745 979.8406 980.3378 980.5337 980.7144 980.968 981.2095 981.6003 981.7913 981.9842 982.2063 982.8925 983.1316 983.4388 983.6653 983.8541 983.9026 983.981 984.3091 984.4719 984.6198 984.7701 984.9507 985.1079 985.3541 985.5215 985.6755 985.8487 986.0657 986.3105 986.6742 986.7847 986.8898 986.9591 987.0381 987.1791 987.2168 
978.4167 978.6631 978.9152 979.1752 979.421 979.9176 980.1159 980.2996 980.5329 980.7013 981.1191 981.2628 981.4592 982.2063 982.3737 982.6061 982.8814 983.144 983.3182 983.3824 983.4835 983.7816 983.9494 984.0552 984.1707 984.4196 984.5857 984.9125 985.0703 985.2283 985.3839 985.5466 985.9692 986.1373 986.2626 986.3267 986.3922 986.4139 986.6767 986.7566 
978.013 978.259 978.5043 978.7491 979.2442 979.4987 979.6986 979.8795 980.1156 980.2783 980.593 980.7443 981.4592 981.683 981.8479 982.0773 982.4171 982.5739 982.6959 982.8122 983.0428 983.2734 983.4613 983.5763 983.6819 983.8995 984.0678 984.3842 984.5655 984.7549 984.9149 985.0802 985.456 985.5883 985.7038 985.8193 985.8882 985.9323 986.1685 986.3126 
977.6846 977.9322 978.1795 978.4273 978.8572 979.0713 979.2808 979.4599 979.6968 979.8598 980.593 980.7443 980.9373 981.1654 981.3263 981.7061 981.8998 982.0515 982.213 982.3788 982.5266 982.8215 983.0093 983.1312 983.2675 983.4181 983.7039 983.8579 984.0734 984.3103 984.4595 984.6161 984.9624 985.0342 985.1494 985.3035 985.3704 985.4456 985.7228 985.8814 
977.2787 977.5283 977.773 978.0185 978.4417 978.6499 978.8681 979.0211 979.1791 979.8598 980.1725 980.331 980.4845 980.6627 980.8995 981.222 981.3714 981.5313 981.6879 981.8503 982.0295 982.3568 982.4706 982.5891 982.8229 983.0117 983.2286 983.4004 983.5596 983.7305 983.9409 984.1497 984.4988 984.5911 984.6746 984.7903 984.9188 985.1441 985.3125 985.4722 
976.9167 977.0992 977.3519 977.5979 978.0248 978.2286 978.449 978.6027 979.1791 979.3365 979.6501 979.8019 979.9969 980.2244 980.3844 980.7443 980.8665 981.0405 981.2153 981.3914 981.616 981.8856 982.0385 982.1498 982.3768 982.5574 982.7965 982.9466 983.0823 983.2117 983.4268 983.6749 984.0796 984.194 984.2533 984.3483 984.5059 984.7295 984.896 985.0663 
976.5456 976.7626 976.9373 977.1746 977.5586 977.8149 978.0281 978.6027 978.7612 979.0861 979.1805 979.3338 979.5629 979.715 979.8724 980.246 980.4537 980.6641 980.8959 981.0366 981.3054 981.4319 981.54 981.6929 981.981 982.0945 982.2979 982.4155 982.5841 982.7381 982.9028 983.1486 983.5946 983.7355 983.8464 983.9371 984.092 984.3135 984.4867 984.6154 
976.1399 976.3541 976.5182 976.7539 977.1437 977.3533 978.0281 978.1822 978.3423 978.6592 978.8271 978.9876 979.1431 979.3043 979.4649 979.7769 979.9691 980.22 980.4326 980.537 980.8863 981.029 981.145 981.2645 981.5038 981.6377 981.7738 981.8882 982.0793 982.288 982.4521 982.8773 983.1138 983.3141 983.4424 983.5236 983.6777 983.8976 984.0721 984.1953 
975.617 975.8525 976.0938 976.5085 976.7206 977.3533 977.4984 977.676 977.9068 978.1946 978.407 978.5684 978.7283 978.8884 979.0492 979.3685 979.5358 979.7352 979.9521 980.1242 980.4156 980.568 980.7062 980.8511 981.0443 981.1177 981.2977 981.4424 981.6235 981.8156 981.9676 982.3442 982.6082 982.8242 982.9704 983.1158 983.2734 983.48 983.6589 983.7863 
975.0928 975.3294 975.5695 976.0596 976.7206 976.9327 977.0886 977.2473 977.4025 977.7183 977.9239 978.138 978.296 978.4711 978.8126 978.9813 979.1797 979.3929 979.5397 979.6741 979.9692 980.0803 980.2389 980.3749 980.5303 980.66 980.8088 980.9882 981.1406 981.3031 981.5157 981.902 982.1211 982.2881 982.4469 982.6077 982.7661 983.0763 983.1956 983.2938 
974.5626 974.804 975.5695 976.0596 976.2465 976.4426 976.6748 976.8324 976.991 977.3135 977.4705 977.6194 977.8002 978.0493 978.4642 978.6567 978.8096 978.9713 979.1188 979.1964 979.5292 979.6995 979.8008 979.8463 980.011 980.1819 980.2542 980.3859 980.5618 980.7862 981.0318 981.5031 981.6999 981.8486 982.0102 982.1713 982.4929 982.665 982.7797 982.8688 
974.038 974.804 975.0447 975.5277 975.7729 976.0206 976.2383 976.4031 976.5614 976.8777 977.045 977.2218 977.411 977.639 978.0724 978.2229 978.3873 978.5566 978.7104 978.7914 978.9868 979.2057 979.3579 979.3873 979.4967 979.658 979.7261 979.8245 980.0142 980.2647 980.5104 980.9964 981.2382 981.4455 981.5964 981.7559 982.0833 982.1867 982.2914 982.4606 
974.038 974.2793 974.5206 975.0045 975.2545 975.4576 975.6279 975.8703 976.1934 976.343 976.5536 976.835 977.0706 977.2285 977.6778 977.8556 978.0027 978.1409 978.2963 978.3809 978.5313 978.6121 978.752 978.9287 978.9937 979.0956 979.1729 979.3228 979.4976 979.7443 979.9894 980.5305 980.7753 980.955 981.1793 981.3411 981.6597 981.8232 981.9426 982.0392 
973.5143 973.76 974.0032 974.4807 974.731 974.94 975.1125 975.3499 975.6722 975.8304 976.0879 976.4163 976.6511 976.8403 977.323 977.519 977.6389 977.7258 977.8837 978.0103 978.0719 978.1285 978.1699 978.2889 978.4749 978.5333 978.6035 978.7475 978.9881 979.2336 979.7095 980.0078 980.2941 980.5297 980.7678 980.925 981.2414 981.4081 981.53 981.6208 
973.0089 973.3347 973.5844 973.9518 974.2094 974.4204 974.5918 974.8292 975.1658 975.385 975.6819 975.9962 976.2446 976.5281 976.929 977.0913 977.2216 977.3152 977.4743 977.5499 977.5767 977.6308 977.6873 977.6843 977.813 977.9719 978.0321 978.1963 978.3895 978.63 979.1552 979.5369 979.8822 980.0873 980.2625 980.498 980.8231 980.9908 981.1142 981.2025 
972.4762 972.8045 973.2343 973.4378 973.6868 973.9028 974.0722 974.3085 974.7008 974.9491 975.2288 975.55 975.831 976.3495 976.5154 976.6836 976.8168 976.8963 977.0135 977.0844 977.1213 977.1648 977.1727 977.165 977.2355 977.3733 977.4852 977.5911 977.7642 978.002 978.5903 979.0176 979.4044 979.6786 979.8287 979.989 980.4196 980.5231 980.6171 981.2025 
971.8746 972.2723 972.7787 972.9725 973.1512 973.365 973.5515 973.79 974.1743 974.4194 974.6915 975.0347 975.3651 975.864 976.0605 976.2166 976.3732 976.4844 976.5089 976.6343 976.6685 976.6749 976.6744 976.7238 976.7264 976.7881 976.8798 976.9666 977.1299 977.3643 978.0616 978.4897 978.8751 979.1808 979.4089 979.5705 979.9377 980.0378 980.6171 980.7852 
971.4297 971.7409 972.2023 972.4393 972.5815 972.773 973.0274 973.2734 973.6672 973.9136 974.2043 974.5115 974.8368 975.345 975.544 975.701 975.8557 975.9611 976.0005 976.1558 976.185 976.1558 976.1677 976.2459 976.2222 976.2117 976.2341 976.3536 976.5989 976.9154 977.5734 977.9546 978.3481 978.653 978.8936 979.3132 979.4668 980.0378 980.2053 980.3666 
970.8008 971.124 971.6179 971.8047 972.0084 972.2631 972.5077 973.0076 973.2074 973.4496 973.7378 973.9917 974.3207 974.7963 974.9706 975.1323 975.2711 975.3404 975.4158 975.5658 975.6322 975.6585 975.6412 975.653 975.7128 975.7396 975.7625 975.8032 976.0627 976.3951 977.0468 977.424 977.8163 978.1401 978.463 978.896 979.4668 979.6279 979.7899 979.9308 
970.3014 970.6138 971.0316 971.2403 971.498 971.7462 971.9885 972.4779 972.7285 972.9752 973.213 973.4657 973.7522 974.188 974.3383 974.5083 974.6502 974.7236 974.8696 974.9431 975.0192 975.0919 975.1342 975.1177 975.1595 975.2233 975.3111 975.4784 975.7255 975.9785 976.629 976.9506 977.3063 977.7134 978.463 978.896 979.0496 979.2161 979.3496 979.4277 
969.8594 970.0837 970.4952 970.7726 970.9948 971.1945 971.4642 971.9593 972.205 972.453 972.7026 972.9498 973.1959 973.6148 973.7648 973.8793 974.0328 974.1077 974.2529 974.327 974.3963 974.4644 974.5383 974.5953 974.6236 974.7395 974.8952 975.0711 975.312 975.7978 976.0869 976.4538 976.9108 977.7134 978.0429 978.4781 978.6324 978.7945 978.927 979.0163 
969.3533 969.7395 970.0236 970.3035 970.4858 970.6058 970.9343 971.4399 971.6928 971.9211 972.1285 972.3745 972.5751 972.9385 973.1719 973.3273 973.416 973.4891 973.6356 973.7034 973.8068 973.9373 974.0121 974.0782 974.1539 974.3237 974.4731 974.66 974.9787 975.5331 975.9286 976.3157 976.9108 977.3827 977.6349 978.0604 978.2217 978.3441 978.4269 978.5927 
968.9228 969.3211 969.5117 969.7034 969.9126 970.1273 970.422 970.9289 971.1555 971.3552 971.5607 971.749 972.1021 972.3087 972.5065 972.6865 972.7979 972.8649 973.009 973.0744 973.1872 973.334 973.4068 973.6202 973.735 973.8957 974.0749 974.3329 974.6609 975.3153 975.7603 976.3157 976.6747 977.0609 977.2322 977.6428 977.8029 977.9354 978.0338 978.1943 
968.429 968.8538 969.0678 969.2851 969.4577 969.7108 969.9151 970.389 970.5593 970.7252 970.9288 971.138 971.5448 971.72 971.835 971.9594 972.1897 972.3339 972.4789 972.5494 972.6195 972.7169 972.8641 973.1642 973.3787 973.5869 973.753 974.0242 974.4288 975.2162 975.7603 976.2167 976.5478 976.8442 977.0555 977.2205 977.3804 977.5425 977.7119 977.8708 
968.0145 968.4344 968.6371 968.8428 969.0465 969.2552 969.6234 969.7728 969.9304 970.0864 970.2434 970.4425 970.9523 971.1001 971.251 971.3765 971.491 971.6508 971.8878 971.99 972.1172 972.1917 972.351 972.7676 972.9128 973.1017 973.3406 973.601 974.0012 975.2162 975.7519 976.1733 976.4003 976.5324 976.6365 976.8022 976.97 977.1456 977.3061 977.4512 
967.5216 967.9473 968.1699 968.3686 968.5697 968.7296 969.0663 969.205 969.373 969.5396 969.6987 969.8585 970.2456 970.3966 970.5583 970.7168 970.8417 971.0006 971.1783 971.3417 971.4249 971.5729 971.7343 972.0759 972.2775 972.5916 972.823 973.0669 974.0012 974.8279 975.2795 975.7679 976.1295 976.2018 976.2322 976.3772 976.6007 976.8255 976.9747 977.0452 
966.9743 967.4653 967.7255 967.9518 968.1054 968.2679 968.5538 968.7029 968.8431 968.9539 969.1198 969.2792 969.5886 969.7576 969.8877 969.9969 970.2111 970.4153 970.5857 970.7451 970.8929 971.0469 971.2029 971.5788 971.7688 971.9816 972.823 973.0669 973.8558 974.3124 974.6588 974.9955 975.3577 975.5113 975.6268 975.9424 976.2433 976.4022 976.5566 976.6625 
966.8155 967.0654 967.2978 967.4839 967.6384 967.8046 968.0631 968.1464 968.2679 968.3932 968.4929 968.6454 968.9695 969.0916 969.1866 969.3555 969.5992 969.8414 969.9553 970.115 970.297 970.5289 970.6884 970.9893 971.1804 971.9816 972.2963 972.5527 973.3586 973.7186 973.9969 974.217 974.4362 974.588 974.9329 975.3344 975.6957 975.9413 976.1247 976.3301 
966.3679 966.5975 966.8074 966.9761 967.1791 967.2992 967.559 967.6206 967.698 967.8098 967.9515 968.2714 968.4378 968.5585 968.6232 968.7162 968.8796 969.2501 969.4506 969.5651 969.6472 969.8149 970.0479 970.4196 971.1804 971.4561 971.7873 972.1139 972.6792 973.0188 973.324 973.4903 973.7211 973.8793 974.3122 974.6323 974.9626 975.2834 975.5298 975.8533 
965.8991 966.0946 966.2795 966.4584 966.6422 966.7202 966.9642 967.0696 967.1896 967.2551 967.355 967.6663 967.8306 967.9464 968.0319 968.1888 968.3441 968.6201 968.8312 968.9796 969.114 969.1881 969.5507 970.4196 970.6611 970.9283 971.2379 971.4852 972.0699 972.2971 972.5256 972.7627 972.9954 973.387 973.6339 973.9152 974.2324 974.5458 974.787 975.2253 
965.4644 965.6733 965.8053 965.9232 966.0779 966.1618 966.4269 966.5 966.6133 966.7471 966.8254 967.1346 967.3003 967.4225 967.4841 967.5729 967.7247 967.9743 968.1312 968.3566 968.5079 968.6566 969.5507 969.7962 970.0385 970.27 970.5098 970.834 971.4283 971.6775 971.8912 972.0524 972.2961 972.7082 972.9578 973.2413 973.4971 973.821 974.1016 974.5325 
965.08 965.2343 965.3432 965.4683 965.5725 965.7455 965.8243 965.9299 966.0646 966.1447 966.2184 966.5237 966.681 966.8391 966.9668 967.0417 967.3643 967.4676 967.5259 967.6154 967.7859 968.6566 968.8502 969.1103 969.4146 969.621 969.7923 970.0964 970.706 970.9999 971.278 971.4395 971.6804 972.1232 972.3175 972.5376 972.8062 973.1364 973.4379 973.9011 
964.6594 964.7296 964.8372 964.996 965.0704 965.2173 965.2909 965.3672 965.4728 965.6115 965.6845 965.9891 966.1472 966.3054 966.4651 966.6136 966.7689 966.8403 966.9046 967.0014 967.7859 968.0167 968.341 968.4883 968.6657 968.8953 969.1352 969.7728 970.0778 970.3528 970.6367 970.8176 971.0568 971.558 971.7438 971.9172 972.1934 972.5154 972.7607 973.2561 
964.1456 964.2078 964.2931 964.3926 964.4731 964.6194 964.6856 964.791 964.9269 965.0125 965.1523 965.4695 965.6273 965.7845 965.9446 966.0977 966.2478 966.3182 966.9046 967.0014 967.1421 967.2177 967.6033 967.8129 967.9886 968.067 968.3082 969.0164 969.3445 969.6411 969.9505 970.195 970.4366 970.9279 971.1429 971.3293 971.5651 971.892 972.3864 972.6334 
963.7008 963.772 963.8527 963.9176 963.9285 964.0695 964.148 964.2263 964.3206 964.474 964.798 964.9517 965.1061 965.263 965.4229 965.5786 965.6639 966.3182 966.3895 966.4555 966.5337 966.6804 966.857 967.0678 967.2479 967.3349 967.5677 968.1746 968.6217 969.0063 969.3093 969.5725 969.8129 970.302 970.554 970.7785 970.9876 971.2732 971.7586 972.0017 
963.2098 963.2836 963.3593 963.4321 963.4943 963.6522 963.6774 963.7235 963.8748 963.9586 964.1611 964.3802 964.5909 964.7446 964.8926 964.9675 965.6639 965.691 965.7678 965.8344 965.9045 966.0412 966.0883 966.2219 966.4046 966.5156 966.7123 967.3977 967.8822 968.2786 968.6198 968.9471 969.2292 969.6732 969.9199 970.1655 970.4114 970.6523 971.2056 971.4527 
962.7806 962.848 962.9287 962.9975 963.0046 963.1418 963.2083 963.2788 963.3596 963.4365 963.7451 963.8981 964.1013 964.3085 964.3788 964.9675 965.1044 965.1841 965.2188 965.2122 965.2823 965.4236 965.4264 965.4208 965.5355 965.7339 965.8192 966.5364 967.0755 967.5577 968.0071 968.3681 968.8826 969.1017 969.3506 969.5923 969.8375 970.0847 970.6183 970.8619 
962.2513 962.3722 962.4369 962.509 962.6411 962.7179 962.7936 962.8687 962.942 963.012 963.2202 963.3843 963.5411 963.7029 964.3788 964.4447 964.4763 964.5569 964.5964 964.5903 964.6498 964.7363 964.7156 964.7291 964.7833 964.8476 964.9561 965.5346 966.1746 966.8118 967.4368 967.8083 968.2933 968.5363 968.8038 969.0874 969.3271 969.57 970.096 970.3454 
961.6714 961.7858 961.9188 961.9938 962.1408 962.2105 962.2808 962.3506 962.436 962.5875 962.806 962.9204 963.0191 963.7029 963.8427 963.8989 963.915 963.9379 963.9926 963.9753 963.9709 964.1066 964.1374 964.1199 964.1395 964.181 964.2351 964.5432 965.2611 966.1743 966.8222 967.2257 967.72 967.9604 968.2239 968.517 968.8038 969.0464 969.6425 969.852 
961.137 961.244 961.4012 961.4775 961.6091 961.7368 961.8679 961.9364 962.0079 962.0818 962.3355 962.3936 963.0191 963.1646 963.2343 963.3846 963.4025 963.4252 963.4819 963.4943 963.5695 963.6242 963.6546 963.6936 963.7698 963.7796 963.8276 964.085 964.8226 965.7555 966.2729 966.6567 967.1898 967.4608 967.6874 967.9459 968.2847 968.8743 969.1342 969.3303 
960.7112 960.7921 960.8755 960.9527 961.1992 961.2686 961.3466 961.4158 961.4971 961.7422 962.3355 962.3936 962.4973 962.6479 962.7161 962.8305 962.9013 962.9191 963.0004 963.084 963.178 963.2943 963.3501 963.4608 963.5421 963.6255 963.787 964.0742 964.704 965.4277 965.82 966.0901 966.6066 966.899 967.1965 967.4897 967.7718 968.3686 968.6097 968.8132 
960.2923 960.3682 960.4446 960.5247 960.7405 960.8618 960.9283 961.0016 961.0746 961.7422 961.8085 961.8749 961.9763 962.1254 962.2014 962.3467 962.4182 962.5009 962.5886 962.6908 962.9531 963.0401 963.1873 963.3448 963.4501 963.5671 963.8615 964.0971 964.5231 964.9458 965.2286 965.5622 966.0585 966.3451 966.6909 967.0085 967.2516 967.8149 968.0956 968.295 
959.9734 960.0546 960.1224 960.121 960.2633 960.3377 960.4107 960.481 961.0746 961.2208 961.2952 961.3597 961.4531 961.6038 961.6909 961.8627 961.9601 962.0974 962.2763 962.4523 962.7202 962.8563 963.0368 963.2072 963.3836 963.559 963.9051 964.0966 964.2869 964.468 964.7137 965.2712 965.5198 965.8176 966.1682 966.4862 966.7312 967.2766 967.5787 967.774 
959.5714 959.6465 959.7225 959.7985 959.8373 959.9201 959.9987 960.481 960.5587 960.8164 960.9032 960.9511 960.9907 961.1628 961.34 961.6874 961.9073 962.1349 962.3042 962.4974 962.7727 962.9017 963.08 963.2516 963.4279 963.5984 963.8876 964.0546 964.2244 964.4536 964.7098 965.0095 965.1486 965.3196 965.5848 965.9282 966.194 966.796 967.045 967.2861 
