NCOLS 41
NROWS 41
XLLCORNER 279537.98
YLLCORNER 3944311.5
CELLSIZE 10
NODATA_VALUE -9999
81.62553 81.62093 81.61176 81.59643 81.55717 81.55035 81.54448 81.54186 81.54201 81.54202 81.54202 81.54916 81.55733 81.56839 81.5924 81.60756 81.61772 81.62999 81.64371 81.65337 81.678 81.70644 81.72655 81.73957 81.76617 81.81168 81.829 81.85457 81.88578 81.90699 81.93307 81.95002 81.96799 81.98132 81.99003 82.01943 82.03829 82.0483 82.06044 82.07774 82.09659 
81.64572 81.64249 81.63027 81.61761 81.59022 81.5722 81.55761 81.54531 81.54166 81.54202 81.54202 81.5416 81.54577 81.55487 81.57106 81.58643 81.59698 81.6084 81.62519 81.659 81.67667 81.69881 81.72015 81.74243 81.76546 81.8236 81.84843 81.86142 81.88077 81.9051 81.93851 81.95824 81.97792 81.99062 82.00002 82.03505 82.04694 82.06326 82.07961 82.09109 82.11301 
81.66199 81.65742 81.65314 81.64394 81.62054 81.60372 81.58242 81.56454 81.55606 81.54202 81.54202 81.54205 81.54154 81.54373 81.5604 81.56783 81.58183 81.59439 81.6041 81.64715 81.67415 81.69454 81.7201 81.75127 81.79399 81.82367 81.84442 81.86284 81.88615 81.90845 81.9457 81.96709 81.98412 81.99527 82.01073 82.04455 82.06126 82.07898 82.093 82.10786 82.13366 
81.67775 81.67687 81.6755 81.65845 81.64997 81.63628 81.61391 81.59174 81.55606 81.54189 81.54202 81.54202 81.54202 81.54195 81.54955 81.55799 81.56563 81.57688 81.59616 81.63968 81.67001 81.70515 81.73123 81.74999 81.80215 81.82758 81.84754 81.87487 81.90261 81.94086 81.96151 81.98308 81.99924 82.01067 82.02438 82.05865 82.07959 82.09588 82.11022 82.12827 82.15383 
81.69445 81.69503 81.68864 81.67942 81.67134 81.6636 81.65134 81.59174 81.56108 81.55268 81.5448 81.54184 81.54205 81.54202 81.54195 81.5463 81.56073 81.57455 81.5834 81.64461 81.67529 81.69845 81.72882 81.75959 81.81023 81.83987 81.86436 81.88815 81.91048 81.94723 81.97341 81.99348 82.01305 82.03218 82.04514 82.07937 82.09616 82.11339 82.13075 82.14825 82.17332 
81.70868 81.7085 81.70805 81.69978 81.69188 81.6636 81.65134 81.63084 81.59137 81.57555 81.56538 81.55811 81.54948 81.54261 81.54266 81.54105 81.55092 81.56968 81.58924 81.64908 81.68204 81.71111 81.74161 81.77402 81.82757 81.85933 81.88299 81.90517 81.92883 81.97349 81.99625 82.01014 82.02674 82.04775 82.08286 82.09956 82.11581 82.13306 82.15077 82.16796 82.2008 
81.72748 81.72807 81.72909 81.72971 81.69188 81.6843 81.67612 81.66866 81.63481 81.60963 81.59029 81.57885 81.57164 81.55564 81.55498 81.55408 81.56842 81.59186 81.61132 81.66948 81.69547 81.72549 81.75935 81.79173 81.85142 81.88064 81.90733 81.93371 81.95533 81.9932 82.01569 82.03425 82.05109 82.06815 82.09557 82.1166 82.14208 82.15845 82.16962 82.20518 82.22285 
81.74943 81.74618 81.73923 81.72971 81.71656 81.7042 81.69691 81.68912 81.67407 81.65266 81.63287 81.61658 81.60267 81.58873 81.58743 81.58691 81.59481 81.61256 81.64722 81.67781 81.71365 81.74052 81.76573 81.80122 81.86044 81.88924 81.91982 81.94808 81.97092 82.00784 82.03336 82.05428 82.07069 82.08798 82.11897 82.13797 82.1579 82.17882 82.19695 82.22487 82.24241 
81.75912 81.76282 81.73923 81.74096 81.73372 81.73057 81.72856 81.7206 81.69668 81.68835 81.67085 81.64845 81.63441 81.62833 81.62245 81.61968 81.62247 81.636 81.67989 81.70049 81.73487 81.76344 81.78399 81.84332 81.87293 81.8986 81.92677 81.9556 81.98117 82.02855 82.05379 82.07466 82.09061 82.10777 82.14233 82.15874 82.17452 82.19718 82.21914 82.24397 82.26109 
81.7795 81.76282 81.76105 81.76019 81.76177 81.75684 81.75256 81.74953 81.73416 81.72241 81.71214 81.69854 81.67781 81.66145 81.65959 81.66175 81.66176 81.66759 81.70959 81.72844 81.75869 81.79227 81.81761 81.86208 81.89307 81.92032 81.94449 81.96973 81.99473 82.04584 82.06921 82.0907 82.11168 82.1278 82.16181 82.18437 82.20464 82.22243 82.24036 82.27369 82.29074 
81.7795 81.77988 81.78088 81.78182 81.77502 81.77718 81.77819 81.76167 81.75507 81.74964 81.7408 81.73457 81.72649 81.70311 81.69433 81.69756 81.70498 81.70601 81.73869 81.76048 81.77741 81.80378 81.83807 81.88853 81.90941 81.93565 81.96761 81.99596 82.03053 82.06412 82.08676 82.10275 82.12443 82.1479 82.18094 82.20551 82.22701 82.24238 82.26189 82.29645 82.31863 
81.79467 81.80145 81.80156 81.79448 81.79239 81.78865 81.78276 81.78516 81.78641 81.77549 81.76199 81.75817 81.75665 81.74073 81.73788 81.73936 81.74236 81.74392 81.77039 81.78136 81.80171 81.83062 81.85523 81.9119 81.93063 81.959 81.99116 82.01257 82.064 82.08728 82.10967 82.1346 82.15475 82.18324 82.20779 82.22859 82.2504 82.27253 82.28929 82.32417 82.31863 
81.80045 81.80354 81.81243 81.81316 81.80672 81.80688 81.81174 81.80398 81.80527 81.8074 81.79914 81.7883 81.78154 81.77479 81.7802 81.78044 81.77597 81.78038 81.80025 81.82063 81.84111 81.85987 81.87845 81.93019 81.95991 81.98417 82.00803 82.03508 82.08437 82.11234 82.1354 82.1537 82.17362 82.22031 82.23293 82.24708 82.26952 82.2962 82.3202 82.32417 82.34224 
81.82202 81.82148 81.83103 81.83378 81.82874 81.81946 81.81637 81.81647 81.82222 81.82038 81.81674 81.81599 81.81338 81.81103 81.81116 81.81268 81.81684 81.82586 81.83625 81.85706 81.87067 81.884 81.90986 81.95211 81.9771 82.0021 82.03381 82.06566 82.10667 82.13493 82.16129 82.1814 82.19844 82.24397 82.26898 82.28162 82.29802 82.3231 82.3378 82.35531 82.36546 
81.8326 81.83193 81.84087 81.83605 81.83784 81.84545 81.84315 81.83586 81.83634 81.83537 81.83696 81.83979 81.84905 81.8391 81.83878 81.8457 81.84947 81.86501 81.87434 81.88535 81.90022 81.91983 81.94007 81.97836 81.99937 82.025 82.05809 82.08855 82.13697 82.15836 82.18099 82.20415 82.21942 82.2626 82.2826 82.30357 82.32981 82.3231 82.35799 82.37535 82.39254 
81.83488 81.84241 81.8428 81.85017 81.85505 81.85499 81.85516 81.8567 81.85653 81.85084 81.85537 81.86534 81.86771 81.87429 81.8722 81.87427 81.88293 81.89479 81.89957 81.90855 81.92697 81.94959 81.9875 81.99863 82.02032 82.047 82.07368 82.10129 82.15167 82.18267 82.20626 82.22566 82.25068 82.29345 82.31007 82.33368 82.32981 82.35369 82.38811 82.40549 82.42368 
81.84277 81.85239 81.86202 81.86383 81.86785 81.87485 81.87369 81.87376 81.86974 81.87254 81.87988 81.87827 81.88465 81.89426 81.89612 81.89609 81.90266 81.92523 81.93137 81.94082 81.95512 81.97511 82.01884 82.03284 82.05061 82.07458 82.09816 82.14304 82.16931 82.19612 82.22114 82.24561 82.27157 82.32303 82.34187 82.33368 82.35641 82.37614 82.41018 82.43255 82.45404 
81.85533 81.86263 81.87004 81.87412 81.8733 81.8757 81.88531 81.8849 81.88664 81.89236 81.89633 81.89665 81.90236 81.90703 81.91625 81.92143 81.92302 81.95068 81.95606 81.96442 81.98258 82.00517 82.04158 82.05872 82.07445 82.09588 82.12247 82.17167 82.19104 82.21946 82.24972 82.27571 82.30027 82.32303 82.34187 82.35828 82.38039 82.40232 82.43691 82.45674 82.47358 
81.85516 81.86426 81.87036 81.88013 81.88518 81.88441 81.89637 81.89796 81.90264 81.90781 81.90858 81.9102 81.93008 81.93102 81.93496 81.94225 81.9486 81.97134 81.9756 81.98345 82.00301 82.02795 82.0676 82.08601 82.10782 82.12616 82.14125 82.19384 82.21079 82.23953 82.27199 82.29333 82.31784 82.34269 82.3692 82.39007 82.40624 82.4261 82.46146 82.47569 82.49922 
81.8652 81.88206 81.88419 81.88886 81.89333 81.897 81.91286 81.916 81.91763 81.92195 81.92737 81.93614 81.94424 81.9523 81.96109 81.97108 81.97932 81.99052 82.00409 82.01417 82.02671 82.0472 82.09024 82.10847 82.1312 82.1532 82.16766 82.21313 82.23761 82.26341 82.28928 82.29333 82.34541 82.36548 82.38775 82.41422 82.44098 82.47331 82.48945 82.51499 82.53143 
81.87276 81.88021 81.88961 81.89331 81.89742 81.90686 81.9144 81.91932 81.93039 81.9383 81.94269 81.95068 81.957 81.97466 81.98645 81.9902 82.00219 82.01037 82.02601 82.04265 82.05512 82.06622 82.10934 82.13509 82.15551 82.17602 82.19907 82.23285 82.26409 82.29443 82.28928 82.31771 82.36861 82.39228 82.41917 82.44031 82.45961 82.51199 82.53118 82.54805 82.56561 
81.87508 81.88365 81.89003 81.89951 81.90907 81.9152 81.92381 81.92761 81.93755 81.95056 81.9594 81.97163 81.97948 81.98779 81.99599 82.00524 82.02885 82.03304 82.04489 82.0635 82.08007 82.113 82.13136 82.14992 82.17083 82.19572 82.22185 82.27162 82.29121 82.29443 82.31944 82.3458 82.3884 82.41228 82.43859 82.46453 82.49084 82.53307 82.55747 82.5785 82.59583 
81.88242 81.89012 81.8988 81.90849 81.91951 81.92619 81.93392 81.94012 81.94939 81.96047 81.96837 81.98605 81.99503 81.99994 82.00769 82.01918 82.04541 82.05328 82.06552 82.08355 82.09872 82.12603 82.14967 82.16817 82.1943 82.22355 82.2419 82.29326 82.29121 82.31335 82.33971 82.36552 82.41724 82.43541 82.46326 82.49588 82.51876 82.56144 82.58035 82.60398 82.62691 
81.88102 81.88948 81.89919 81.91326 81.92538 81.92928 81.9437 81.94914 81.95524 81.96685 81.97897 81.99543 82.00404 82.01202 82.02297 82.03587 82.06292 82.06622 82.08133 82.10538 82.1184 82.1512 82.17184 82.18837 82.21025 82.2373 82.27834 82.29326 82.31796 82.34343 82.37002 82.39409 82.43646 82.47019 82.49376 82.51775 82.54907 82.58311 82.60793 82.63417 82.65607 
81.88104 81.8885 81.9015 81.91512 81.9226 81.93461 81.94836 81.95953 81.96372 81.96941 81.98318 82.00491 82.01278 82.02484 82.03895 82.04926 82.06828 82.08591 82.10149 82.11461 82.13355 82.17494 82.19203 82.20807 82.22903 82.25595 82.27834 82.30962 82.34511 82.37553 82.39722 82.44148 82.46794 82.48624 82.51287 82.54504 82.5673 82.61243 82.63806 82.65783 82.68016 
81.88462 81.89127 81.90147 81.91528 81.9274 81.94534 81.95392 81.96143 81.97321 81.98537 82.01234 82.02264 82.03029 82.03983 82.05283 82.06683 82.08213 82.09952 82.11746 82.1328 82.15029 82.19337 82.21191 82.23383 82.22903 82.25595 82.30666 82.33261 82.35854 82.38424 82.40932 82.47047 82.49764 82.5239 82.54551 82.56082 82.58096 82.6435 82.66324 82.6845 82.71071 
81.89437 81.90234 81.91494 81.92731 81.93272 81.94977 81.96342 81.97324 81.98357 81.99444 82.02003 82.02898 82.04077 82.05628 82.07003 82.07948 82.1095 82.12271 82.13568 82.15388 82.17013 82.21346 82.23264 82.23383 82.25664 82.27313 82.32504 82.35311 82.37835 82.40363 82.4321 82.49125 82.51664 82.54292 82.56954 82.59223 82.63478 82.66698 82.69772 82.71987 82.73978 
81.90047 81.91233 81.92203 81.92992 81.93886 81.95553 81.96729 81.97707 81.98759 81.99981 82.02579 82.04094 82.05357 82.06368 82.07477 82.10527 82.11765 82.13747 82.15283 82.16663 82.19118 82.22573 82.23264 82.2548 82.27711 82.29488 82.35543 82.37558 82.40282 82.4356 82.45763 82.50916 82.53645 82.56805 82.59407 82.61348 82.65746 82.67915 82.70934 82.74149 82.76551 
81.8979 81.91341 81.92355 81.93131 81.93913 81.95959 81.97335 81.98318 81.99287 82.00388 82.02832 82.04686 82.05692 82.07088 82.09086 82.11711 82.12548 82.1463 82.16918 82.18472 82.21921 82.22573 82.24223 82.26396 82.29016 82.31562 82.36664 82.39173 82.42294 82.45415 82.47967 82.53181 82.55666 82.58222 82.60902 82.63461 82.68506 82.70273 82.72353 82.75341 82.78324 
81.89392 81.90641 81.91644 81.92371 81.93258 81.95844 81.97045 81.98363 81.99471 82.00343 82.03561 82.04733 82.05979 82.07409 82.08642 82.12637 82.14457 82.15583 82.16766 82.18734 82.21921 82.24299 82.26221 82.28401 82.30658 82.35958 82.37857 82.40781 82.43763 82.46616 82.49848 82.55865 82.58038 82.60653 82.63798 82.66257 82.70411 82.72469 82.74631 82.76976 82.79812 
81.89209 81.90213 81.91234 81.92561 81.9517 81.96459 81.97358 81.98711 82.0016 82.01157 82.0392 82.05193 82.06966 82.08317 82.09216 82.12785 82.14511 82.16058 82.18078 82.18734 82.22874 82.2604 82.2832 82.30391 82.3272 82.37051 82.39657 82.42132 82.45208 82.48354 82.51015 82.56856 82.60142 82.62602 82.64806 82.68131 82.72835 82.74832 82.76808 82.78904 82.81107 
81.89701 81.90466 81.91455 81.93033 81.95036 81.96764 81.9782 81.99081 82.00507 82.01427 82.04556 82.06278 82.07539 82.08646 82.10323 82.13653 82.15383 82.17007 82.18078 82.20413 82.24684 82.2728 82.29897 82.31998 82.33881 82.39043 82.41575 82.44115 82.47216 82.50323 82.56189 82.58151 82.6105 82.64323 82.66833 82.69286 82.75522 82.77062 82.78737 82.8066 82.82282 
81.89767 81.90723 81.91702 81.92836 81.94957 81.96585 81.97666 81.98954 82.00368 82.03664 82.0489 82.06273 82.07979 82.09292 82.10317 82.14461 82.15704 82.17007 82.1909 82.21474 82.25661 82.28246 82.30855 82.32932 82.35114 82.40113 82.42445 82.45606 82.49152 82.51989 82.57047 82.5974 82.6285 82.66286 82.69135 82.74709 82.77347 82.80123 82.81894 82.82883 82.84299 
81.8987 81.91029 81.9218 81.93011 81.95619 81.97316 81.98499 81.99277 82.00652 82.04011 82.05409 82.07124 82.08952 82.10277 82.13749 82.14461 82.15704 82.17409 82.19669 82.21739 82.26907 82.28413 82.31175 82.34369 82.36906 82.41122 82.44263 82.47169 82.49962 82.53156 82.58363 82.6104 82.64137 82.67042 82.70183 82.76789 82.79341 82.81565 82.84042 82.86015 82.86855 
81.89803 81.9081 81.92104 81.93374 81.95854 81.97699 81.98796 81.99779 82.01466 82.04859 82.06524 82.07679 82.08922 82.10605 82.13749 82.15649 82.17206 82.19421 82.21717 82.26026 82.27818 82.30099 82.327 82.35252 82.37769 82.42865 82.46162 82.49099 82.51469 82.54214 82.60166 82.6345 82.6646 82.6938 82.72432 82.78289 82.81312 82.83572 82.85961 82.88187 82.91079 
81.89891 81.90973 81.92306 81.9331 81.95804 81.96959 81.98248 81.99524 82.00798 82.04187 82.06364 82.07783 82.08742 82.10605 82.13976 82.16387 82.18383 82.19946 82.2195 82.26122 82.28573 82.30409 82.32998 82.3632 82.3858 82.4353 82.4694 82.49862 82.524 82.55122 82.61299 82.64298 82.67715 82.70692 82.73347 82.79274 82.82175 82.8493 82.87453 82.89703 82.93661 
81.89104 81.90359 81.92068 81.93362 81.95795 81.97436 81.98578 81.99702 82.01427 82.04019 82.05452 82.07784 82.08742 82.10805 82.1409 82.1629 82.18298 82.20359 82.22672 82.26972 82.29537 82.31385 82.33924 82.37134 82.41321 82.44535 82.47266 82.50126 82.5321 82.56046 82.62672 82.65443 82.6857 82.71781 82.74685 82.80201 82.8304 82.85739 82.8859 82.91254 82.95533 
81.88696 81.89944 81.91497 81.94112 81.95131 81.96555 81.98235 81.99512 82.00574 82.03865 82.05461 82.07784 82.09525 82.1073 82.14066 82.16207 82.18253 82.20221 82.2281 82.27837 82.29675 82.31963 82.34505 82.36874 82.42161 82.45152 82.48121 82.50745 82.53518 82.60037 82.62505 82.65656 82.69127 82.7255 82.7576 82.81081 82.84125 82.86834 82.89308 82.91726 82.9591 
81.88866 81.90023 81.91531 81.93273 81.94661 81.96307 81.98109 81.99551 82.01192 82.02715 82.05461 82.07161 82.08849 82.10495 82.1381 82.16188 82.18215 82.20174 82.22764 82.26839 82.29856 82.32939 82.35061 82.36918 82.42819 82.44889 82.48206 82.51559 82.54117 82.60243 82.6284 82.65676 82.68915 82.72346 82.75524 82.8141 82.84164 82.86635 82.89214 82.9155 82.95637 
81.87584 81.89189 81.90647 81.92928 81.94648 81.96429 81.97716 81.98782 82.01109 82.02715 82.05066 82.07172 82.0876 82.1041 82.14585 82.16459 82.18616 82.20822 82.22661 82.26952 82.29172 82.32251 82.35323 82.37842 82.42772 82.46151 82.48961 82.51452 82.54133 82.60778 82.63576 82.65836 82.68729 82.72259 82.78017 82.8131 82.84196 82.8626 82.88602 82.91592 82.96375 
81.87096 81.89027 81.90251 81.92764 81.9409 81.95444 81.96627 81.97817 82.01109 82.02623 82.04307 82.06464 82.08769 82.12048 82.13702 82.16044 82.18073 82.19987 82.22662 82.27662 82.30208 82.32685 82.35149 82.37655 82.42659 82.45657 82.48567 82.5154 82.54478 82.60246 82.63218 82.66109 82.69099 82.72025 82.77908 82.80839 82.83419 82.85626 82.88005 82.93341 82.95901 
