NCOLS 82
NROWS 113
XLLCORNER 616393.99
YLLCORNER 4622965.4
CELLSIZE 10
NODATA_VALUE -9999
1392.219 1392.246 1392.202 1392.099 1391.444 1391.051 1390.944 1390.814 1390.772 1390.774 1391.006 1391.102 1391.202 1391.289 1391.327 1391.4 1391.401 1391.239 1391.159 1391.078 1390.956 1390.959 1390.957 1390.953 1391.167 1391.15 1391.066 1390.897 1390.771 1390.529 1390.087 1389.967 1389.906 1389.906 1389.792 1389.797 1389.796 1389.791 1389.788 1389.783 1389.784 1389.751 1389.66 1389.585 1389.559 1389.56 1389.547 1389.439 1389.466 1389.537 1389.551 1389.585 1389.644 1389.66 1389.817 1389.95 1390.024 1390.161 1390.236 1390.312 1390.358 1390.562 1390.716 1390.866 1391.228 1391.382 1391.569 1391.965 1392.198 1392.424 1392.583 1392.864 1392.946 1393.05 1393.221 1393.325 1393.401 1393.483 1393.513 1393.659 1393.75 1393.797 
1392.32 1392.421 1392.406 1392.337 1391.831 1391.396 1391.103 1390.983 1391.021 1391.019 1391.197 1391.369 1391.518 1391.6 1391.663 1391.708 1391.706 1391.552 1391.471 1391.391 1391.298 1391.292 1391.273 1391.272 1391.167 1391.15 1391.337 1391.02 1390.851 1390.602 1390.138 1390.078 1390.009 1390.002 1389.896 1389.901 1389.899 1389.939 1389.998 1389.991 1389.985 1389.954 1389.875 1389.861 1389.829 1389.767 1389.763 1389.659 1389.643 1389.583 1389.636 1389.761 1389.76 1389.753 1389.991 1390.071 1390.147 1390.375 1390.445 1390.52 1390.597 1390.761 1390.922 1391.066 1391.489 1391.635 1391.825 1392.291 1392.512 1392.698 1392.85 1393.066 1393.132 1393.289 1393.493 1393.634 1393.677 1393.792 1393.826 1393.892 1393.941 1394.096 
1392.436 1392.585 1392.611 1392.591 1392.222 1391.851 1391.531 1391.339 1391.38 1391.374 1391.54 1391.678 1391.821 1391.9 1392.028 1392.014 1392.01 1391.892 1391.806 1391.727 1391.703 1391.675 1391.608 1391.585 1391.513 1391.426 1391.337 1391.02 1390.803 1390.491 1390.333 1390.176 1390.102 1390.018 1390.006 1390.003 1390.005 1390.155 1390.202 1390.203 1390.276 1390.178 1390.18 1390.18 1390.031 1389.967 1389.968 1389.811 1389.787 1389.854 1389.863 1389.9 1389.952 1389.95 1390.14 1390.258 1390.328 1390.59 1390.651 1390.725 1390.797 1391.021 1391.13 1391.328 1391.701 1391.907 1392.139 1392.578 1392.746 1392.898 1393.095 1393.291 1393.456 1393.57 1393.802 1393.897 1393.918 1394.043 1394.104 1394.173 1394.19 1394.362 
1392.617 1392.708 1392.823 1392.771 1392.611 1392.399 1392.11 1391.805 1391.792 1391.833 1391.868 1392.032 1392.184 1392.258 1392.327 1392.319 1392.317 1392.286 1392.198 1392.116 1392.026 1391.971 1391.946 1391.849 1391.584 1391.477 1391.288 1390.95 1390.803 1390.491 1390.309 1390.196 1390.19 1390.126 1390.104 1390.12 1390.201 1390.357 1390.435 1390.504 1390.505 1390.499 1390.483 1390.406 1390.277 1390.262 1390.184 1390.022 1389.94 1389.891 1389.952 1390.002 1390.075 1390.074 1390.236 1390.398 1390.537 1390.749 1390.87 1390.932 1390.995 1391.27 1391.412 1391.64 1391.987 1392.225 1392.453 1392.864 1393.003 1393.159 1393.35 1393.602 1393.71 1393.821 1394.036 1394.101 1394.182 1394.3 1394.338 1394.413 1394.47 1394.516 
1392.689 1392.795 1392.903 1392.984 1392.897 1392.791 1392.608 1392.369 1392.321 1392.357 1392.346 1392.41 1392.5 1392.621 1392.63 1392.633 1392.633 1392.543 1392.46 1392.382 1392.305 1392.107 1392.014 1391.854 1391.638 1391.413 1391.095 1390.896 1390.669 1390.4 1390.309 1390.207 1390.209 1390.203 1390.207 1390.222 1390.31 1390.565 1390.64 1390.708 1390.707 1390.783 1390.687 1390.606 1390.554 1390.468 1390.388 1390.233 1390.142 1390.078 1390.154 1390.177 1390.173 1390.166 1390.447 1390.578 1390.662 1390.901 1390.996 1391.133 1391.265 1391.558 1391.728 1391.953 1392.297 1392.537 1392.766 1393.18 1393.329 1393.48 1393.627 1393.854 1393.971 1394.081 1394.252 1394.36 1394.431 1394.506 1394.617 1394.685 1394.675 1394.781 
1392.805 1392.889 1392.971 1393.088 1393.066 1393.078 1393.053 1392.883 1392.816 1392.812 1392.855 1392.842 1392.844 1392.926 1392.922 1392.882 1392.844 1392.74 1392.661 1392.586 1392.511 1392.222 1392.119 1391.967 1391.554 1391.252 1391.011 1390.728 1390.505 1390.375 1390.295 1390.207 1390.209 1390.221 1390.307 1390.361 1390.517 1390.66 1390.771 1390.908 1390.92 1390.983 1390.909 1390.904 1390.753 1390.677 1390.593 1390.323 1390.282 1390.27 1390.207 1390.215 1390.292 1390.359 1390.559 1390.718 1390.851 1390.926 1391.277 1391.424 1391.575 1391.871 1392.038 1392.265 1392.66 1392.847 1393.078 1393.314 1393.558 1393.721 1393.874 1394.11 1394.225 1394.341 1394.514 1394.621 1394.699 1394.777 1394.847 1394.887 1394.917 1394.979 
1392.812 1392.949 1393.072 1393.08 1393.232 1393.34 1393.336 1393.25 1393.244 1393.289 1393.323 1393.327 1393.317 1393.26 1393.209 1393.123 1393.078 1392.922 1392.803 1392.697 1392.628 1392.369 1392.188 1392.041 1391.378 1391.011 1390.967 1390.614 1390.413 1390.303 1390.216 1390.299 1390.287 1390.221 1390.307 1390.569 1390.716 1390.798 1390.952 1391.042 1391.201 1391.234 1391.213 1391.126 1390.966 1390.858 1390.703 1390.615 1390.486 1390.475 1390.397 1390.372 1390.392 1390.471 1390.659 1390.821 1390.977 1391.172 1391.594 1391.737 1391.879 1392.179 1392.342 1392.577 1392.99 1393.159 1393.397 1393.626 1393.883 1393.988 1394.137 1394.414 1394.482 1394.591 1394.776 1394.866 1394.894 1394.964 1395.094 1395.1 1395.18 1395.186 
1392.688 1393.02 1393.109 1393.219 1393.338 1393.458 1393.452 1393.588 1393.605 1393.679 1393.685 1393.651 1393.603 1393.563 1393.477 1393.445 1393.408 1393.263 1392.937 1392.811 1392.667 1392.403 1392.169 1391.963 1391.205 1390.95 1390.858 1390.722 1390.393 1390.396 1390.343 1390.309 1390.297 1390.298 1390.391 1390.569 1390.716 1390.904 1391.213 1391.375 1391.526 1391.658 1391.609 1391.451 1391.23 1391.06 1390.909 1390.821 1390.693 1390.683 1390.603 1390.582 1390.574 1390.581 1390.828 1390.914 1391.074 1391.36 1391.907 1392.06 1392.273 1392.518 1392.733 1392.899 1393.307 1393.447 1393.627 1393.921 1394.223 1394.305 1394.459 1394.682 1394.797 1394.859 1395.035 1395.126 1395.161 1395.23 1395.332 1395.305 1395.377 1395.397 
1392.66 1393.073 1393.203 1393.356 1393.519 1393.651 1393.69 1393.785 1393.917 1393.973 1393.917 1393.936 1393.857 1393.861 1393.763 1393.745 1393.603 1393.408 1393.164 1393.032 1392.798 1392.428 1392.137 1391.787 1391.138 1390.949 1390.792 1390.607 1390.408 1390.396 1390.396 1390.363 1390.292 1390.311 1390.515 1390.687 1390.83 1390.904 1391.549 1391.775 1391.928 1391.942 1391.931 1391.849 1391.531 1391.372 1391.214 1391.052 1390.865 1390.797 1390.792 1390.789 1390.782 1390.783 1390.908 1391.052 1391.364 1391.668 1392.225 1392.374 1392.598 1392.902 1393.058 1393.205 1393.61 1393.772 1393.986 1394.176 1394.547 1394.605 1394.694 1394.936 1395.047 1395.176 1395.29 1395.325 1395.408 1395.49 1395.578 1395.51 1395.583 1395.537 
1392.441 1393.041 1393.225 1393.373 1393.693 1393.809 1394.009 1394.088 1394.233 1394.284 1394.255 1394.274 1394.237 1394.178 1394.013 1393.922 1393.799 1393.561 1393.312 1393.169 1392.903 1392.46 1392.12 1391.729 1391.125 1390.943 1390.757 1390.566 1390.484 1390.426 1390.398 1390.364 1390.329 1390.392 1390.652 1390.886 1391.013 1391.122 1391.549 1391.775 1392.121 1392.197 1392.243 1392.153 1391.842 1391.683 1391.533 1391.449 1391.175 1391.095 1391.015 1390.996 1390.988 1390.985 1391.21 1391.442 1391.682 1391.987 1392.462 1392.689 1392.914 1393.211 1393.382 1393.594 1393.964 1394.175 1394.333 1394.473 1394.794 1394.924 1395.057 1395.231 1395.31 1395.411 1395.491 1395.606 1395.675 1395.705 1395.731 1395.718 1395.797 1395.725 
1392.149 1392.923 1393.246 1393.454 1393.894 1394.055 1394.158 1394.292 1394.476 1394.597 1394.599 1394.553 1394.506 1394.481 1394.281 1394.128 1393.997 1393.82 1393.456 1393.317 1393.009 1392.478 1392.113 1391.726 1391.06 1390.883 1390.691 1390.617 1390.481 1390.463 1390.434 1390.395 1390.401 1390.417 1390.708 1390.93 1391.019 1391.363 1391.757 1391.969 1392.121 1392.197 1392.539 1392.458 1392.203 1392.1 1391.94 1391.774 1391.558 1391.426 1391.418 1391.296 1391.32 1391.391 1391.453 1391.862 1392.084 1392.309 1392.836 1392.989 1393.219 1393.618 1393.791 1394.025 1394.182 1394.386 1394.552 1394.771 1395.083 1395.227 1395.321 1395.547 1395.617 1395.696 1395.772 1395.847 1395.921 1395.918 1395.908 1395.921 1395.947 1395.924 
1391.82 1392.879 1393.276 1393.557 1394.112 1394.297 1394.421 1394.569 1394.832 1394.903 1394.901 1394.927 1394.835 1394.789 1394.547 1394.366 1394.258 1394.067 1393.617 1393.401 1393.095 1392.495 1392.097 1391.716 1391.024 1390.827 1390.693 1390.617 1390.462 1390.435 1390.495 1390.414 1390.445 1390.528 1390.597 1390.916 1391.055 1391.515 1392.02 1392.175 1392.325 1392.502 1392.539 1392.458 1392.71 1392.431 1392.349 1392.199 1392.019 1391.936 1391.854 1391.832 1391.818 1391.82 1391.948 1392.382 1392.605 1392.828 1393.286 1393.487 1393.64 1394.055 1394.166 1394.254 1394.473 1394.776 1394.931 1395.085 1395.467 1395.529 1395.604 1395.874 1395.915 1395.929 1396.005 1396.113 1396.123 1396.127 1396.091 1396.064 1396.114 1395.967 
1391.548 1392.667 1393.231 1393.656 1394.26 1394.531 1394.734 1394.886 1395.16 1395.202 1395.198 1395.315 1395.247 1395.096 1395.018 1394.702 1394.565 1394.341 1393.846 1393.566 1393.262 1392.533 1392.13 1391.704 1391.306 1390.825 1390.681 1390.566 1390.496 1390.496 1390.497 1390.523 1390.516 1390.599 1390.67 1390.969 1391.171 1391.622 1392.165 1392.389 1392.553 1392.712 1392.767 1392.763 1392.71 1392.859 1392.781 1392.704 1392.534 1392.475 1392.464 1392.391 1392.469 1392.547 1392.689 1392.899 1393.117 1393.264 1393.707 1393.909 1394.054 1394.352 1394.531 1394.731 1394.815 1395.168 1395.265 1395.483 1395.721 1395.845 1395.917 1396.094 1396.163 1396.212 1396.23 1396.291 1396.328 1396.267 1396.249 1396.217 1396.189 1396.083 
1391.18 1392.549 1393.251 1393.763 1394.213 1394.835 1395.047 1395.198 1395.495 1395.603 1395.592 1395.571 1395.516 1395.473 1395.347 1395.035 1394.86 1394.571 1394.107 1393.677 1393.329 1392.638 1392.223 1391.746 1391.347 1390.882 1390.727 1390.561 1390.495 1390.503 1390.535 1390.547 1390.54 1390.591 1390.685 1391.058 1391.276 1391.751 1392.412 1392.639 1392.869 1393.041 1393.103 1393.095 1393.1 1392.859 1392.781 1393.217 1393.106 1393.083 1393.006 1393.083 1393.091 1393.171 1393.307 1393.56 1393.654 1393.871 1394.151 1394.437 1394.572 1394.753 1394.94 1395.162 1395.309 1395.582 1395.665 1395.82 1396.023 1396.166 1396.226 1396.291 1396.376 1396.442 1396.443 1396.442 1396.458 1396.44 1396.353 1396.36 1396.331 1396.282 
1391.16 1392.643 1393.365 1393.96 1394.509 1395.141 1395.345 1395.499 1395.867 1395.938 1395.995 1395.941 1395.86 1395.796 1395.637 1395.39 1395.163 1394.912 1394.276 1393.881 1393.446 1392.719 1392.264 1391.907 1391.466 1390.919 1390.781 1390.672 1390.51 1390.508 1390.592 1390.559 1390.606 1390.639 1390.792 1391.097 1391.465 1392.004 1392.707 1392.921 1393.123 1393.397 1393.479 1393.489 1393.503 1393.373 1393.301 1393.217 1393.106 1393.709 1393.716 1393.748 1393.829 1393.888 1393.951 1394.121 1394.248 1394.319 1394.705 1394.847 1394.987 1395.055 1395.439 1395.586 1395.733 1395.89 1395.981 1396.134 1396.289 1396.402 1396.533 1396.472 1396.578 1396.647 1396.648 1396.646 1396.634 1396.576 1396.506 1396.445 1396.396 1396.377 
1391.359 1393.066 1393.773 1394.359 1394.833 1395.591 1395.838 1395.913 1396.275 1396.337 1396.411 1396.404 1396.336 1396.183 1396.087 1395.788 1395.537 1395.249 1394.516 1394.178 1393.713 1392.908 1392.406 1391.971 1391.602 1390.958 1390.833 1390.713 1390.564 1390.548 1390.59 1390.593 1390.623 1390.746 1390.87 1391.185 1391.767 1392.302 1392.94 1393.134 1393.308 1393.74 1393.757 1393.842 1393.926 1393.823 1393.811 1393.728 1393.722 1393.709 1394.321 1394.327 1394.509 1394.503 1394.566 1394.768 1394.806 1395.022 1395.105 1395.265 1395.41 1395.556 1395.818 1395.91 1396.133 1396.307 1396.379 1396.452 1396.6 1396.682 1396.759 1396.751 1396.858 1396.854 1396.857 1396.829 1396.753 1396.676 1396.628 1396.539 1396.463 1396.418 
1392.805 1393.755 1394.391 1394.976 1395.375 1396.005 1396.28 1396.414 1396.682 1396.725 1396.73 1396.823 1396.787 1396.679 1396.53 1396.187 1395.93 1395.617 1394.947 1394.54 1394.073 1393.185 1392.678 1392.153 1391.796 1391.081 1390.87 1390.758 1390.647 1390.642 1390.595 1390.631 1390.685 1390.851 1390.926 1391.312 1391.975 1392.543 1393.249 1393.51 1393.738 1393.963 1394.275 1394.345 1394.42 1394.35 1394.348 1394.283 1394.298 1394.244 1394.321 1394.327 1395.043 1395.124 1395.193 1395.354 1395.497 1395.555 1395.744 1395.867 1395.931 1395.994 1396.239 1396.318 1396.464 1396.616 1396.715 1396.859 1396.914 1396.973 1396.965 1396.961 1397.009 1397.057 1396.985 1396.942 1396.851 1396.77 1396.732 1396.654 1396.569 1396.434 
1394.33 1394.792 1395.161 1395.593 1395.825 1396.372 1396.614 1396.908 1397.196 1397.232 1397.224 1397.298 1397.182 1397.094 1397.002 1396.676 1396.417 1396.095 1395.382 1395.024 1394.54 1394.021 1393.021 1392.439 1391.996 1391.169 1390.922 1390.856 1390.72 1390.672 1390.639 1390.668 1390.829 1390.897 1390.955 1391.609 1392.29 1392.863 1393.583 1393.946 1394.191 1394.39 1394.714 1394.776 1394.845 1394.916 1394.963 1394.963 1394.909 1394.887 1394.946 1395.014 1395.043 1395.124 1395.798 1395.885 1396.013 1396.085 1396.263 1396.292 1396.441 1396.522 1396.652 1396.721 1396.79 1397.003 1397.004 1397.081 1397.181 1397.203 1397.27 1397.274 1397.16 1397.176 1397.171 1397.029 1396.972 1396.965 1396.79 1396.67 1396.589 1396.438 
1395.498 1395.686 1396.112 1396.336 1396.63 1397.052 1397.212 1397.438 1397.601 1397.674 1397.733 1397.735 1397.715 1397.693 1397.614 1397.167 1396.928 1396.671 1395.96 1395.53 1395.111 1394.497 1393.472 1392.845 1392.325 1391.347 1391.046 1390.937 1390.825 1390.809 1390.808 1390.792 1390.924 1390.923 1391.106 1392.026 1392.658 1393.22 1394.058 1394.408 1394.67 1394.848 1395.208 1395.302 1395.397 1395.49 1395.492 1395.483 1395.513 1395.566 1395.563 1395.544 1395.668 1395.727 1395.798 1395.885 1396.609 1396.682 1396.767 1396.78 1396.869 1397.011 1397.059 1397.136 1397.208 1397.241 1397.324 1397.391 1397.381 1397.411 1397.482 1397.484 1397.443 1397.36 1397.292 1397.131 1397.055 1397 1396.931 1396.659 1396.583 1396.432 
1396.921 1396.9 1397.125 1397.258 1397.394 1397.72 1397.913 1397.978 1398.112 1398.18 1398.252 1398.33 1398.225 1398.217 1398.133 1397.762 1397.538 1397.367 1396.597 1396.169 1395.717 1395.282 1394.135 1393.561 1392.956 1391.763 1391.477 1391.214 1390.912 1390.891 1390.896 1390.934 1391.209 1391.314 1391.621 1392.562 1393.11 1393.687 1394.596 1394.912 1395.12 1395.35 1395.692 1395.818 1395.979 1396.059 1396.122 1396.11 1396.081 1396.102 1396.174 1396.171 1396.265 1396.266 1396.321 1396.56 1396.609 1397.113 1397.178 1397.234 1397.365 1397.355 1397.446 1397.446 1397.519 1397.618 1397.631 1397.7 1397.705 1397.692 1397.692 1397.692 1397.591 1397.556 1397.401 1397.294 1397.221 1397 1396.907 1396.732 1396.582 1396.428 
1397.945 1397.999 1398.119 1398.174 1398.236 1398.357 1398.444 1398.588 1398.732 1398.809 1398.858 1398.778 1398.812 1398.733 1398.723 1398.414 1398.227 1397.99 1397.396 1396.952 1396.488 1396.102 1394.937 1394.44 1393.801 1392.672 1392.277 1391.968 1391.549 1391.499 1391.502 1391.577 1391.847 1392.073 1392.37 1393.24 1393.784 1394.269 1394.699 1395.439 1395.688 1395.913 1396.293 1396.407 1396.49 1396.669 1396.701 1396.721 1396.713 1396.762 1396.82 1396.793 1396.922 1396.979 1396.964 1397.023 1397.04 1397.113 1397.178 1397.726 1397.774 1397.769 1397.854 1397.867 1397.932 1397.926 1397.915 1397.914 1397.984 1397.975 1397.889 1397.81 1397.692 1397.682 1397.594 1397.342 1397.245 1397.092 1397.01 1396.741 1396.587 1396.435 
1398.984 1398.95 1398.968 1398.894 1398.954 1399.045 1399.046 1399.113 1399.252 1399.322 1399.392 1399.461 1399.463 1399.434 1399.349 1399.128 1398.955 1398.78 1398.257 1397.856 1397.375 1396.975 1395.984 1395.448 1394.935 1393.798 1393.399 1393.03 1392.831 1392.576 1392.571 1392.525 1392.74 1392.938 1393.249 1394.113 1394.558 1394.954 1395.29 1396.019 1396.314 1396.538 1396.873 1397.038 1397.052 1397.274 1397.288 1397.334 1397.356 1397.456 1397.481 1397.416 1397.494 1397.54 1397.555 1397.579 1397.656 1397.692 1397.697 1397.726 1397.774 1398.182 1398.202 1398.258 1398.246 1398.238 1398.207 1398.125 1398.112 1398.078 1397.993 1397.913 1397.748 1397.696 1397.691 1397.448 1397.318 1397.097 1397.019 1396.633 1396.494 1396.342 
1400.079 1399.992 1399.711 1399.717 1399.695 1399.654 1399.643 1399.638 1399.704 1399.76 1399.91 1399.986 1400.014 1400.073 1400.057 1399.89 1399.771 1399.606 1399.442 1398.828 1398.484 1398.088 1397.019 1396.552 1396.148 1395.147 1394.723 1394.38 1394.082 1393.827 1393.761 1393.723 1393.935 1394.131 1394.328 1394.99 1395.29 1395.667 1395.972 1396.683 1396.933 1397.201 1397.494 1397.594 1397.705 1397.92 1397.96 1397.954 1398.034 1398.002 1398.022 1398.025 1397.995 1397.991 1398.025 1398.079 1398.078 1398.026 1398.093 1398.205 1398.189 1398.182 1398.202 1398.548 1398.551 1398.492 1398.512 1398.433 1398.427 1398.279 1398.199 1398.12 1397.964 1397.86 1397.707 1397.502 1397.34 1397.186 1397.041 1396.59 1396.377 1396.225 
1400.079 1400.794 1400.532 1400.497 1400.404 1400.153 1400.154 1400.15 1400.216 1400.245 1400.335 1400.481 1400.637 1400.71 1400.771 1400.657 1400.601 1400.425 1400.262 1399.753 1399.428 1399.097 1398.269 1397.838 1397.367 1396.486 1396.069 1395.811 1395.473 1395.239 1395.151 1395.077 1395.149 1395.337 1395.475 1395.894 1396.198 1396.53 1396.774 1397.338 1397.607 1397.87 1398.156 1398.279 1398.432 1398.577 1398.627 1398.616 1398.619 1398.561 1398.6 1398.569 1398.577 1398.571 1398.507 1398.503 1398.46 1398.552 1398.594 1398.583 1398.581 1398.577 1398.558 1398.548 1398.844 1398.805 1398.707 1398.632 1398.628 1398.482 1398.401 1398.321 1398.059 1397.963 1397.805 1397.648 1397.343 1397.18 1396.954 1396.518 1396.368 1396.22 
1400.883 1400.794 1400.532 1400.994 1400.901 1400.671 1400.64 1400.57 1400.632 1400.698 1400.839 1400.911 1401.264 1401.346 1401.487 1401.485 1401.453 1401.351 1401.187 1400.776 1400.448 1400.196 1399.553 1399.201 1398.78 1397.86 1397.505 1397.258 1396.995 1396.66 1396.507 1396.42 1396.443 1396.45 1396.606 1396.887 1397.124 1397.333 1397.662 1398.06 1398.318 1398.539 1398.888 1398.983 1399.092 1399.26 1399.241 1399.231 1399.18 1399.135 1399.141 1399.054 1399.035 1399.087 1399.037 1399.051 1398.958 1399.005 1398.936 1398.9 1398.881 1398.877 1398.827 1398.786 1398.844 1398.86 1398.989 1398.836 1398.82 1398.651 1398.501 1398.423 1398.224 1398.058 1397.905 1397.754 1397.299 1397.082 1396.928 1396.516 1396.35 1396.125 
1401.665 1401.586 1401.218 1400.994 1400.901 1401.103 1401.057 1401.087 1401.15 1401.182 1401.27 1401.419 1401.717 1401.866 1402.009 1402.116 1402.073 1401.981 1401.888 1401.712 1401.585 1401.341 1400.692 1400.37 1400.031 1399.095 1398.79 1398.63 1398.387 1397.956 1397.855 1397.697 1397.67 1397.647 1397.671 1397.669 1398.032 1398.188 1398.453 1398.883 1399.111 1399.332 1399.671 1399.768 1399.827 1399.852 1399.842 1399.841 1399.804 1399.693 1399.719 1399.6 1399.549 1399.526 1399.363 1399.395 1399.329 1399.301 1399.305 1399.264 1399.186 1399.184 1399.181 1399.139 1399.05 1399.038 1398.989 1398.836 1398.942 1398.85 1398.703 1398.624 1398.314 1398.157 1397.999 1397.849 1397.401 1397.168 1396.936 1396.583 1396.346 1396.115 
1402.262 1402.164 1401.814 1401.579 1401.39 1401.103 1401.057 1401.581 1401.586 1401.725 1401.809 1401.949 1402.307 1402.386 1402.528 1402.614 1402.638 1402.713 1402.787 1402.645 1402.524 1402.276 1401.774 1401.507 1401.174 1400.766 1400.055 1399.701 1399.521 1399.14 1398.94 1398.849 1398.735 1398.734 1398.716 1398.685 1398.929 1399.036 1399.314 1399.679 1399.866 1400.095 1400.37 1400.464 1400.528 1400.487 1400.56 1400.453 1400.365 1400.261 1400.157 1400.035 1399.989 1399.931 1399.774 1399.749 1399.698 1399.641 1399.608 1399.543 1399.495 1399.493 1399.445 1399.349 1399.274 1399.251 1399.176 1399.03 1398.942 1398.85 1398.793 1398.706 1398.422 1398.232 1398.001 1397.845 1397.398 1397.167 1396.936 1396.47 1396.236 1396.011 
1402.841 1402.678 1402.3 1402.033 1401.728 1401.545 1401.424 1401.581 1402.083 1402.384 1402.516 1402.589 1402.863 1402.988 1403.061 1403.201 1403.337 1403.335 1403.4 1403.367 1403.277 1403.186 1402.824 1402.545 1402.219 1401.896 1401.132 1400.82 1400.58 1400.238 1400.041 1399.824 1399.652 1399.596 1399.593 1399.622 1399.878 1400.013 1400.198 1400.487 1400.634 1400.808 1401.105 1401.198 1401.198 1401.147 1401.136 1401.008 1400.933 1400.805 1400.676 1400.556 1400.393 1400.295 1400.185 1400.176 1400.045 1400.022 1399.969 1399.792 1399.807 1399.807 1399.728 1399.642 1399.563 1399.477 1399.31 1399.239 1399.16 1398.935 1398.793 1398.735 1398.528 1398.332 1398.105 1397.942 1397.496 1397.271 1397.034 1396.509 1396.321 1396.01 
1403.339 1403.159 1402.701 1402.446 1402.224 1402.058 1401.839 1401.977 1402.083 1402.384 1403.038 1403.187 1403.38 1403.535 1403.672 1403.749 1403.884 1403.943 1403.935 1403.883 1403.794 1403.707 1403.442 1403.315 1403.055 1402.739 1402.07 1401.761 1401.521 1401.191 1401.012 1400.762 1400.391 1400.328 1400.34 1400.53 1400.799 1400.879 1401.025 1401.351 1401.525 1401.612 1401.846 1401.893 1401.932 1401.851 1401.732 1401.631 1401.449 1401.298 1401.133 1401.014 1400.772 1400.643 1400.547 1400.546 1400.396 1400.317 1400.261 1400.116 1400.11 1400.05 1399.964 1399.842 1399.761 1399.679 1399.511 1399.42 1399.343 1399.041 1398.892 1398.735 1398.646 1398.424 1398.197 1397.96 1397.528 1397.348 1397.028 1396.502 1396.309 1396.004 
1403.832 1403.593 1403.168 1402.873 1402.644 1402.475 1402.309 1402.332 1402.549 1402.886 1403.038 1403.187 1404 1404.127 1404.205 1404.348 1404.4 1404.456 1404.451 1404.394 1404.307 1404.22 1403.902 1403.746 1403.574 1403.331 1403.033 1402.686 1402.363 1401.948 1401.673 1401.502 1400.997 1400.987 1401.063 1401.208 1401.633 1401.798 1401.873 1402.194 1402.385 1402.448 1402.575 1402.545 1402.508 1402.443 1402.186 1402.055 1401.916 1401.664 1401.495 1401.423 1401.27 1400.992 1400.844 1400.803 1400.714 1400.608 1400.441 1400.377 1400.31 1400.172 1400.111 1400.007 1399.931 1399.88 1399.699 1399.562 1399.46 1399.193 1399.092 1398.933 1398.772 1398.424 1398.197 1398.067 1397.527 1397.323 1396.949 1396.457 1396.22 1395.995 
1404.344 1404.107 1403.629 1403.393 1403.16 1402.99 1402.835 1402.876 1403.015 1403.41 1403.552 1403.698 1404 1404.127 1404.796 1404.865 1404.975 1404.974 1404.959 1404.802 1404.721 1404.629 1404.316 1404.149 1404.002 1403.919 1403.501 1403.348 1403.182 1402.562 1402.259 1402.041 1401.936 1401.591 1401.696 1401.912 1402.27 1402.484 1402.616 1403.022 1403.155 1403.215 1403.229 1403.202 1403.098 1402.903 1402.567 1402.416 1402.298 1401.979 1401.836 1401.71 1401.556 1401.303 1401.144 1401.016 1400.983 1400.872 1400.71 1400.583 1400.497 1400.428 1400.404 1400.163 1400.093 1400.045 1399.895 1399.792 1399.653 1399.337 1399.177 1399.025 1398.876 1398.444 1398.283 1398.067 1397.574 1397.332 1397.113 1396.499 1396.213 1395.987 
1404.85 1404.615 1404.134 1403.9 1403.697 1403.553 1403.42 1403.501 1403.631 1403.919 1404.073 1404.213 1404.278 1404.657 1404.796 1405.286 1405.349 1405.457 1405.387 1405.327 1405.208 1405.048 1404.964 1404.666 1404.506 1404.346 1404.029 1403.85 1403.614 1403.132 1402.886 1402.651 1402.489 1402.242 1402.407 1402.561 1402.963 1403.114 1403.258 1403.483 1403.622 1403.684 1403.689 1403.648 1403.49 1403.302 1402.991 1402.817 1402.605 1402.285 1402.128 1401.973 1401.814 1401.552 1401.39 1401.228 1401.111 1401.029 1400.955 1400.836 1400.724 1400.648 1400.563 1400.467 1400.373 1400.232 1399.982 1399.832 1399.738 1399.448 1399.277 1399.124 1398.955 1398.494 1398.278 1398.132 1397.574 1397.332 1396.999 1396.489 1396.209 1395.982 
1405.347 1405.112 1404.907 1404.501 1404.358 1404.278 1404.131 1404.13 1404.173 1404.449 1404.588 1404.732 1404.806 1405.068 1405.198 1405.286 1405.349 1405.805 1405.875 1405.723 1405.615 1405.466 1405.38 1405.074 1404.927 1404.846 1404.502 1404.258 1404.021 1403.538 1403.324 1403.163 1402.995 1402.955 1403.047 1403.19 1403.501 1403.643 1403.791 1404.049 1404.131 1404.193 1404.129 1403.949 1403.794 1403.709 1403.32 1403.145 1402.911 1402.598 1402.421 1402.211 1402.058 1401.745 1401.586 1401.431 1401.256 1401.193 1401.155 1400.968 1400.856 1400.779 1400.699 1400.613 1400.535 1400.467 1400.158 1399.997 1399.845 1399.596 1399.366 1399.191 1398.979 1398.529 1398.291 1398.122 1397.597 1397.236 1396.999 1396.77 1396.199 1395.958 
1405.906 1405.707 1405.517 1405.193 1405.04 1404.953 1404.859 1404.851 1404.837 1405.041 1405.112 1405.219 1405.312 1405.564 1405.637 1405.778 1405.786 1405.805 1405.875 1406.134 1406.062 1405.983 1405.894 1405.592 1405.447 1405.359 1404.898 1404.685 1404.524 1404.049 1403.836 1403.676 1403.507 1403.481 1403.572 1403.72 1403.955 1404.177 1404.314 1404.385 1404.441 1404.443 1404.437 1404.289 1404.171 1403.97 1403.627 1403.446 1403.215 1402.864 1402.657 1402.479 1402.27 1401.946 1401.787 1401.633 1401.437 1401.338 1401.303 1401.226 1401.069 1400.991 1400.917 1400.753 1400.669 1400.557 1400.267 1400.124 1399.948 1399.87 1399.441 1399.212 1399.039 1398.654 1398.362 1398.126 1397.608 1397.303 1397.003 1396.686 1396.199 1395.958 
1406.543 1406.383 1406.142 1405.8 1405.682 1405.596 1405.567 1405.539 1405.563 1405.66 1405.709 1405.717 1405.815 1406.09 1406.151 1406.198 1406.252 1406.306 1406.289 1406.134 1406.573 1406.477 1406.323 1406.105 1405.942 1405.784 1405.358 1405.182 1404.943 1404.506 1404.384 1404.291 1404.128 1404.105 1404.181 1404.251 1404.431 1404.601 1404.741 1404.787 1404.848 1404.832 1404.758 1404.605 1404.491 1404.255 1403.938 1403.76 1403.516 1403.294 1402.93 1402.712 1402.475 1402.158 1401.996 1401.836 1401.619 1401.485 1401.45 1401.425 1401.276 1401.195 1401.073 1400.914 1400.817 1400.657 1400.433 1400.28 1400.045 1399.932 1399.55 1399.313 1399.078 1398.594 1398.354 1398.124 1397.498 1397.22 1396.996 1396.698 1396.091 1395.844 
1407.142 1406.982 1406.783 1406.519 1406.406 1406.326 1406.223 1406.193 1406.241 1406.287 1406.339 1406.386 1406.391 1406.573 1406.631 1406.64 1406.719 1406.706 1406.697 1406.601 1406.573 1406.477 1406.816 1406.494 1406.357 1406.278 1405.828 1405.614 1405.459 1405.303 1405 1404.922 1404.836 1404.684 1404.699 1404.769 1404.913 1404.988 1405.064 1405.139 1405.124 1405.057 1405.048 1404.92 1404.801 1404.561 1404.196 1403.99 1403.822 1403.593 1403.138 1402.902 1402.669 1402.265 1402.131 1402.031 1401.827 1401.677 1401.607 1401.561 1401.47 1401.336 1401.218 1401.061 1400.966 1400.81 1400.558 1400.383 1400.182 1399.987 1399.624 1399.411 1399.151 1398.648 1398.341 1398.09 1397.492 1397.214 1396.942 1396.642 1396.026 1395.715 
1407.815 1407.655 1407.498 1407.246 1407.12 1406.996 1406.886 1406.856 1406.851 1406.925 1406.969 1406.961 1407.012 1407.01 1407.07 1407.127 1407.115 1407.112 1407.109 1407.117 1406.969 1406.901 1406.816 1406.494 1406.794 1406.708 1406.396 1406.244 1406.083 1405.919 1405.652 1405.641 1405.558 1405.375 1405.302 1405.297 1405.384 1405.4 1405.468 1405.468 1405.544 1405.448 1405.373 1405.119 1405.024 1404.857 1404.5 1404.258 1404.036 1403.802 1403.429 1403.189 1402.955 1402.476 1402.298 1402.228 1402.018 1401.948 1401.817 1401.729 1401.606 1401.495 1401.418 1401.251 1401.112 1400.96 1400.677 1400.491 1400.34 1400.115 1399.662 1399.472 1399.19 1398.616 1398.319 1397.979 1397.427 1397.127 1396.772 1396.442 1395.825 1395.517 
1408.477 1408.311 1408.15 1407.903 1407.774 1407.65 1407.589 1407.512 1407.511 1407.545 1407.632 1407.646 1407.604 1407.615 1407.574 1407.563 1407.572 1407.548 1407.542 1407.52 1407.443 1407.396 1407.249 1406.923 1406.794 1406.708 1406.967 1406.864 1406.697 1406.538 1406.352 1406.256 1406.171 1405.999 1405.906 1405.825 1405.907 1405.893 1405.888 1405.885 1405.774 1405.765 1405.688 1405.414 1405.325 1405.166 1404.753 1404.571 1404.332 1404.096 1403.644 1403.406 1403.179 1402.727 1402.564 1402.43 1402.264 1402.175 1402.014 1401.934 1401.787 1401.711 1401.626 1401.389 1401.265 1401.112 1400.799 1400.643 1400.436 1400.166 1399.675 1399.417 1399.197 1398.547 1398.268 1397.912 1397.63 1396.963 1396.717 1396.334 1395.677 1395.389 
1409.092 1408.983 1408.824 1408.557 1408.444 1408.372 1408.245 1408.184 1408.181 1408.174 1408.228 1408.256 1408.198 1408.18 1408.12 1408.119 1408.138 1408.065 1408.059 1407.99 1407.981 1407.827 1407.745 1407.49 1407.411 1407.324 1406.967 1407.461 1407.329 1407.235 1407.035 1406.881 1406.787 1406.614 1406.524 1406.446 1406.366 1406.302 1406.302 1406.3 1406.154 1406.058 1405.9 1405.736 1405.615 1405.382 1405.01 1404.774 1404.54 1404.307 1403.874 1403.683 1403.382 1403.022 1402.857 1402.704 1402.627 1402.386 1402.289 1402.157 1401.909 1401.852 1401.828 1401.571 1401.467 1401.26 1401.114 1400.712 1400.474 1400.202 1399.705 1399.394 1399.127 1398.497 1398.211 1397.871 1397.475 1396.828 1396.457 1396.1 1395.451 1395.156 
1409.764 1409.637 1409.479 1409.258 1409.169 1409.038 1408.91 1408.852 1408.848 1408.798 1408.84 1408.831 1408.832 1408.716 1408.746 1408.711 1408.656 1408.602 1408.576 1408.578 1408.433 1408.345 1408.305 1408.081 1407.922 1407.827 1407.629 1407.461 1407.329 1407.881 1407.678 1407.573 1407.417 1407.178 1407.062 1407.047 1406.888 1406.804 1406.71 1406.625 1406.46 1406.377 1406.296 1406.052 1405.829 1405.672 1405.52 1405.067 1404.832 1404.598 1404.13 1403.894 1403.649 1403.365 1403.259 1403.099 1402.955 1402.65 1402.512 1402.356 1402.069 1402.012 1401.967 1401.756 1401.608 1401.419 1401.25 1400.793 1400.526 1400.31 1399.692 1399.394 1399.086 1398.392 1398.106 1397.715 1397.329 1396.603 1396.174 1395.874 1395.312 1394.943 
1410.407 1410.244 1410.083 1409.889 1409.753 1409.643 1409.587 1409.504 1409.459 1409.412 1409.391 1409.385 1409.379 1409.313 1409.299 1409.215 1409.226 1409.175 1409.121 1409.113 1409.05 1408.928 1408.944 1408.68 1408.535 1408.386 1408.282 1408.05 1408.031 1407.881 1407.678 1408.114 1408.023 1407.742 1407.668 1407.563 1407.4 1407.286 1407.123 1407.036 1406.877 1406.774 1406.616 1406.357 1406.13 1405.979 1405.829 1405.371 1405.137 1404.903 1404.46 1404.285 1404.05 1403.731 1403.582 1403.424 1403.265 1402.948 1402.79 1402.639 1402.334 1402.197 1402.065 1401.865 1401.703 1401.549 1401.369 1400.938 1400.614 1400.295 1399.669 1399.321 1398.972 1398.261 1397.922 1397.501 1397.116 1396.336 1395.972 1395.638 1394.967 1394.668 
1411.022 1410.863 1410.704 1410.492 1410.342 1410.266 1410.205 1410.105 1410.021 1410.021 1409.952 1409.952 1409.944 1409.953 1409.839 1409.761 1409.796 1409.772 1409.74 1409.705 1409.667 1409.565 1409.415 1409.248 1409.174 1409.09 1408.944 1408.734 1408.648 1408.574 1408.252 1408.114 1408.023 1408.364 1408.251 1408.08 1407.915 1407.684 1407.535 1407.45 1407.224 1407.17 1406.935 1406.717 1406.525 1406.284 1406.044 1405.684 1405.44 1405.201 1404.836 1404.593 1404.366 1404.044 1403.885 1403.728 1403.57 1403.258 1403.087 1402.871 1402.547 1402.385 1402.232 1402.029 1401.864 1401.71 1401.511 1401.032 1400.698 1400.307 1399.681 1399.251 1398.871 1398.109 1397.693 1397.238 1396.846 1396.129 1395.708 1395.326 1394.625 1394.253 
1411.558 1411.404 1411.246 1410.955 1410.815 1410.741 1410.708 1410.691 1410.649 1410.591 1410.491 1410.458 1410.5 1410.529 1410.474 1410.429 1410.409 1410.449 1410.347 1410.252 1410.218 1410.136 1410.003 1409.85 1409.754 1409.697 1409.624 1409.359 1409.26 1409.161 1408.904 1408.8 1408.632 1408.364 1408.765 1408.593 1408.432 1408.098 1407.953 1407.863 1407.59 1407.491 1407.336 1407.017 1406.827 1406.597 1406.436 1405.976 1405.755 1405.596 1405.183 1404.981 1404.674 1404.35 1404.191 1404.033 1403.876 1403.565 1403.389 1403.155 1402.827 1402.668 1402.511 1402.271 1402.134 1401.906 1401.673 1401.118 1400.796 1400.412 1399.615 1399.111 1398.698 1398.33 1397.396 1396.914 1396.576 1395.815 1395.392 1394.978 1394.212 1393.821 
1412.068 1411.921 1411.762 1411.433 1411.294 1411.21 1411.151 1411.137 1411.13 1411.094 1411.059 1411.025 1411.06 1411.115 1411.109 1411.102 1411.096 1411.047 1410.961 1410.912 1410.851 1410.777 1410.587 1410.444 1410.329 1410.307 1410.256 1410.015 1409.861 1409.695 1409.487 1409.309 1409.152 1408.933 1408.765 1408.593 1408.941 1408.618 1408.448 1408.284 1407.955 1407.823 1407.737 1407.314 1407.166 1406.997 1406.765 1406.322 1406.151 1405.917 1405.55 1405.306 1405.065 1404.828 1404.491 1404.333 1404.18 1403.87 1403.692 1403.453 1403.129 1402.975 1402.818 1402.658 1402.37 1402.191 1401.962 1401.247 1400.884 1400.512 1399.597 1399.056 1398.548 1398.07 1397.138 1396.656 1396.275 1395.43 1394.963 1394.509 1393.708 1393.307 
1412.55 1412.341 1412.192 1411.861 1411.748 1411.729 1411.64 1411.616 1411.609 1411.6 1411.615 1411.649 1411.639 1411.668 1411.676 1411.714 1411.712 1411.682 1411.634 1411.592 1411.42 1411.335 1411.26 1411.088 1411.016 1410.965 1410.944 1410.589 1410.501 1410.322 1410.105 1409.936 1409.774 1409.603 1409.334 1409.105 1408.941 1408.618 1408.861 1408.691 1408.363 1408.225 1408.131 1407.919 1407.541 1407.314 1407.153 1406.689 1406.473 1406.313 1405.894 1405.717 1405.477 1405.235 1404.902 1404.73 1404.497 1404.172 1404.01 1403.844 1403.481 1403.267 1403.114 1402.964 1402.629 1402.412 1402.189 1401.439 1401.038 1400.549 1399.48 1398.904 1398.381 1397.84 1396.839 1396.389 1395.881 1394.958 1394.493 1393.993 1393.094 1392.6 
1413.003 1412.824 1412.604 1412.312 1412.228 1412.173 1412.149 1412.042 1412.057 1412.11 1412.147 1412.211 1412.196 1412.202 1412.246 1412.267 1412.263 1412.257 1412.25 1412.201 1412.031 1411.957 1411.911 1411.827 1411.676 1411.64 1411.559 1411.325 1411.187 1410.942 1410.687 1410.523 1410.364 1410.211 1409.779 1409.615 1409.456 1409.096 1408.861 1408.691 1408.734 1408.504 1408.356 1408.286 1407.876 1407.71 1407.479 1407.041 1406.866 1406.633 1406.264 1406.02 1405.783 1405.543 1405.211 1405.053 1404.892 1404.464 1404.312 1404.155 1403.839 1403.675 1403.508 1403.281 1402.932 1402.681 1402.394 1401.678 1401.136 1400.541 1399.346 1398.721 1398.097 1397.563 1396.493 1395.948 1395.419 1394.367 1393.91 1393.423 1392.345 1391.744 
1413.421 1413.255 1413.013 1412.832 1412.647 1412.574 1412.568 1412.533 1412.537 1412.55 1412.633 1412.652 1412.7 1412.746 1412.803 1412.839 1412.829 1412.813 1412.81 1412.807 1412.66 1412.62 1412.584 1412.545 1412.344 1412.286 1412.173 1411.965 1411.753 1411.546 1411.198 1411.021 1410.863 1410.682 1410.339 1410.103 1409.943 1409.594 1409.35 1409.124 1408.734 1408.923 1408.776 1408.678 1408.255 1408.028 1407.868 1407.407 1407.19 1407.029 1406.612 1406.433 1406.192 1405.955 1405.509 1405.358 1405.201 1404.877 1404.72 1404.553 1404.134 1403.982 1403.834 1403.67 1403.235 1402.974 1402.607 1401.81 1401.212 1400.543 1399.262 1398.508 1397.779 1397.197 1396.011 1395.345 1394.767 1393.776 1393.25 1392.744 1392.06 1390.798 
1413.794 1413.575 1413.41 1413.308 1413.137 1413.066 1413.064 1413.022 1412.976 1413.033 1413.08 1413.139 1413.214 1413.29 1413.372 1413.394 1413.437 1413.432 1413.427 1413.419 1413.366 1413.337 1413.248 1413.203 1413.01 1412.959 1412.797 1412.53 1412.341 1412.159 1411.764 1411.556 1411.368 1411.151 1410.757 1410.522 1410.343 1410.011 1409.785 1409.617 1409.136 1408.923 1408.776 1408.923 1408.684 1408.43 1408.189 1407.821 1407.575 1407.346 1406.981 1406.734 1406.497 1406.258 1405.89 1405.663 1405.505 1405.182 1405.053 1404.959 1404.727 1404.434 1404.132 1403.972 1403.552 1403.273 1402.812 1401.801 1401.204 1400.444 1399.724 1398.113 1397.372 1396.664 1395.254 1394.643 1394.036 1392.936 1392.432 1391.888 1391.145 1389.787 
1414.129 1413.999 1413.913 1413.826 1413.647 1413.565 1413.5 1413.482 1413.464 1413.478 1413.587 1413.657 1413.728 1413.799 1413.925 1413.975 1414.054 1414.046 1414.04 1414.034 1414.034 1413.997 1413.91 1413.867 1413.659 1413.565 1413.407 1413.116 1412.98 1412.736 1412.326 1412.132 1411.922 1411.744 1411.248 1411.031 1410.789 1410.516 1410.264 1410.022 1409.542 1409.339 1409.171 1408.923 1408.684 1408.839 1408.604 1408.116 1407.904 1407.754 1407.596 1407.14 1406.905 1406.673 1406.232 1406.057 1405.825 1405.552 1405.352 1405.274 1405.125 1404.808 1404.637 1404.406 1403.745 1403.499 1403.096 1401.886 1401.188 1400.405 1399.536 1397.823 1396.931 1396.045 1394.605 1393.895 1393.295 1392.143 1391.536 1390.957 1390.167 1388.644 
1414.543 1414.408 1414.333 1414.311 1414.268 1414.163 1414.012 1413.891 1413.894 1413.89 1414.066 1414.184 1414.242 1414.303 1414.538 1414.592 1414.604 1414.666 1414.654 1414.648 1414.638 1414.621 1414.578 1414.536 1414.309 1414.177 1414.022 1413.65 1413.47 1413.234 1413.044 1412.647 1412.462 1412.226 1411.691 1411.51 1411.279 1410.885 1410.663 1410.428 1410.191 1409.745 1409.579 1409.343 1409.078 1408.839 1409.012 1408.545 1408.332 1408.161 1407.927 1407.448 1407.215 1407.06 1406.603 1406.362 1406.13 1405.911 1405.749 1405.582 1405.347 1405.057 1404.777 1404.69 1403.999 1403.702 1403.308 1401.827 1401.092 1400.317 1399.221 1397.349 1396.428 1395.517 1393.861 1393.255 1392.656 1391.371 1390.67 1389.901 1389.078 1387.349 
1414.889 1414.844 1414.847 1414.912 1414.785 1414.688 1414.528 1414.357 1414.295 1414.296 1414.425 1414.62 1414.762 1414.894 1415.065 1415.124 1415.171 1415.274 1415.263 1415.262 1415.25 1415.243 1415.237 1415.154 1414.921 1414.787 1414.587 1414.189 1413.978 1413.744 1413.499 1413.094 1412.85 1412.615 1412.167 1411.942 1411.679 1411.262 1411.07 1410.835 1410.618 1410.168 1409.988 1409.772 1409.417 1409.248 1409.012 1408.545 1408.809 1408.557 1408.318 1407.89 1407.527 1407.359 1406.947 1406.77 1406.539 1406.215 1406.026 1405.796 1405.633 1405.292 1405.067 1404.911 1404.282 1403.89 1403.413 1401.848 1400.98 1399.849 1398.706 1396.741 1395.81 1394.824 1393.24 1392.542 1391.889 1390.458 1389.581 1388.694 1387.827 1385.898 
1415.442 1415.281 1415.359 1415.432 1415.369 1415.201 1415.044 1414.754 1414.72 1414.787 1414.863 1415.19 1415.265 1415.409 1415.682 1415.802 1415.872 1415.971 1415.925 1415.867 1415.915 1415.905 1415.839 1415.764 1415.476 1415.332 1415.087 1414.702 1414.479 1414.204 1413.966 1413.489 1413.254 1413.021 1412.579 1412.372 1412.087 1411.723 1411.468 1411.242 1411.089 1410.64 1410.428 1410.256 1409.84 1409.652 1409.418 1409.061 1408.809 1408.557 1408.632 1408.16 1407.93 1407.691 1407.275 1406.989 1406.826 1406.359 1406.119 1405.897 1405.74 1405.313 1405.189 1405.113 1404.38 1403.998 1403.514 1401.553 1400.482 1399.315 1398.03 1395.921 1395.036 1394.186 1392.524 1391.724 1390.994 1390.171 1388.256 1387.298 1386.291 1384.207 
1416.033 1415.895 1415.979 1416.056 1415.884 1415.692 1415.461 1415.26 1415.22 1415.296 1415.354 1415.771 1415.958 1416.103 1416.367 1416.438 1416.507 1416.648 1416.673 1416.627 1416.586 1416.576 1416.526 1416.388 1416.044 1415.83 1415.642 1415.148 1414.918 1414.603 1414.361 1413.895 1413.664 1413.43 1412.953 1412.709 1412.483 1412.101 1411.878 1411.648 1411.488 1411.07 1410.907 1410.667 1410.307 1410.053 1409.822 1409.465 1409.187 1408.873 1408.632 1408.16 1408.326 1408.092 1407.613 1407.354 1407.036 1406.793 1406.323 1406.099 1405.942 1405.421 1405.245 1404.939 1404.458 1404.054 1403.33 1402.245 1399.681 1398.409 1397.194 1394.975 1394.016 1393.131 1391.502 1390.719 1389.821 1388.803 1386.795 1385.688 1384.58 1382.347 
1416.761 1416.598 1416.581 1416.497 1416.446 1416.309 1416.065 1415.802 1415.829 1415.912 1416.045 1416.384 1416.604 1416.746 1417.028 1417.146 1417.206 1417.309 1417.333 1417.371 1417.285 1417.15 1417.088 1416.986 1416.615 1416.477 1416.267 1415.586 1415.297 1414.998 1414.765 1414.286 1414.011 1413.779 1413.333 1413.13 1412.893 1412.645 1412.253 1412.053 1411.896 1411.474 1411.305 1411.072 1410.705 1410.466 1410.253 1410.075 1409.595 1409.285 1409.046 1408.571 1408.326 1408.39 1407.805 1407.544 1407.236 1406.988 1406.486 1406.187 1405.951 1405.412 1405.256 1405.024 1404.256 1403.7 1402.803 1401.472 1398.714 1397.348 1395.99 1393.613 1392.777 1391.802 1390.203 1389.314 1388.4 1387.302 1385.057 1383.851 1382.661 1380.476 
1417.465 1417.176 1417.11 1417.102 1416.949 1416.835 1416.674 1416.587 1416.513 1416.527 1416.667 1416.969 1417.13 1417.343 1417.708 1417.794 1417.919 1417.947 1418.019 1418.085 1418.059 1417.891 1417.796 1417.656 1417.25 1417.102 1416.802 1416.453 1415.797 1415.45 1415.173 1414.621 1414.36 1414.126 1413.681 1413.48 1413.248 1413.052 1412.602 1412.458 1412.304 1411.88 1411.71 1411.477 1411.103 1410.888 1410.737 1410.506 1409.979 1409.691 1409.454 1408.932 1408.639 1408.39 1407.805 1407.741 1407.432 1407.118 1406.504 1406.284 1406.049 1405.432 1405.144 1404.903 1403.908 1403.043 1401.875 1400.682 1397.488 1396.097 1394.811 1392.319 1391.352 1390.528 1388.757 1387.821 1386.767 1385.589 1383.085 1381.88 1380.648 1378.731 
1418.102 1417.87 1417.733 1417.72 1417.56 1417.474 1417.386 1417.294 1417.271 1417.34 1417.406 1417.605 1417.841 1418.065 1418.365 1418.5 1418.64 1418.764 1418.865 1418.863 1418.923 1418.769 1418.667 1418.507 1418.07 1417.729 1417.425 1417.184 1416.453 1416.013 1415.645 1415.029 1414.77 1414.536 1414.071 1413.829 1413.598 1413.4 1413.017 1412.865 1412.708 1412.287 1412.114 1411.878 1411.527 1411.321 1411.138 1410.912 1410.318 1410.098 1409.867 1409.267 1408.998 1408.683 1408.057 1407.741 1407.432 1407.313 1406.602 1406.359 1406.041 1405.438 1405.082 1404.6 1403.268 1402.205 1400.801 1399.434 1396.263 1394.712 1393.356 1390.91 1389.948 1388.997 1387.219 1386.133 1384.994 1383.734 1381.127 1379.885 1378.917 1377.695 
1418.8 1418.525 1418.447 1418.358 1418.183 1418.092 1418.012 1417.993 1417.992 1418.078 1418.218 1418.393 1418.545 1418.696 1419.074 1419.234 1419.441 1419.583 1419.944 1420.032 1420.022 1419.936 1419.807 1419.577 1419.044 1418.631 1418.263 1417.872 1417.073 1416.612 1416.21 1415.481 1415.158 1414.937 1414.411 1414.179 1413.948 1413.745 1413.432 1413.271 1413.114 1412.688 1412.528 1412.323 1411.97 1411.789 1411.542 1411.313 1410.729 1410.5 1410.247 1409.596 1409.219 1408.894 1408.253 1407.937 1407.617 1407.313 1406.602 1406.317 1405.933 1405.323 1404.829 1404.254 1402.38 1401.087 1399.597 1398.005 1394.742 1393.121 1391.77 1389.562 1388.568 1387.519 1386.551 1384.432 1383.198 1381.848 1379.306 1378.362 1377.705 1377.19 
1419.423 1419.247 1419.161 1419.076 1418.895 1418.839 1418.828 1418.739 1418.798 1418.804 1418.943 1419.232 1419.371 1419.511 1419.941 1420.155 1420.368 1420.572 1420.961 1421.087 1421.208 1421.252 1421.116 1420.852 1420.152 1419.791 1419.33 1418.803 1417.768 1417.281 1416.96 1416.079 1415.661 1415.334 1414.756 1414.525 1414.304 1414.149 1413.789 1413.676 1413.52 1413.12 1412.941 1412.789 1412.362 1412.2 1411.983 1411.724 1411.164 1410.896 1410.578 1409.933 1409.601 1409.185 1408.783 1408.098 1407.724 1407.385 1406.666 1406.317 1405.806 1404.916 1404.424 1403.612 1402.544 1399.759 1398.215 1396.622 1393.086 1391.486 1390.367 1388.195 1387.206 1386.142 1385.019 1382.731 1381.502 1380.206 1378.056 1377.415 1377.233 1377.091 
1420.153 1419.864 1419.781 1419.688 1419.51 1419.486 1419.546 1419.464 1419.559 1419.623 1419.686 1419.957 1420.119 1420.339 1420.77 1421.01 1421.303 1421.584 1422.26 1422.471 1422.527 1422.726 1422.526 1422.335 1421.531 1421.039 1420.443 1419.846 1418.641 1418.114 1417.644 1416.715 1416.262 1415.869 1415.495 1414.977 1414.709 1414.551 1414.202 1414.082 1413.924 1413.592 1413.384 1413.186 1412.99 1412.624 1412.451 1412.135 1411.623 1411.3 1410.988 1410.25 1409.876 1409.404 1409.008 1408.222 1407.871 1407.417 1406.667 1406.202 1405.806 1404.916 1403.76 1402.903 1401.557 1398.452 1396.809 1395.052 1391.664 1390.348 1389.222 1386.94 1385.827 1384.77 1383.644 1381.304 1380.021 1378.865 1377.414 1377.176 1377.099 1377.096 
1420.153 1420.594 1420.488 1420.325 1420.238 1420.211 1420.262 1420.184 1420.282 1420.344 1420.413 1420.685 1420.849 1421.069 1421.602 1421.952 1422.243 1422.605 1423.478 1423.875 1424.125 1424.324 1424.221 1423.963 1423.595 1422.39 1421.619 1420.868 1419.614 1419.012 1418.409 1417.303 1416.871 1416.482 1416.083 1415.474 1415.169 1414.957 1414.641 1414.479 1414.322 1414.015 1413.85 1413.648 1413.459 1413.018 1412.851 1412.574 1412.015 1411.7 1411.391 1410.568 1410.142 1409.71 1409.305 1408.338 1407.882 1407.487 1406.527 1406.059 1405.596 1404.437 1403.76 1402.903 1400.394 1397.101 1395.307 1393.487 1390.332 1389.318 1388.18 1385.845 1384.642 1383.506 1382.374 1380.01 1378.77 1377.928 1377.242 1377.092 1377.17 1377.174 
1420.771 1420.594 1420.488 1421.049 1420.941 1420.911 1420.895 1420.888 1420.966 1420.979 1421.127 1421.412 1421.575 1421.802 1422.088 1422.854 1423.277 1423.566 1424.672 1425.186 1425.688 1426.169 1425.998 1425.725 1425.216 1423.719 1422.934 1422.081 1420.596 1419.916 1419.231 1417.92 1417.46 1417.088 1416.701 1415.958 1415.658 1415.418 1415.092 1414.937 1414.779 1414.445 1414.257 1414.102 1413.865 1413.46 1413.27 1413.082 1412.429 1412.145 1411.797 1410.857 1410.4 1409.965 1409.479 1408.444 1407.946 1407.46 1406.353 1405.836 1405.341 1403.915 1403.022 1401.841 1400.394 1397.101 1393.82 1392.089 1389.506 1388.375 1387.243 1384.901 1383.667 1382.449 1381.231 1378.973 1378.043 1377.367 1377.336 1377.388 1377.388 1377.384 
1421.479 1421.255 1421.216 1421.049 1421.653 1421.618 1421.598 1421.59 1421.676 1421.702 1421.848 1422.135 1422.296 1422.536 1422.908 1423.466 1423.932 1424.379 1425.574 1426.158 1426.684 1427.516 1427.404 1427.049 1426.573 1424.973 1424.001 1423.223 1421.467 1420.728 1420.037 1418.764 1418.182 1417.691 1417.297 1416.615 1416.312 1416.072 1415.713 1415.516 1415.359 1414.895 1414.701 1414.501 1414.313 1413.897 1413.669 1413.484 1412.863 1412.605 1412.203 1411.287 1410.78 1410.193 1409.644 1408.556 1407.916 1407.378 1406.111 1405.534 1404.888 1404.143 1402.271 1400.866 1399.26 1395.662 1393.82 1390.783 1388.694 1387.572 1386.5 1385.318 1382.73 1381.514 1380.301 1378.074 1377.651 1377.596 1377.541 1377.569 1377.498 1377.624 
1422.111 1421.968 1421.897 1421.749 1421.653 1421.618 1422.113 1422.091 1422.219 1422.312 1422.46 1422.748 1422.912 1423.157 1423.527 1424.134 1424.653 1425.031 1426.172 1426.731 1427.328 1427.961 1428.047 1427.852 1427.618 1426.006 1425.103 1424.116 1422.395 1421.618 1420.851 1419.504 1418.897 1418.361 1417.9 1417.263 1416.958 1416.722 1416.363 1416.127 1415.911 1415.375 1415.206 1414.964 1414.756 1414.366 1414.117 1413.837 1413.268 1413.007 1412.609 1412.154 1411.068 1410.451 1409.885 1408.614 1407.93 1407.318 1405.812 1405.089 1404.356 1403.606 1401.329 1399.835 1398.156 1394.25 1392.391 1390.783 1388.694 1386.95 1385.82 1384.839 1382.177 1380.891 1379.775 1377.989 1377.711 1377.793 1377.796 1377.841 1377.997 1378.144 
1422.794 1422.589 1422.446 1422.352 1422.249 1422.188 1422.113 1422.091 1422.734 1422.822 1422.963 1423.253 1423.424 1423.661 1423.957 1424.69 1425.098 1425.628 1426.547 1427.037 1427.566 1428.078 1428.083 1427.991 1427.851 1426.608 1425.777 1424.831 1423.132 1422.38 1421.666 1420.887 1419.703 1419.17 1418.695 1417.856 1417.568 1417.339 1416.897 1416.658 1416.418 1416.156 1415.708 1415.478 1415.292 1414.81 1414.557 1414.244 1413.684 1413.347 1412.953 1412.503 1411.322 1410.67 1410.019 1408.674 1407.959 1407.148 1405.519 1404.709 1403.859 1402.979 1400.412 1398.984 1397.167 1393.035 1391.342 1390.071 1388 1386.95 1385.82 1384.469 1381.823 1380.516 1379.742 1378.447 1378.22 1378.143 1378.325 1378.48 1378.624 1378.765 
1423.433 1423.223 1423.094 1422.943 1422.786 1422.745 1422.713 1422.637 1422.734 1423.308 1423.378 1423.67 1423.844 1424.095 1424.462 1425.027 1425.482 1425.862 1426.776 1427.218 1427.585 1427.834 1428.117 1428.088 1427.947 1426.958 1426.221 1425.431 1423.746 1422.994 1422.297 1421.58 1420.419 1419.817 1419.345 1418.467 1418.167 1417.873 1417.4 1417.162 1416.926 1416.693 1416.213 1415.984 1415.779 1415.269 1415.015 1414.698 1414.084 1413.68 1413.288 1412.838 1411.71 1410.969 1410.24 1408.654 1407.881 1406.999 1405.166 1404.313 1403.428 1402.324 1399.603 1398.037 1396.02 1392.185 1390.583 1389.583 1387.654 1386.571 1385.534 1384.469 1382.035 1381.139 1380.233 1379.158 1378.866 1378.797 1378.961 1379.141 1379.364 1379.583 
1424.101 1423.921 1423.539 1423.451 1423.374 1423.287 1423.211 1423.211 1423.234 1423.308 1423.378 1423.911 1424.361 1424.585 1424.801 1425.268 1425.606 1426.065 1426.948 1427.299 1427.604 1427.92 1428.065 1428.186 1428.045 1427.27 1426.538 1425.837 1424.311 1423.612 1422.907 1422.194 1420.957 1420.429 1419.959 1419.081 1418.784 1418.469 1417.903 1417.67 1417.434 1417.198 1416.726 1416.494 1416.25 1415.779 1415.541 1415.278 1414.533 1414.148 1413.752 1413.249 1412.062 1411.187 1410.384 1408.67 1407.741 1406.819 1404.888 1403.925 1402.949 1401.718 1398.779 1397.023 1395.209 1391.746 1390.372 1389.402 1387.37 1386.365 1385.436 1384.391 1382.035 1381.139 1380.929 1379.928 1379.823 1379.745 1379.784 1380.08 1380.309 1380.525 
1424.558 1424.34 1424.095 1423.937 1423.851 1423.678 1423.615 1423.609 1423.618 1423.697 1423.773 1423.911 1424.361 1424.856 1425.083 1425.59 1425.921 1426.283 1427.051 1427.413 1427.707 1427.949 1428.069 1428.186 1428.042 1427.343 1426.738 1426.042 1424.73 1424.042 1423.429 1422.872 1421.589 1420.93 1420.465 1419.669 1419.307 1418.996 1418.414 1418.186 1417.942 1417.706 1417.209 1416.93 1416.756 1416.297 1416.048 1415.756 1415.048 1414.637 1414.19 1413.704 1412.38 1411.463 1410.541 1408.583 1407.558 1406.613 1405.629 1403.502 1402.439 1401.121 1398.014 1396.299 1394.485 1391.528 1390.299 1389.336 1388.32 1386.464 1385.464 1384.478 1382.59 1381.587 1380.929 1379.928 1380.742 1380.667 1380.637 1380.938 1381.226 1381.453 
1425.001 1424.811 1424.48 1424.336 1424.255 1424.056 1423.998 1423.994 1423.926 1424.003 1424.095 1424.223 1424.638 1424.856 1425.083 1425.831 1426.172 1426.402 1427.175 1427.505 1427.718 1427.95 1428.145 1428.196 1428.123 1427.429 1426.844 1426.229 1425.091 1424.452 1423.837 1423.294 1422.187 1421.626 1421.079 1420.179 1419.813 1419.503 1418.875 1418.624 1418.458 1418.229 1417.656 1417.41 1417.19 1416.727 1416.491 1416.227 1415.926 1415.145 1414.71 1414.217 1412.725 1411.791 1410.697 1408.385 1407.295 1406.267 1405.24 1403.106 1402.009 1400.715 1397.626 1395.972 1394.268 1391.574 1390.401 1389.461 1388.38 1386.618 1385.699 1384.85 1383.109 1382.302 1381.771 1380.935 1380.742 1380.667 1381.6 1381.823 1381.98 1382.27 
1425.471 1425.259 1424.887 1424.74 1424.633 1424.383 1424.326 1424.324 1424.294 1424.329 1424.488 1424.561 1424.824 1424.981 1425.206 1425.831 1426.203 1426.517 1427.342 1427.682 1427.823 1428.051 1428.198 1428.191 1428.115 1427.457 1426.962 1426.415 1425.8 1424.718 1424.232 1423.614 1422.601 1422.083 1421.685 1420.679 1420.332 1420.014 1419.628 1419.105 1418.879 1418.652 1418.058 1417.851 1417.675 1417.178 1416.896 1416.661 1416.359 1415.704 1415.337 1414.738 1413.058 1411.993 1410.838 1408.255 1407.096 1405.989 1404.906 1402.798 1401.621 1400.346 1397.365 1395.775 1394.277 1391.761 1390.628 1389.62 1388.555 1386.927 1386.081 1385.484 1383.976 1383.365 1382.835 1381.946 1381.709 1381.623 1381.6 1382.869 1383.024 1383.214 
1425.919 1425.729 1425.291 1425.138 1424.978 1424.768 1424.71 1424.712 1424.692 1424.662 1424.792 1424.847 1425.126 1425.295 1425.522 1425.888 1426.203 1426.517 1427.121 1427.678 1427.843 1428.063 1428.21 1428.198 1428.117 1427.556 1427.05 1426.507 1425.964 1424.985 1424.451 1423.983 1422.939 1422.471 1422.013 1421.158 1420.735 1420.434 1420.115 1419.548 1419.374 1419.065 1418.526 1418.262 1418.109 1417.544 1417.306 1417.071 1416.767 1416.13 1415.769 1415.322 1413.341 1412.218 1410.961 1408.207 1406.926 1405.754 1404.686 1402.513 1401.275 1399.881 1397.118 1395.659 1394.293 1391.776 1390.691 1389.726 1388.772 1387.31 1386.586 1385.964 1384.852 1384.353 1383.887 1383.116 1382.917 1382.775 1382.737 1382.869 1383.024 1384.084 
1426.38 1426.141 1425.702 1425.545 1425.354 1425.077 1425.045 1425.01 1424.918 1425.012 1425.072 1425.083 1425.326 1425.493 1425.703 1426.104 1426.414 1426.74 1427.121 1427.678 1428.043 1428.196 1428.251 1428.312 1428.224 1427.589 1427.144 1426.605 1426.141 1425.098 1424.658 1424.272 1423.281 1422.882 1422.416 1421.624 1421.225 1420.842 1420.522 1419.993 1419.719 1419.546 1418.94 1418.652 1418.438 1417.959 1417.71 1417.409 1417.092 1416.423 1415.98 1415.557 1413.594 1412.417 1411.114 1408.29 1406.886 1405.636 1404.475 1402.147 1400.929 1399.623 1397.022 1395.648 1394.339 1391.91 1390.871 1390.005 1389.193 1387.779 1387.116 1386.49 1385.588 1385.126 1384.705 1384.361 1383.925 1383.835 1383.753 1383.873 1384.005 1384.084 
1426.778 1426.544 1426.089 1425.892 1425.687 1425.437 1425.405 1425.322 1425.268 1425.216 1425.274 1425.358 1425.532 1425.689 1425.834 1426.278 1426.546 1426.931 1427.325 1427.804 1428.043 1428.196 1428.356 1428.401 1428.311 1427.688 1427.236 1426.695 1426.227 1425.299 1424.854 1424.468 1423.476 1423.101 1422.711 1421.924 1421.559 1421.246 1420.931 1420.405 1420.099 1419.881 1419.366 1419.043 1418.742 1418.25 1417.935 1417.635 1417.394 1416.671 1416.246 1415.725 1413.963 1412.633 1411.144 1409.755 1406.951 1405.609 1404.322 1401.967 1400.783 1399.655 1397.102 1395.75 1394.58 1393.382 1391.235 1390.419 1389.643 1388.299 1387.701 1387.168 1386.281 1385.854 1385.555 1385.176 1384.794 1384.666 1384.659 1384.681 1384.843 1385.062 
1427.182 1426.948 1426.488 1426.299 1426.145 1425.847 1425.728 1425.625 1425.598 1425.482 1425.516 1425.56 1425.751 1425.871 1426.047 1426.481 1426.747 1427.059 1427.43 1427.883 1428.178 1428.306 1428.356 1428.402 1428.315 1427.783 1427.328 1426.788 1426.32 1425.389 1424.941 1424.556 1423.784 1423.42 1423.109 1422.73 1421.964 1421.655 1421.339 1420.858 1420.58 1420.199 1419.676 1419.383 1419.138 1418.775 1418.135 1417.828 1417.536 1416.794 1416.396 1415.855 1414.085 1412.711 1411.325 1409.882 1406.993 1405.569 1404.255 1401.942 1400.847 1399.735 1397.225 1395.939 1394.752 1393.583 1391.618 1390.755 1390.047 1388.834 1388.268 1387.9 1387.001 1386.634 1386.29 1385.969 1385.66 1385.569 1385.537 1385.559 1385.63 1385.788 
1427.587 1427.352 1426.91 1426.765 1426.613 1426.294 1426.127 1425.969 1425.849 1425.713 1425.74 1425.766 1425.947 1426.009 1426.251 1426.66 1426.97 1427.27 1427.545 1428.223 1428.428 1428.447 1428.42 1428.402 1428.315 1428.109 1427.417 1426.88 1426.414 1425.482 1425.035 1424.651 1423.922 1423.618 1423.312 1423.007 1422.265 1421.969 1421.73 1421.263 1421.011 1420.694 1419.967 1419.666 1419.363 1419.054 1418.33 1418.034 1417.732 1416.918 1416.4 1415.858 1414.048 1412.792 1411.471 1410.078 1407.052 1405.607 1404.297 1401.969 1400.84 1399.686 1397.311 1396.108 1394.924 1393.834 1392.016 1391.198 1390.589 1389.419 1388.867 1388.449 1387.735 1387.454 1387.078 1386.75 1386.484 1386.339 1386.246 1386.331 1386.379 1386.594 
1427.99 1427.755 1427.386 1427.213 1427.01 1426.85 1426.542 1426.379 1426.174 1426.028 1425.96 1426.01 1426.123 1426.253 1426.43 1426.688 1427.176 1427.478 1427.736 1428.433 1428.487 1428.596 1428.522 1428.511 1428.402 1428.109 1427.417 1426.958 1426.497 1425.568 1425.126 1424.746 1424.081 1423.738 1423.505 1423.204 1422.685 1422.379 1422.139 1421.678 1421.401 1421.013 1420.328 1419.962 1419.656 1419.282 1418.504 1418.127 1417.759 1416.938 1416.395 1415.85 1413.975 1412.719 1411.461 1410.091 1407.063 1405.673 1404.367 1402.098 1400.932 1399.779 1397.532 1396.429 1395.274 1394.263 1392.52 1391.817 1391.154 1389.952 1389.46 1388.998 1388.367 1388.066 1387.781 1387.429 1387.107 1387.056 1386.972 1387.066 1387.174 1387.32 
1428.391 1428.153 1427.843 1427.674 1427.476 1427.272 1426.93 1426.722 1426.517 1426.405 1426.327 1426.286 1426.342 1426.474 1426.607 1426.881 1427.377 1427.708 1428.128 1428.651 1428.764 1428.66 1428.637 1428.596 1428.413 1428.101 1427.426 1426.958 1426.497 1425.604 1425.224 1424.854 1424.343 1424.018 1423.728 1423.574 1423.051 1422.877 1422.568 1422.088 1421.809 1421.414 1420.687 1420.323 1419.86 1419.469 1418.712 1418.317 1417.864 1416.816 1416.29 1415.749 1413.904 1412.678 1411.435 1410.127 1407.134 1405.818 1404.51 1402.377 1401.195 1400.033 1397.805 1396.79 1395.723 1394.711 1393.031 1392.356 1391.699 1390.528 1390.074 1389.616 1389.286 1388.677 1388.409 1388.077 1387.727 1387.7 1387.616 1387.701 1387.859 1388.015 
1428.802 1428.623 1428.23 1428.089 1427.932 1427.691 1427.334 1427.14 1426.982 1426.746 1426.666 1426.585 1426.545 1426.682 1426.928 1427.121 1427.594 1427.957 1428.4 1428.795 1428.91 1428.851 1428.736 1428.672 1428.49 1428.111 1427.414 1426.939 1426.478 1425.604 1425.335 1425.039 1424.532 1424.25 1424.033 1423.868 1423.428 1423.211 1423.052 1422.536 1422.324 1421.924 1421.083 1420.64 1420.247 1419.793 1418.764 1418.319 1417.867 1416.801 1416.257 1415.633 1414.77 1412.599 1411.412 1410.113 1407.319 1406.02 1404.769 1402.529 1401.415 1400.308 1399.193 1397.172 1396.212 1395.195 1393.593 1392.915 1392.306 1391.108 1390.614 1390.162 1389.839 1389.256 1388.906 1388.681 1388.294 1388.191 1388.145 1388.326 1388.472 1388.619 
1429.289 1429.073 1428.689 1428.471 1428.266 1428.078 1427.757 1427.603 1427.445 1427.16 1427.073 1426.948 1426.858 1426.99 1427.193 1427.372 1427.883 1428.312 1428.666 1428.955 1428.917 1428.899 1428.847 1428.705 1428.502 1428.127 1427.41 1426.948 1426.486 1425.704 1425.335 1425.039 1424.9 1424.565 1424.331 1424.103 1423.894 1423.718 1423.487 1423.117 1422.857 1422.528 1422.069 1421.122 1420.646 1420.111 1418.92 1418.375 1417.769 1416.689 1416.152 1415.514 1414.561 1412.488 1411.307 1410.074 1407.353 1406.138 1404.965 1402.655 1401.689 1400.659 1399.635 1397.635 1396.719 1395.819 1394.137 1393.51 1392.846 1391.693 1391.165 1390.711 1390.349 1389.777 1389.458 1389.178 1388.857 1388.746 1388.715 1388.89 1389.061 1389.28 
1429.653 1429.479 1429.078 1428.871 1428.628 1428.472 1428.159 1427.996 1427.838 1427.56 1427.477 1427.356 1427.218 1427.315 1427.435 1427.664 1428.267 1428.682 1428.92 1429.087 1429.052 1428.966 1428.929 1428.853 1428.579 1428.201 1427.423 1427.026 1426.567 1425.786 1425.434 1425.145 1424.9 1424.565 1424.655 1424.594 1424.328 1424.267 1424.192 1423.683 1423.491 1423.14 1422.602 1421.719 1421.132 1420.437 1419.14 1418.454 1417.844 1416.737 1416.086 1415.301 1414.325 1412.222 1411.181 1409.951 1407.425 1406.222 1405.125 1402.935 1402.08 1401.125 1400.12 1398.121 1397.214 1396.363 1394.821 1394.089 1393.397 1392.301 1391.778 1391.315 1390.867 1390.243 1390.015 1389.738 1389.429 1389.358 1389.306 1389.474 1389.674 1389.963 
1430.018 1429.799 1429.617 1429.227 1429.106 1428.892 1428.582 1428.467 1428.307 1428.027 1427.94 1427.814 1427.674 1427.721 1427.84 1428.021 1428.658 1428.964 1429.111 1429.283 1429.223 1429.143 1429.061 1428.833 1428.596 1428.214 1427.439 1427.033 1426.572 1425.827 1425.547 1425.312 1425.102 1424.792 1424.655 1424.594 1424.852 1424.812 1424.808 1424.587 1424.283 1423.879 1423.409 1422.257 1421.525 1420.747 1419.325 1418.648 1418.036 1416.724 1415.955 1415.165 1414.19 1412.043 1410.98 1409.889 1407.478 1406.411 1405.399 1403.485 1402.566 1401.632 1400.699 1398.668 1397.707 1396.912 1395.455 1394.779 1394.078 1392.898 1392.381 1391.922 1391.492 1390.846 1390.567 1390.33 1390.089 1390.038 1390.075 1390.1 1390.372 1390.604 
1430.426 1430.253 1430.095 1429.73 1429.533 1429.349 1429.073 1428.98 1428.814 1428.533 1428.427 1428.27 1428.267 1428.249 1428.416 1428.558 1429.09 1429.314 1429.385 1429.452 1429.354 1429.277 1429.207 1428.863 1428.666 1428.315 1427.545 1427.137 1426.674 1425.934 1425.619 1425.344 1425.278 1425.091 1424.968 1424.967 1424.852 1425.55 1425.552 1425.316 1425.085 1424.785 1424.179 1422.864 1422.121 1421.264 1419.567 1418.819 1418.131 1416.701 1415.94 1415.136 1414.082 1411.869 1410.742 1409.741 1407.557 1406.508 1405.589 1404.732 1402.909 1402.034 1401.046 1399.16 1398.295 1397.523 1396.002 1395.337 1394.692 1394.061 1392.973 1392.514 1392.122 1391.498 1391.246 1391.043 1390.812 1390.813 1390.886 1390.905 1391.225 1391.47 
1430.922 1430.759 1430.605 1430.274 1430.1 1429.935 1429.557 1429.483 1429.384 1429.15 1429.001 1428.912 1428.988 1428.903 1429.035 1429.188 1429.547 1429.663 1429.69 1429.651 1429.567 1429.491 1429.386 1428.976 1428.69 1428.362 1427.6 1427.202 1426.766 1426.002 1425.742 1425.565 1425.545 1425.312 1425.276 1425.284 1425.397 1425.55 1425.552 1426.38 1426.148 1425.632 1425.069 1423.495 1422.6 1421.659 1419.708 1418.888 1418.116 1417.347 1415.824 1415.013 1413.95 1411.877 1410.806 1409.81 1407.719 1406.79 1405.868 1405.012 1403.29 1402.424 1401.49 1399.578 1398.806 1398.03 1396.619 1396.008 1395.443 1394.819 1393.64 1393.245 1392.853 1392.204 1391.968 1391.918 1391.73 1391.755 1391.827 1391.931 1392.343 1392.627 
1431.455 1431.352 1431.127 1430.842 1430.631 1430.534 1430.233 1430.141 1429.994 1429.769 1429.703 1429.631 1429.643 1429.678 1429.706 1429.813 1429.995 1430.02 1430.053 1429.842 1429.755 1429.638 1429.482 1429.096 1428.784 1428.394 1427.623 1427.231 1426.818 1426.364 1425.891 1425.732 1425.662 1425.589 1425.594 1425.69 1425.968 1426.204 1426.375 1426.403 1426.148 1426.586 1425.827 1424.117 1423.052 1421.959 1419.963 1419.03 1418.107 1417.251 1415.666 1414.805 1413.89 1411.898 1410.87 1409.799 1407.914 1407.008 1406.158 1405.302 1403.729 1402.925 1401.986 1400.147 1399.402 1398.698 1397.313 1396.723 1396.18 1395.609 1394.581 1394.145 1393.743 1393.042 1392.868 1392.77 1392.711 1392.722 1392.798 1392.924 1393.503 1393.817 
1432.046 1431.888 1431.706 1431.483 1431.303 1431.15 1430.868 1430.788 1430.677 1430.447 1430.426 1430.337 1430.321 1430.389 1430.436 1430.454 1430.43 1430.424 1430.364 1430.161 1429.988 1429.785 1429.634 1429.134 1428.888 1428.502 1427.682 1427.281 1426.844 1426.438 1426.05 1425.857 1425.85 1425.956 1425.934 1426.093 1426.576 1426.837 1427.143 1427.265 1427.052 1426.586 1426.563 1424.533 1423.407 1422.24 1420.089 1419.101 1418.2 1417.424 1415.598 1414.675 1413.757 1411.918 1410.971 1409.972 1408.099 1407.19 1406.357 1405.575 1403.987 1403.157 1402.439 1400.763 1399.985 1399.228 1398.039 1397.422 1396.882 1396.394 1395.431 1394.977 1394.646 1394.095 1393.885 1393.716 1393.647 1393.688 1393.764 1393.99 1394.651 1395.006 
1432.562 1432.399 1432.303 1432.106 1431.948 1431.848 1431.564 1431.484 1431.404 1431.296 1431.161 1431.144 1431.136 1431.035 1431.018 1431.014 1430.797 1430.739 1430.599 1430.403 1430.224 1429.981 1429.789 1429.252 1428.929 1428.542 1427.679 1427.315 1426.902 1426.56 1426.215 1426.109 1426.096 1426.222 1426.357 1426.508 1427.101 1427.333 1427.598 1427.777 1427.61 1427.189 1426.563 1424.533 1423.665 1422.421 1420.212 1419.173 1418.256 1417.334 1415.366 1414.437 1413.441 1411.731 1410.886 1410.044 1408.351 1407.455 1406.552 1405.846 1404.336 1403.637 1402.942 1401.37 1400.603 1399.902 1398.688 1398.16 1397.681 1397.21 1396.362 1395.944 1395.563 1395.086 1394.918 1394.81 1394.708 1394.831 1395.023 1395.265 1395.808 1396.249 
1433.093 1433.008 1432.929 1432.65 1432.568 1432.48 1432.235 1432.183 1432.034 1432.008 1431.866 1431.812 1431.819 1431.573 1431.501 1431.449 1431.234 1431.084 1430.916 1430.764 1430.476 1430.225 1429.946 1429.355 1428.956 1428.577 1427.732 1427.359 1426.937 1426.697 1426.39 1426.346 1426.399 1426.536 1426.786 1426.99 1427.582 1427.792 1427.924 1428.043 1428.005 1427.684 1426.937 1424.862 1423.665 1422.421 1420.239 1419.124 1418.133 1417.2 1415.175 1414.319 1413.329 1411.659 1410.874 1410.032 1409.252 1407.676 1406.841 1406.139 1404.741 1404.041 1403.345 1401.929 1401.215 1400.522 1399.948 1398.871 1398.393 1397.925 1397.245 1396.898 1396.563 1396.129 1396.047 1395.956 1395.852 1395.946 1396.085 1396.354 1397.054 1397.51 
1433.787 1433.615 1433.452 1433.263 1433.178 1433.091 1433.013 1432.923 1432.827 1432.755 1432.529 1432.5 1432.376 1432.175 1432.077 1431.935 1431.644 1431.51 1431.407 1431.207 1430.781 1430.537 1430.225 1429.505 1429.096 1428.627 1427.745 1427.369 1427.032 1426.781 1426.572 1426.562 1426.722 1427.036 1427.251 1427.505 1427.978 1428.198 1428.277 1428.251 1428.078 1427.757 1427.152 1425.061 1423.905 1422.605 1421.413 1419.124 1418.115 1417.017 1415.065 1414.228 1413.31 1411.689 1410.991 1410.213 1409.366 1407.901 1407.135 1406.437 1405.077 1404.439 1403.743 1402.436 1401.736 1401.122 1400.634 1399.641 1399.293 1398.748 1398.036 1397.837 1397.515 1397.147 1397.012 1396.932 1396.887 1397.017 1397.155 1397.393 1398.097 1398.562 
1434.396 1434.237 1434.146 1433.931 1433.8 1433.79 1433.641 1433.559 1433.475 1433.394 1433.116 1433.041 1432.88 1432.712 1432.615 1432.457 1432.135 1431.967 1431.774 1431.541 1431.051 1430.767 1430.458 1429.691 1429.22 1428.67 1428.152 1427.368 1427.113 1426.941 1426.989 1427.041 1427.189 1427.529 1427.715 1427.953 1428.274 1428.53 1428.495 1428.384 1428.214 1427.85 1427.243 1425.187 1424.003 1422.773 1421.532 1419.209 1418.115 1417.05 1415.055 1414.33 1413.414 1411.784 1411.07 1410.311 1409.621 1408.118 1407.428 1406.735 1405.478 1404.859 1404.233 1402.917 1402.367 1401.834 1401.432 1400.389 1399.941 1399.531 1398.872 1398.586 1398.339 1398.031 1397.931 1397.859 1397.91 1397.983 1398.152 1398.376 1398.978 1399.493 
1435.054 1434.96 1434.871 1434.631 1434.611 1434.526 1434.444 1434.161 1434.083 1434.009 1433.798 1433.633 1433.472 1433.28 1433.1 1432.876 1432.715 1432.388 1432.143 1431.908 1431.385 1431.022 1430.722 1429.774 1429.284 1428.739 1428.174 1427.492 1427.37 1427.339 1427.43 1427.562 1427.708 1427.982 1428.301 1428.626 1428.752 1428.814 1428.737 1428.604 1428.243 1427.931 1427.403 1425.319 1424.203 1422.977 1421.705 1419.343 1418.197 1417.05 1415.055 1414.409 1413.572 1411.931 1411.186 1410.502 1409.815 1408.423 1407.741 1407.124 1405.698 1405.177 1404.629 1403.479 1402.982 1402.445 1402.047 1401.139 1400.742 1400.343 1399.688 1399.378 1399.136 1398.952 1398.861 1398.773 1398.784 1398.822 1398.983 1399.139 1399.787 1400.302 
1435.702 1435.686 1435.596 1435.31 1435.232 1435.146 1435.063 1434.895 1434.787 1434.552 1434.367 1434.255 1434.1 1433.794 1433.632 1433.457 1433.234 1432.794 1432.558 1432.325 1431.743 1431.39 1430.963 1430.025 1429.571 1429.017 1428.553 1427.915 1427.913 1427.859 1427.967 1428.125 1428.273 1428.691 1428.913 1429.055 1429.138 1428.993 1428.863 1428.794 1428.383 1427.944 1427.471 1425.497 1424.371 1423.183 1421.851 1419.35 1418.264 1417.198 1415.242 1414.409 1413.572 1412.133 1411.384 1410.712 1410.097 1408.795 1408.039 1407.42 1406.188 1405.552 1404.941 1403.99 1403.549 1403.148 1402.679 1401.858 1401.477 1401.154 1400.489 1400.231 1400.139 1399.999 1399.652 1399.696 1399.553 1399.619 1399.734 1399.948 1400.421 1400.948 
1436.397 1436.298 1436.213 1436.038 1435.954 1435.86 1435.702 1435.473 1435.338 1435.32 1434.969 1434.863 1434.629 1434.311 1434.126 1433.907 1433.743 1433.185 1432.96 1432.734 1432.098 1431.713 1431.294 1430.444 1429.991 1429.561 1429.162 1428.597 1428.534 1428.542 1428.654 1428.811 1428.96 1429.28 1429.318 1429.351 1429.405 1429.195 1429.12 1429.011 1428.53 1428.081 1427.597 1425.652 1424.434 1423.203 1422.049 1419.479 1418.25 1417.16 1415.149 1414.385 1413.561 1412.866 1411.384 1411.017 1410.402 1409.14 1408.457 1407.84 1406.654 1405.983 1405.45 1404.979 1404.062 1403.672 1403.278 1402.587 1402.197 1401.882 1401.37 1401.154 1400.998 1400.768 1400.431 1400.366 1400.262 1400.368 1400.431 1400.525 1401.14 1401.639 
1436.934 1436.94 1436.924 1436.649 1436.574 1436.477 1436.313 1436.203 1436.031 1435.873 1435.545 1435.398 1435.226 1434.816 1434.634 1434.393 1434.169 1433.686 1433.445 1433.149 1432.479 1432.094 1431.764 1431.012 1430.615 1430.157 1429.805 1429.401 1429.267 1429.298 1429.346 1429.481 1429.63 1429.711 1429.701 1429.644 1429.558 1429.42 1429.33 1429.171 1428.674 1428.242 1427.759 1426.928 1424.593 1423.359 1422.127 1419.622 1418.322 1417.146 1415.118 1414.394 1413.65 1412.95 1411.615 1411.017 1410.704 1409.584 1408.97 1408.358 1407.155 1406.59 1405.994 1405.579 1404.684 1404.307 1403.99 1403.313 1402.922 1402.609 1402.233 1401.955 1401.64 1401.383 1401.138 1400.993 1400.976 1401.098 1401.174 1401.311 1401.933 1402.389 
1437.665 1437.634 1437.542 1437.377 1437.261 1437.09 1436.922 1436.781 1436.55 1436.465 1436.182 1435.892 1435.733 1435.318 1435.14 1434.897 1434.659 1434.166 1433.852 1433.546 1432.902 1432.578 1432.266 1431.941 1431.213 1430.917 1430.593 1430.253 1430.166 1430.103 1430.016 1430.078 1430.183 1430.144 1430.031 1429.945 1429.83 1429.584 1429.466 1429.317 1428.765 1428.368 1427.853 1427.067 1424.661 1423.427 1422.174 1419.679 1418.398 1417.162 1415.043 1414.406 1413.74 1413.077 1411.866 1411.32 1410.704 1409.584 1409.411 1408.86 1407.671 1407.191 1406.797 1406.261 1405.43 1405.049 1404.731 1404.048 1403.689 1403.448 1402.86 1402.62 1402.383 1402.211 1401.914 1401.823 1401.736 1401.851 1401.931 1402.085 1402.717 1403.117 
1438.285 1438.255 1438.168 1438.081 1437.771 1437.62 1437.534 1437.369 1437.27 1437.106 1436.672 1436.52 1436.355 1436.126 1435.651 1435.416 1435.181 1434.606 1434.331 1433.954 1433.407 1433.086 1432.772 1432.451 1431.883 1431.59 1431.322 1431.047 1430.865 1430.781 1430.661 1430.664 1430.629 1430.556 1430.377 1430.247 1430.082 1429.84 1429.671 1429.436 1428.858 1428.524 1427.908 1427.095 1424.754 1423.514 1422.235 1419.717 1418.495 1417.261 1415.095 1414.47 1413.874 1413.35 1412.159 1411.617 1411.03 1409.94 1409.411 1408.86 1408.338 1407.811 1407.358 1406.964 1406.172 1405.792 1405.476 1404.844 1404.522 1404.209 1403.662 1403.396 1403.229 1402.991 1402.666 1402.6 1402.591 1402.606 1402.692 1402.844 1403.128 1403.748 
1438.906 1438.871 1438.777 1438.621 1438.401 1438.247 1438.156 1437.957 1437.788 1437.625 1437.263 1437.018 1436.783 1436.544 1436.067 1435.831 1435.598 1435.126 1434.846 1434.453 1433.92 1433.594 1433.284 1433.022 1432.517 1432.209 1432.029 1431.715 1431.548 1431.479 1431.29 1431.195 1431.109 1430.979 1430.768 1430.547 1430.357 1430.065 1429.794 1429.477 1428.992 1428.565 1427.953 1427.167 1424.841 1423.604 1422.355 1419.79 1418.544 1417.349 1415.31 1414.671 1414.091 1413.534 1412.385 1411.862 1411.413 1410.426 1409.908 1409.3 1408.838 1407.811 1408.189 1407.738 1406.919 1406.549 1406.233 1405.594 1405.277 1404.965 1404.716 1404.266 1404.091 1403.849 1403.535 1403.428 1403.268 1403.359 1403.471 1403.689 1403.91 1404.493 
1439.493 1439.399 1439.314 1439.23 1438.956 1438.862 1438.704 1438.526 1438.402 1438.16 1437.678 1437.436 1437.207 1437.044 1436.591 1436.337 1436.025 1435.542 1435.279 1434.962 1434.439 1434.104 1433.808 1433.639 1433.065 1432.824 1432.67 1432.38 1432.254 1432.057 1431.893 1431.685 1431.553 1431.396 1431.12 1430.924 1430.725 1430.315 1429.96 1429.704 1429.03 1428.564 1428.015 1427.325 1424.995 1423.736 1422.421 1419.921 1418.649 1417.478 1416.405 1414.854 1414.296 1413.674 1412.717 1412.216 1411.755 1410.889 1410.345 1409.847 1409.441 1408.58 1408.189 1408.544 1407.701 1407.406 1407.087 1406.395 1406.142 1405.825 1405.571 1405.193 1404.957 1404.788 1404.449 1404.292 1404.206 1404.261 1404.317 1404.549 1404.767 1405.229 
1439.493 1439.399 1439.935 1439.779 1439.566 1439.408 1439.321 1439.009 1438.824 1438.584 1438.105 1437.861 1437.633 1437.471 1437.01 1436.771 1436.528 1436.057 1435.799 1435.477 1434.898 1434.628 1434.315 1434.082 1433.649 1433.533 1433.297 1433.076 1432.912 1432.735 1432.612 1432.183 1432.038 1431.891 1431.502 1431.35 1431.116 1430.569 1430.249 1429.975 1429.562 1428.62 1428.061 1427.343 1425.101 1423.904 1422.677 1420.145 1418.927 1417.773 1416.75 1415.127 1414.546 1413.952 1413.042 1412.654 1412.188 1411.28 1410.861 1410.481 1410.027 1409.221 1408.847 1408.544 1407.701 1408.236 1407.932 1407.357 1407.086 1406.778 1406.53 1406.068 1405.908 1405.738 1405.392 1405.261 1405.25 1405.206 1405.236 1405.392 1405.601 1406.178 
1440.065 1440.033 1439.935 1439.779 1440.177 1440.009 1439.843 1439.526 1439.342 1439.099 1438.618 1438.372 1438.144 1437.978 1437.509 1437.291 1437.127 1436.507 1436.214 1435.978 1435.742 1435.156 1434.911 1434.667 1434.292 1434.097 1433.99 1433.597 1433.445 1433.282 1433.128 1432.766 1432.542 1432.335 1431.942 1431.682 1431.463 1430.782 1430.486 1430.123 1429.666 1428.727 1428.185 1427.561 1425.227 1424.039 1422.861 1420.405 1419.225 1418.136 1417.16 1415.4 1414.909 1414.403 1413.499 1413.103 1412.662 1411.87 1411.49 1411.083 1410.717 1409.958 1409.577 1409.262 1408.559 1408.236 1407.932 1408.339 1408.047 1407.802 1407.559 1407.109 1406.922 1406.683 1406.474 1406.376 1406.282 1406.278 1406.371 1406.508 1406.641 1407.057 
1440.559 1440.534 1440.472 1440.394 1440.177 1440.531 1440.37 1440.048 1439.856 1439.616 1439.375 1438.897 1438.658 1438.411 1438.047 1437.779 1437.465 1436.932 1436.631 1436.397 1436.167 1435.6 1435.452 1435.29 1434.813 1434.611 1434.534 1434.162 1433.98 1433.88 1433.66 1433.336 1433.138 1432.84 1432.404 1432.129 1431.775 1431.081 1430.651 1430.225 1429.821 1428.816 1428.286 1427.72 1425.474 1424.271 1423.039 1420.692 1419.583 1418.518 1417.579 1415.908 1415.32 1414.904 1414.015 1413.639 1413.254 1412.448 1412.095 1411.644 1411.304 1410.671 1410.316 1410 1409.434 1409.085 1408.854 1408.339 1409.133 1408.824 1408.571 1408.176 1407.962 1407.869 1407.581 1407.487 1407.398 1407.445 1407.447 1407.535 1407.744 1407.991 
1440.919 1441.003 1441.055 1440.979 1440.696 1440.531 1440.37 1440.516 1440.277 1440.041 1439.812 1439.366 1439.177 1438.864 1438.431 1438.119 1437.883 1437.354 1437.055 1436.819 1436.581 1436.094 1435.875 1435.711 1435.386 1435.221 1435.068 1434.681 1434.488 1434.409 1434.255 1433.847 1433.682 1433.436 1432.825 1432.5 1432.23 1431.373 1430.875 1430.375 1430.006 1428.962 1428.43 1427.862 1425.847 1424.613 1423.377 1421.07 1420.024 1419.002 1418.155 1416.557 1415.883 1415.397 1414.543 1414.13 1413.741 1413.38 1412.729 1412.361 1411.984 1411.365 1411.109 1410.792 1410.212 1409.991 1409.762 1409.528 1409.133 1408.824 1409.676 1409.218 1409.047 1408.886 1408.75 1408.683 1408.515 1408.472 1408.542 1408.539 1408.666 1409.049 
1441.31 1441.389 1441.362 1441.296 1441.197 1441.056 1440.909 1440.516 1440.277 1440.483 1440.315 1439.849 1439.605 1439.367 1438.881 1438.646 1438.401 1437.816 1437.55 1437.235 1436.986 1436.576 1436.297 1436.213 1435.8 1435.639 1435.48 1435.245 1435.107 1435.02 1434.796 1434.351 1434.193 1433.974 1433.202 1432.846 1432.574 1431.748 1431.252 1430.711 1430.22 1429.134 1428.609 1428.086 1426.155 1424.941 1423.751 1422.574 1420.6 1419.641 1418.748 1417.177 1416.591 1416.005 1415.064 1414.624 1414.272 1413.963 1413.349 1413.068 1412.759 1412.133 1411.832 1411.537 1411.045 1410.824 1410.669 1410.515 1410.08 1409.905 1409.676 1409.218 1410.066 1409.981 1409.837 1409.796 1409.713 1409.683 1409.675 1409.735 1409.795 1409.941 
1441.719 1441.7 1441.723 1441.726 1441.505 1441.494 1441.391 1440.883 1440.705 1440.483 1440.315 1440.28 1440.038 1439.796 1439.311 1439.068 1438.818 1438.176 1437.884 1437.648 1437.41 1436.92 1436.696 1436.539 1436.253 1436.178 1436.084 1435.927 1435.679 1435.455 1435.36 1434.961 1434.769 1434.392 1433.85 1433.463 1432.953 1432.572 1431.569 1431.02 1430.411 1429.405 1428.849 1428.209 1426.331 1425.155 1424.055 1422.98 1421.14 1420.323 1419.345 1417.864 1417.217 1416.607 1415.563 1415.131 1414.873 1414.569 1414.015 1413.78 1413.497 1412.888 1412.657 1412.424 1411.965 1411.742 1411.574 1411.386 1411.055 1410.836 1410.67 1410.265 1410.066 1409.981 1410.888 1410.82 1410.795 1410.704 1410.726 1410.648 1410.703 1410.87 
1442.093 1442.056 1442.112 1442.111 1441.968 1441.863 1441.716 1441.371 1441.16 1440.989 1440.763 1440.28 1440.557 1440.315 1439.815 1439.544 1439.22 1438.902 1438.26 1437.95 1437.708 1437.22 1436.994 1436.834 1436.665 1436.582 1436.5 1436.416 1436.167 1436.141 1435.984 1435.587 1435.28 1435.03 1434.352 1433.917 1433.504 1432.993 1431.897 1431.297 1430.732 1429.665 1429.031 1428.277 1426.474 1425.405 1424.377 1423.418 1421.663 1420.885 1420.057 1418.617 1417.88 1417.224 1416.154 1415.763 1415.507 1415.201 1414.717 1414.482 1414.249 1413.755 1413.535 1413.292 1412.871 1412.65 1412.476 1412.24 1412.031 1411.921 1411.751 1411.256 1411.189 1411.083 1410.888 1411.792 1411.709 1411.697 1411.667 1411.652 1411.635 1411.634 
1442.525 1442.473 1442.471 1442.465 1442.308 1442.223 1442.12 1441.969 1441.607 1441.388 1441.236 1440.797 1440.557 1440.315 1440.172 1439.851 1439.533 1439.207 1438.565 1438.26 1438.013 1437.452 1437.301 1437.137 1436.957 1436.898 1436.899 1436.9 1436.742 1436.677 1436.665 1436.253 1436.049 1435.734 1434.981 1434.424 1433.911 1433.449 1432.124 1431.47 1430.94 1429.729 1429.023 1428.248 1426.542 1425.546 1424.656 1423.764 1422.26 1421.528 1420.759 1419.312 1418.602 1417.995 1416.914 1416.528 1416.189 1415.875 1415.395 1415.161 1414.958 1414.657 1414.476 1414.235 1413.765 1413.543 1413.381 1413.216 1412.962 1412.803 1412.652 1412.368 1412.243 1412.073 1411.971 1411.792 1411.709 1412.635 1412.556 1412.473 1412.463 1412.419 
1443.094 1443 1442.97 1442.94 1442.771 1442.657 1442.513 1442.339 1441.936 1441.8 1441.608 1441.266 1441.033 1440.811 1440.172 1439.851 1439.924 1439.538 1438.866 1438.546 1438.223 1437.693 1437.595 1437.435 1437.356 1437.261 1437.186 1437.176 1437.283 1437.27 1437.258 1437.005 1436.748 1436.499 1435.581 1434.974 1434.431 1433.844 1432.436 1431.675 1431.015 1429.622 1428.874 1428.169 1426.514 1425.679 1424.892 1424.215 1422.75 1422.048 1421.328 1420.098 1419.44 1418.821 1418.222 1417.333 1416.912 1416.596 1416.081 1415.904 1415.754 1415.446 1415.257 1415.022 1414.859 1414.462 1414.298 1414.133 1413.813 1413.741 1413.658 1413.323 1413.147 1412.988 1412.892 1412.724 1412.659 1412.635 1412.556 1413.302 1413.278 1413.147 
1443.626 1443.551 1443.452 1443.336 1443.123 1442.98 1442.87 1442.637 1442.374 1442.25 1441.973 1441.571 1441.352 1441.171 1440.571 1440.247 1439.924 1439.538 1439.075 1438.752 1438.418 1437.937 1437.786 1437.706 1437.611 1437.544 1437.541 1437.532 1437.852 1437.841 1437.9 1437.791 1437.658 1437.257 1436.409 1435.649 1435.017 1434.207 1432.478 1431.776 1430.95 1429.448 1428.741 1427.987 1427.199 1425.784 1425.191 1424.526 1423.122 1422.49 1421.851 1420.706 1420.185 1419.612 1419.031 1418.142 1417.74 1417.432 1416.864 1416.694 1416.542 1416.237 1416.05 1415.812 1415.644 1415.33 1415.165 1415 1414.734 1414.623 1414.505 1414.224 1414.068 1413.905 1413.813 1413.671 1413.652 1413.566 1413.36 1413.302 1413.278 1413.974 
1444.219 1444.054 1443.923 1443.76 1443.515 1443.351 1443.182 1442.974 1442.74 1442.59 1442.404 1442.002 1441.724 1441.41 1440.853 1440.459 1440.136 1439.825 1439.075 1439.031 1438.612 1438.1 1437.974 1437.957 1437.93 1437.885 1437.878 1437.945 1438.265 1438.462 1438.525 1438.575 1438.392 1438.044 1437.659 1436.41 1435.561 1434.426 1432.484 1431.534 1430.708 1429.285 1428.514 1427.758 1427.037 1425.872 1425.339 1424.709 1423.433 1422.838 1422.284 1421.295 1420.844 1420.355 1419.877 1418.966 1418.609 1418.315 1417.668 1417.467 1417.321 1417.02 1416.85 1416.656 1416.498 1416.172 1416.009 1415.849 1415.551 1415.381 1415.24 1415.043 1414.941 1414.803 1414.713 1414.538 1414.435 1414.356 1414.13 1414.1 1414.005 1413.974 
1444.69 1444.459 1444.3 1444.148 1443.775 1443.638 1443.512 1443.359 1443.104 1442.977 1442.739 1442.375 1442.063 1441.761 1441.511 1440.789 1440.39 1440.057 1439.4 1439.031 1438.612 1438.329 1438.265 1438.239 1438.202 1438.249 1438.225 1438.279 1438.591 1438.82 1439.045 1439.274 1439.177 1438.897 1438.445 1436.873 1435.863 1434.551 1432.374 1431.322 1430.354 1428.838 1428.182 1427.421 1426.846 1425.941 1425.329 1424.783 1423.73 1423.122 1422.664 1421.796 1421.345 1421.015 1420.568 1419.781 1419.465 1419.116 1418.484 1418.29 1418.147 1417.845 1417.695 1417.54 1417.349 1417.079 1416.91 1416.719 1416.319 1416.202 1416.086 1415.774 1415.676 1415.601 1415.52 1415.335 1415.192 1415.093 1414.945 1414.851 1414.766 1414.737 
1445.156 1444.796 1444.639 1444.441 1444.231 1443.967 1443.848 1443.713 1443.523 1443.383 1443.231 1442.708 1442.441 1442.13 1441.808 1441.134 1440.755 1440.401 1439.662 1439.232 1438.808 1438.329 1438.265 1438.632 1438.62 1438.55 1438.521 1438.567 1438.894 1438.986 1439.225 1439.733 1439.724 1439.516 1439.05 1437.436 1436.131 1434.824 1431.934 1430.818 1429.865 1428.23 1427.588 1427.139 1426.599 1425.865 1425.355 1424.879 1424.025 1423.645 1423.183 1422.359 1421.913 1421.582 1421.248 1420.506 1420.157 1419.841 1419.352 1419.136 1418.942 1418.644 1418.495 1418.325 1418.083 1417.878 1417.688 1417.445 1417.193 1417.075 1416.933 1416.735 1416.436 1416.326 1416.244 1416.091 1416 1415.84 1415.682 1415.604 1415.521 1415.495 
1445.612 1445.233 1445.028 1444.833 1444.676 1444.421 1444.292 1444.207 1444.039 1443.878 1443.571 1443.109 1442.79 1442.457 1442.176 1441.423 1441.078 1440.669 1439.827 1439.442 1439.022 1438.591 1438.604 1438.632 1438.62 1438.951 1438.876 1438.988 1439.073 1439.201 1439.462 1439.988 1440.194 1440.204 1439.837 1437.765 1436.51 1434.674 1431.452 1430.036 1428.881 1427.483 1427.021 1426.313 1426.097 1425.708 1425.509 1425.175 1424.383 1424.029 1423.699 1423.324 1422.623 1422.234 1421.937 1421.343 1421.056 1420.694 1420.227 1419.991 1419.755 1419.542 1419.214 1419.049 1418.852 1418.609 1418.471 1418.264 1417.939 1417.814 1417.687 1417.472 1417.188 1417.018 1416.898 1416.779 1416.688 1416.568 1416.417 1416.339 1416.266 1416.225 
1445.973 1445.661 1445.478 1445.334 1445.182 1444.871 1444.789 1444.705 1444.441 1444.251 1444.012 1443.422 1443.149 1442.786 1442.5 1441.729 1441.321 1440.907 1440.019 1439.597 1439.231 1438.989 1439.019 1438.986 1439.028 1438.951 1439.264 1439.317 1439.307 1439.412 1439.785 1440.242 1440.593 1440.454 1440.189 1437.969 1435.991 1433.969 1430.586 1429.079 1427.739 1426.721 1426.063 1425.916 1426.048 1425.883 1425.651 1425.405 1424.833 1424.531 1424.229 1423.901 1423.297 1423.033 1422.718 1422.043 1421.762 1421.507 1421.016 1420.801 1420.618 1420.362 1419.987 1419.819 1419.648 1419.307 1419.196 1419.033 1418.706 1418.55 1418.365 1418.219 1417.849 1417.669 1417.501 1417.389 1417.34 1417.278 1417.145 1417.059 1416.974 1416.907 
1446.596 1446.287 1446.117 1445.906 1445.696 1445.39 1445.291 1445.157 1444.803 1444.583 1444.345 1443.784 1443.484 1443.154 1442.779 1441.991 1441.601 1441.213 1440.268 1439.838 1439.487 1439.4 1439.463 1439.412 1439.386 1439.323 1439.264 1439.317 1439.591 1439.82 1440.236 1440.769 1440.967 1440.729 1440.151 1437.429 1435.421 1433.236 1429.359 1428.161 1427.28 1426.619 1426.088 1425.969 1426.004 1425.789 1425.696 1425.445 1425.003 1424.775 1424.626 1424.381 1423.875 1423.635 1423.367 1422.84 1422.61 1422.355 1421.851 1421.635 1421.43 1421.197 1420.798 1420.591 1420.388 1420 1419.854 1419.692 1419.379 1419.228 1419.023 1418.877 1418.501 1418.322 1418.16 1417.995 1417.96 1417.911 1417.751 1417.65 1417.553 1417.48 
1447.33 1447.175 1446.791 1446.565 1446.352 1446.003 1445.846 1445.664 1445.264 1445.036 1444.769 1444.501 1443.88 1443.528 1443.159 1442.385 1442.007 1441.705 1440.724 1440.208 1439.872 1439.903 1439.628 1439.453 1439.375 1439.343 1439.339 1439.341 1439.591 1439.82 1440.781 1441.24 1441.308 1440.927 1440.101 1436.958 1434.76 1432.432 1428.761 1427.626 1426.894 1426.512 1426.185 1426.117 1426.013 1425.818 1425.699 1425.487 1425.203 1425.053 1424.955 1424.806 1424.394 1424.218 1424.017 1423.596 1423.418 1423.147 1422.716 1422.464 1422.22 1421.982 1421.556 1421.34 1421.144 1420.736 1420.56 1420.34 1419.96 1419.789 1419.584 1419.421 1419.096 1418.938 1418.79 1418.623 1418.565 1418.525 1418.446 1418.172 1418.054 1417.967 
