NCOLS 42
NROWS 39
XLLCORNER 726427.24
YLLCORNER 4166548.7
CELLSIZE 10
NODATA_VALUE -9999
121.6174 121.137 120.5367 119.7909 117.7491 118.9359 120.822 122.443 124.2008 126.6812 127.5487 128.4061 129.0138 129.7773 130.2135 130.7573 131.464 132.4075 134.6248 135.4749 136.2227 136.8949 138.2056 138.8435 139.4621 139.9921 140.3768 141.1264 141.3155 141.3897 141.3665 141.2192 141.1903 142.0612 141.9043 141.8611 142.0517 142.2513 142.6296 143.1837 144.0823 144.2965 
120.9537 120.4058 119.6739 118.7148 117.5939 119.3021 121.1449 122.756 124.6551 127.2453 128.2941 129.0722 129.5054 130.4834 130.951 131.4879 132.2744 133.3817 135.4376 136.2116 137.0085 137.7981 139.3555 140.0643 140.7587 141.3749 141.8722 142.7404 142.9452 142.9755 142.85 142.4875 142.277 142.0612 142.7159 142.5823 142.4003 142.4875 142.8629 143.4336 144.1383 144.2478 
120.4246 119.7574 118.6763 117.3527 116.6868 119.6299 121.2946 123.0592 125.0646 127.693 128.6624 129.3774 129.9372 130.5158 131.6545 132.2982 133.116 134.1053 136.1295 137.0363 137.8611 138.6738 139.5459 141.2545 142.1156 142.9152 143.5495 144.2676 144.3401 144.2985 144.1779 143.9198 143.1985 142.9461 142.7159 143.1904 142.7766 142.5714 142.7993 143.3278 143.653 143.943 
119.9431 118.8778 117.5263 116.4531 116.4341 119.9085 121.5172 123.2604 125.279 127.9058 128.8757 129.6344 130.2859 130.9467 132.3153 133.0486 133.7888 134.6465 136.6702 137.7135 138.6256 139.4485 140.4243 142.4758 143.4176 144.2223 144.8788 145.7131 145.7855 145.6149 145.2616 144.8098 143.8808 143.5451 143.3566 143.1904 143.1432 142.8868 142.8962 143.1102 143.2224 143.451 
118.9426 117.5964 116.5243 116.0482 116.5533 120.638 122.2497 123.7782 125.4433 128.154 129.113 129.9011 130.6461 131.3662 132.7325 133.5218 134.3283 135.1689 137.1958 138.2579 139.2651 140.208 141.2051 143.6303 144.5511 145.3533 146.1759 147.0489 147.0606 146.7328 146.215 145.6967 144.4942 144.0052 143.6932 143.5084 143.1432 142.8868 142.88 142.7711 142.8565 142.8229 
119.8717 116.3936 115.8501 115.9882 117.3157 122.0984 123.7095 124.9027 126.0875 127.4789 129.4214 130.1972 130.9731 131.7018 133.1599 133.9351 134.7465 135.6109 136.5937 138.773 139.8636 140.9297 142.0764 144.4193 145.4807 146.4572 147.2354 147.674 147.7812 147.4704 146.9381 146.283 144.9897 144.3383 143.8699 143.6293 143.4107 143.0622 142.88 142.396 142.3836 142.2509 
118.3204 116.3936 115.5976 116.8438 119.2114 123.6429 125.1173 126.3086 127.4862 128.5505 129.9201 130.6313 131.3335 132.0286 133.4922 134.1813 135.043 136.0567 137.0415 139.3598 140.6415 141.7648 142.8557 145.2766 146.4842 147.4564 148.0947 148.5921 148.4101 147.918 147.4166 146.7801 145.2646 144.5844 143.987 143.5938 143.3781 142.7388 142.5076 142.396 141.8366 141.8671 
116.7628 115.616 115.5976 118.5949 121.002 124.9734 126.2959 127.4884 128.6141 129.2938 130.4344 131.1878 131.8447 132.4051 133.8046 134.4572 135.3433 136.4289 137.4865 139.9081 141.174 142.3476 143.489 146.086 147.2903 148.3278 149.1915 149.7298 149.1283 148.3743 147.6831 146.9326 145.247 144.5169 143.8516 143.2611 142.7574 141.9724 141.8149 141.7997 141.8366 141.4709 
115.7211 115.4426 116.5321 118.5949 122.1392 123.9867 126.8871 127.9771 128.9541 129.5319 130.779 131.579 132.2846 132.852 133.4274 134.862 135.8341 136.8498 137.8372 140.2357 141.5746 142.8541 144.1091 146.8631 148.1898 149.3103 150.1559 150.5441 149.3029 148.3896 147.5672 146.735 144.9001 144.0819 143.3443 142.6395 141.947 141.2185 141.2083 141.2812 141.3763 141.4709 
114.9554 116.1803 118.0059 120.1231 122.1392 124.534 126.9479 127.9156 128.77 129.4109 130.9225 131.6805 132.3613 133.0271 133.7389 135.3908 136.3606 137.3389 138.3843 140.6401 142.1998 143.8181 145.1646 146.5261 149.2948 150.3047 150.8879 150.9166 149.2929 148.2472 147.2516 146.2832 145.2513 143.5213 142.7602 141.9948 141.2951 140.2716 140.2652 140.4299 140.6201 140.8134 
114.7816 116.9912 118.8459 120.9053 122.8316 124.534 126.8929 127.7096 128.4418 129.1224 130.7982 131.6067 132.3085 133.0458 133.9032 135.8446 136.9866 138.1034 139.2144 141.9013 143.675 145.4857 147.0265 148.306 150.7222 151.5946 151.9938 151.5452 149.3883 148.1797 147.0133 145.8628 144.6883 142.9082 142.1284 141.2886 140.3596 138.9753 138.9707 139.1317 139.3 139.4567 
115.267 117.6646 119.4803 121.4135 123.2566 124.792 126.8929 127.5182 128.1836 128.8422 130.4623 131.3247 132.1294 132.963 133.8884 136.1428 137.5532 138.7525 139.8679 143.3362 145.4894 147.4697 149.1735 150.6212 152.6937 153.2873 153.2973 152.431 149.4887 148.1707 146.8766 145.5665 144.305 142.3709 141.6041 140.6198 139.3029 137.6666 137.7433 137.8745 137.9051 137.9236 
115.8016 116.735 120.2379 121.9053 123.5291 124.9591 126.7982 127.5182 127.9791 128.5126 129.2011 130.9739 131.8519 132.7673 133.7354 136.2661 137.8085 139.0797 140.4632 142.4505 147.1891 149.4521 151.7705 153.7122 155.0344 155.0527 154.4832 153.2486 151.4506 148.0701 146.6713 145.3226 144.0589 141.8894 140.8993 139.7436 138.4396 137.3248 136.2649 136.165 136.289 136.5006 
116.8487 118.041 120.8915 122.3484 123.7739 125.0492 126.619 127.3365 127.9791 128.1857 128.7664 130.5986 131.4948 132.4479 133.4747 136.2314 137.891 139.221 140.9318 143.5562 148.8367 151.6465 154.1981 156.2558 157.6135 156.7577 155.5168 154.141 152.2535 147.9939 146.2995 144.7089 143.4316 141.273 140.1688 138.9427 137.6975 136.6623 134.9594 134.7001 134.9223 135.2981 
118.3036 119.4536 121.7081 122.8753 124.1797 125.3619 126.5958 127.1725 127.7181 128.1857 128.4464 130.1588 131.0863 132.1183 133.2357 136.005 137.7018 139.1533 141.3138 144.4131 149.8253 152.8965 155.9036 158.6571 160.2224 159.0023 157.0513 154.9864 152.8254 147.5983 145.6186 144.0677 142.8716 140.7222 139.4668 138.1937 137.0488 136.0064 134.2611 134.0526 134.1448 134.3661 
119.5887 120.5967 122.6678 123.5698 124.6934 125.7412 126.2182 126.9099 127.3668 127.8689 128.4464 129.679 130.6529 131.7093 132.843 134.0815 137.2927 138.8497 141.2002 144.5549 150.6427 153.7593 156.9972 160.3798 162.6789 160.6817 158.1717 155.5935 152.998 147.5251 145.4438 143.8969 142.5598 141.2774 138.8703 137.6073 136.3235 135.1956 133.7233 133.2348 133.0094 133.1159 
120.4754 121.3973 123.17 123.9167 124.7887 125.6086 126.0485 126.3532 126.7456 127.3499 128.0497 129.679 130.0245 131.0793 132.2132 133.4155 136.5696 138.3438 140.7952 144.1509 150.7329 153.6551 156.664 160.4597 164.2856 162.0619 158.9619 155.8761 152.7523 147.4482 145.4056 143.7724 142.283 140.907 138.1627 136.8379 135.5559 134.4353 132.8677 132.2301 131.8321 131.8162 
120.8749 121.7883 123.2873 123.8779 124.5259 125.1052 125.4372 125.6475 125.964 126.5968 127.4429 129.1037 130.0245 130.2057 131.2814 132.4191 135.6561 137.5947 139.8575 143.0512 150.2198 152.9568 155.989 159.5955 163.3418 162.7537 159.302 155.8846 152.3603 147.3333 145.3258 143.6024 141.993 140.5127 137.4061 136.0597 134.839 133.7564 131.9962 131.3572 131.0352 131.0261 
120.9954 121.8517 122.7252 123.6885 124.1129 124.4084 124.5634 125.0178 125.3896 125.9792 126.7469 127.5912 129.2027 130.2057 130.1063 131.2417 134.3542 136.4284 138.5891 141.6248 149.2546 151.8173 154.3896 157.2675 160.4483 162.0464 159.2671 155.6171 151.9543 146.8632 144.5943 142.8599 141.3856 139.81 136.4716 135.0673 133.9208 132.8818 131.2083 130.5342 129.8229 129.5629 
120.8599 121.7553 122.4774 123.4347 123.6934 123.7255 123.7027 124.2109 124.7227 125.3827 126.113 126.835 128.3009 129.116 130.1063 129.9439 132.7604 134.8413 137.2971 140.215 143.8166 150.3844 152.6388 155.0828 157.5064 159.5306 157.6669 154.3253 150.9289 148.2281 143.4626 141.9126 140.3848 138.7035 135.4031 134.1843 133.078 131.97 131.1943 129.6947 128.9781 128.6182 
120.7213 121.4188 122.0113 122.9586 123.0289 122.912 122.7831 123.2761 123.9041 124.6324 125.3655 126.0312 127.4407 128.1458 128.9427 129.9439 131.4476 133.4018 135.8561 138.7183 141.9741 148.2936 150.4104 152.5075 154.6868 156.4292 155.3108 152.7619 149.7645 146.9331 142.1557 140.5258 138.8356 137.3385 134.6623 133.474 132.3919 131.4322 130.6408 129.0071 128.4331 128.1756 
120.3422 120.8942 121.4035 121.8819 121.7766 121.6611 121.6463 122.4435 123.0957 123.8292 124.5687 125.2377 126.6463 127.3357 128.01 128.8704 131.4476 133.4018 134.4017 137.1096 140.0458 145.3229 147.7656 150.0552 152.0554 154.8074 154.1173 151.8135 149.0433 146.4876 141.3092 139.0143 137.3207 136.0974 133.7283 132.6645 131.777 130.9983 130.2107 128.681 127.9685 127.4711 
120.0742 120.4919 120.6456 120.4211 119.9156 119.7789 120.234 120.9763 122.3887 123.1114 123.7541 124.3633 125.8403 126.5454 127.2641 128.0853 129.0423 132.1844 134.4017 135.5682 138.2428 142.6798 144.5914 147.1904 150.1543 152.5449 154.1643 152.4492 149.846 147.0756 141.3495 138.6386 136.6054 135.2308 134.072 131.7853 131.0414 130.3865 129.681 128.1948 127.1525 126.2733 
119.5553 119.841 119.8607 119.4992 119.1549 119.107 119.491 120.0652 121.3996 122.122 122.8031 123.3957 124.9662 125.722 126.4631 127.274 128.1762 130.9216 133.0327 135.5682 136.0015 140.6362 142.4807 145.6239 149.5951 152.5962 155.2127 153.4596 150.7084 147.887 142.329 139.2512 136.9927 135.5595 134.117 131.5225 130.7238 129.86 128.958 127.633 126.5266 125.6599 
118.9451 118.9968 118.7544 118.396 118.4573 118.6867 119.0422 119.3806 120.1044 120.7476 121.5053 122.2757 124.026 124.8753 125.5979 126.3665 127.3049 129.665 131.528 133.6929 136.0015 139.3754 141.9228 145.2338 148.9696 152.5643 156.5529 154.5594 151.5343 148.6451 143.2506 140.124 137.6445 135.9778 134.494 131.7639 130.7235 129.7453 128.8074 127.2593 126.3885 125.6411 
118.1736 118.0092 117.4378 116.9154 117.4052 118.3486 118.9065 119.0264 119.2668 119.3863 120.361 121.7813 122.5277 124.2619 124.9776 125.6115 126.4844 128.5703 130.1484 132.2327 134.4907 136.8953 141.456 144.5998 148.3344 152.0171 156.246 154.9426 152.0121 149.1177 146.8699 141.0066 138.2654 136.2567 134.6604 131.6368 130.5375 129.668 128.8521 127.9635 126.3203 125.6452 
117.3766 117.0615 116.5913 116.3926 117.5504 118.634 119.3894 119.6366 120.1936 120.3625 120.8448 121.595 122.2211 123.9907 124.6581 125.1788 125.9816 128.1007 129.7264 131.9249 134.2636 136.5983 141.456 143.8621 147.4505 150.9995 154.7864 154.6306 152.3439 149.4504 147.4989 141.7844 138.8273 136.3985 134.5679 131.5416 130.2687 129.2703 128.486 127.7123 126.2959 125.3943 
116.7986 116.518 116.2956 116.5157 118.6069 119.4789 120.0791 120.6373 121.9578 122.4748 122.5901 122.5778 122.8815 124.1818 124.72 125.1252 125.7974 128.1607 129.8751 132.0138 134.2459 136.5158 141.0373 143.8621 146.215 149.6317 152.9359 153.3935 152.0952 149.8019 147.873 142.2942 139.113 136.4203 134.5251 131.7516 130.2614 128.9386 128.0612 127.417 126.1273 125.0969 
115.9678 115.9205 116.206 116.9319 119.4404 120.1954 120.6941 121.279 122.0486 124.2101 125.0856 125.5938 125.6726 125.2533 125.0207 125.3178 126.2253 127.2628 130.0835 132.1837 134.1429 136.2497 140.6088 142.9743 146.215 148.1235 151.4103 151.7491 151.219 149.9103 148.0153 142.4655 139.163 136.551 134.9281 132.547 131.0481 129.5629 128.4127 127.4467 125.5423 124.4419 
114.136 115.1036 116.4191 117.4363 119.8122 120.5284 121.1645 121.7736 122.524 125.3855 126.582 127.3898 127.6129 126.8328 126.4817 126.7326 127.4532 127.9966 130.295 132.1838 133.989 135.9613 140.2634 142.3103 145.0499 148.1235 148.8287 150.3839 150.3153 149.5317 147.8883 142.559 139.3367 137.1537 135.9525 134.6434 131.62 130.269 128.9457 127.3464 124.7658 123.7503 
113.9867 115.3856 116.822 117.8593 119.9317 120.625 121.3117 122.0468 122.9833 125.931 127.3449 128.5948 129.1573 128.5755 128.6039 128.6757 128.7586 129.0639 130.7286 132.093 133.7326 135.6545 139.8903 141.8468 144.1597 146.7466 148.8287 149.5026 149.5571 148.9477 147.5712 142.8292 140.3066 138.2335 136.5966 135.1081 132.0279 130.451 128.8382 127.2003 124.481 123.5183 
115.4149 116.5125 117.3853 118.2802 119.973 120.6848 121.4674 122.3022 123.2762 125.7291 126.885 128.0196 128.8775 129.3285 129.4051 129.4062 129.4451 129.7399 130.8826 131.825 133.3027 135.2212 139.31 141.3117 143.5213 145.9323 147.9641 149.5026 149.2653 148.6258 147.4122 143.6467 141.386 139.1133 137.078 135.3636 132.0498 130.3339 128.6588 127.0535 124.4775 123.4838 
116.7533 117.3246 117.9202 118.6204 119.2212 120.5907 121.3368 122.1568 122.9933 124.9383 125.8985 126.7315 127.3167 127.6708 128.2364 128.6709 129.0495 129.3061 130.6472 131.4862 132.7692 134.5917 136.5786 140.7223 143.0813 145.5192 147.4428 149.1166 149.2653 148.6977 147.6996 146.5607 141.9701 139.4028 137.2647 135.422 131.7154 129.8219 128.2872 126.9454 125.4773 123.3563 
117.0725 117.5579 118.0194 118.4873 118.9946 120.1779 120.8388 121.5308 122.1657 123.3653 124.0625 124.9032 125.4882 125.6038 125.8673 126.3245 127.2597 128.3602 130.019 130.8958 132.2278 134.0505 135.996 139.8757 142.3928 144.8313 146.5793 148.8236 149.2174 148.6977 148.1191 147.1929 142.6418 139.8259 137.4647 135.5502 131.7032 129.8416 128.3632 127.0854 125.7135 123.5733 
116.8194 117.2087 117.6428 118.1194 118.584 119.5636 120.0295 120.4439 120.8331 121.4832 121.7328 122.0614 122.4473 122.6829 122.6837 123.7451 125.218 126.6154 129.2945 130.3289 131.4911 133.2447 135.4506 139.1105 141.2948 143.5568 145.7351 148.6583 149.2876 148.9785 148.1191 147.5123 143.4069 140.716 138.2012 135.975 132.2377 130.5746 129.0315 127.5943 126.2382 123.7201 
115.9663 116.769 117.123 117.4897 117.8461 118.7563 119.038 119.2237 119.3878 119.5377 119.7829 120.0181 120.3631 120.6654 121.0883 121.9607 123.4833 125.3317 126.9586 129.6257 130.7203 132.3425 134.6137 138.341 140.3241 142.6965 145.2876 147.3537 149.272 149.1601 148.4826 147.5123 143.9675 141.3039 138.7063 136.4094 134.4175 130.6788 129.1279 127.663 126.1388 123.5068 
115.5606 116.2096 116.462 116.7671 117.1328 117.8331 118.0375 118.2207 118.3798 118.4494 118.4748 118.5807 118.8268 119.0212 119.2707 120.455 122.2096 124.1101 125.9675 128.8868 130.0867 131.4221 133.3743 137.5504 139.3801 141.8988 144.7359 147.0427 149.7558 149.6942 148.9348 147.7772 143.9675 141.401 138.7222 136.5337 134.4604 130.184 128.6807 127.1987 125.7063 122.7637 
115.1622 115.6991 115.8571 116.0748 116.3834 116.8645 117.041 117.2103 117.3131 117.3324 117.3647 117.3715 117.4019 117.5726 118.5699 119.5349 121.2026 123.2184 124.9985 128.1689 129.4646 130.5277 132.2359 136.8392 138.6031 140.8317 143.5359 146.4126 150.4533 150.3898 149.1236 147.5447 144.0965 141.401 138.3947 136.2776 134.0023 129.4488 127.8893 126.4323 124.9519 122.1537 
114.7471 115.1157 115.208 115.3317 115.4916 115.7002 116.0677 116.154 116.2372 116.3522 116.3352 116.2753 116.2626 116.4438 116.922 118.8357 120.3453 122.1968 123.929 127.188 128.656 129.9144 131.3389 133.4129 137.4964 139.4548 142.0399 145.088 149.1295 149.4653 148.531 146.9212 143.3326 140.8225 138.3947 135.718 133.6075 128.9248 127.1225 125.7054 124.4043 121.9781 
