NCOLS 47
NROWS 172
XLLCORNER 276896.32
YLLCORNER 3833168.9
CELLSIZE 10
NODATA_VALUE -9999
1536.042 1535.86 1534.902 1535.907 1539.772 1539.793 1537.593 1532.68 1525.458 1522.641 1525.077 1528.214 1531.775 1535.236 1538.138 1543.625 1546.423 1549.544 1553.588 1557.808 1560.819 1568.238 1571.512 1573.73 1574.947 1575.097 1574.962 1574.02 1573.302 1572.523 1571.862 1571.343 1569.812 1568.377 1566.096 1563.456 1561.678 1561.368 1561.596 1561.682 1561.686 1554.955 1551.383 1546.722 1544.892 1545.236 1546.518 
1538.409 1537.017 1535.897 1537.185 1540.699 1540.73 1539.787 1536.452 1529.082 1522.687 1524.021 1527.074 1531.455 1536.026 1539.529 1545.983 1548.442 1550.687 1553.918 1557.58 1559.49 1565.208 1569.093 1571.797 1573.36 1574.511 1574.463 1574.077 1573.501 1572.869 1572.305 1571.982 1570.571 1569.264 1567.195 1564.904 1563.762 1564.063 1563.395 1563.285 1561.686 1560.182 1556.011 1550.619 1546.96 1542.749 1540.757 
1539.53 1537.799 1537.442 1538.849 1542.426 1542.829 1541.083 1537.692 1533.23 1524.927 1523.444 1525.556 1530.685 1536.149 1540.09 1548.066 1551.37 1554.223 1557.322 1560.177 1561.179 1564.919 1568.305 1570.98 1572.24 1573.637 1574.671 1574.304 1573.761 1573.212 1572.873 1572.797 1571.696 1570.231 1569.21 1567.76 1565.564 1564.774 1564.159 1563.285 1562.783 1561.157 1557.934 1552.373 1550.831 1546.635 1540.979 
1542.016 1540.506 1540.994 1544.41 1545.369 1544.869 1542.866 1540.403 1538.06 1531.12 1526.114 1524.705 1529.487 1536.128 1539.946 1548.505 1552.198 1556.047 1560.087 1562.633 1565.337 1566.789 1568.68 1570.759 1572.51 1573.695 1574.901 1574.817 1574.279 1573.715 1573.663 1573.686 1573.71 1573.328 1572.111 1570.169 1567.908 1564.774 1564.159 1563.002 1561.382 1559.73 1557.426 1552.605 1551.389 1548.673 1544.092 
1545.16 1546.247 1546.353 1548.504 1548.547 1547.912 1546.204 1544.026 1542.09 1538.142 1533.166 1529.858 1531.761 1535.695 1539.133 1547.571 1551.492 1555.937 1560.509 1563.118 1566.733 1568.318 1569.914 1571.713 1573.526 1574.527 1575.361 1575.372 1575.298 1574.999 1574.804 1574.743 1574.686 1574.473 1573.301 1571.351 1567.908 1565.678 1564.141 1562.274 1560.588 1558.865 1556.781 1551.491 1549.815 1548.368 1545.469 
1548.085 1547.91 1549.326 1551.349 1551.301 1550.537 1548.945 1547.134 1545.992 1543.288 1540.022 1536.859 1535.562 1535.243 1541.579 1545.535 1549.366 1554.169 1559.331 1562.552 1566.699 1569.009 1571.257 1573.054 1574.374 1575.419 1576.012 1575.926 1575.922 1575.726 1575.474 1575.216 1574.999 1574.444 1573.432 1571.351 1569.355 1566.145 1564.222 1562.089 1560.112 1557.96 1555.667 1549.945 1548.159 1546.986 1545.652 
1549.351 1549.963 1551.681 1553.796 1553.669 1552.8 1551.398 1550.153 1549.653 1548.607 1545.553 1540.34 1535.927 1535.119 1539.122 1543.169 1547.277 1552.057 1557.371 1561.166 1566.03 1569.107 1572.055 1574.029 1575.535 1576.307 1576.559 1576.49 1576.123 1575.955 1575.725 1575.36 1575.082 1574.723 1573.432 1571.911 1570.376 1566.086 1564.235 1562.64 1560.839 1558.732 1552.858 1550.398 1548.768 1547.218 1545.731 
1552.746 1553.38 1554.475 1556.225 1556.147 1555.579 1554.667 1553.808 1552.763 1552.217 1550.253 1545.192 1539.237 1537.292 1536.824 1540.952 1546.404 1550.959 1555.288 1559.032 1564.951 1568.807 1572.569 1574.765 1576.064 1577.047 1576.818 1576.669 1576.533 1576.255 1575.941 1575.335 1574.95 1574.723 1574.022 1572.838 1570.953 1566.186 1564.514 1563.328 1561.949 1559.668 1553.307 1551.476 1549.608 1547.938 1546.478 
1557.949 1558.312 1558.531 1558.961 1558.978 1558.806 1558.445 1557.669 1555.285 1553.075 1550.35 1547.108 1544.209 1542.475 1537.991 1540.32 1545.284 1549.744 1553.27 1556.761 1563.688 1568.64 1572.898 1575.506 1576.629 1577.179 1577.084 1576.744 1576.732 1576.681 1576.267 1575.252 1574.95 1574.713 1574.274 1573.158 1570.976 1565.944 1564.247 1563.203 1561.879 1559.715 1553.264 1551.104 1549.451 1547.802 1546.573 
1561.933 1562.162 1562.381 1562.477 1562.415 1562.22 1561.983 1561.53 1558.218 1554.599 1550.646 1548.832 1549.373 1548.659 1543.247 1542.443 1544.191 1547.58 1550.797 1559.358 1563.502 1568.412 1573.118 1575.732 1576.714 1577.5 1577.053 1576.752 1576.712 1576.605 1576.269 1575.252 1574.812 1574.364 1573.682 1572.074 1567.014 1564.841 1563.315 1561.808 1560.029 1557.579 1552.102 1549.574 1548.449 1547.707 1547.415 
1567.451 1567.623 1567.827 1567.656 1567.193 1566.415 1565.404 1564.189 1559.999 1557.867 1555.992 1554.624 1554.383 1552.02 1546.729 1546.669 1546.698 1546.584 1548.753 1559.43 1564.074 1568.251 1572.439 1575.206 1576.966 1577.147 1577.135 1577.045 1576.606 1576.605 1576.269 1574.75 1574.085 1573.533 1572.396 1570.333 1565.434 1563.096 1561.458 1559.948 1558.111 1556.675 1551.185 1549.895 1549.387 1549.344 1549.126 
1572.994 1573.076 1573.123 1572.918 1572.403 1571.23 1569.227 1567.08 1561.844 1561.266 1561.438 1560.872 1559.789 1551.8 1550.157 1550.542 1549.943 1548.212 1547.77 1558.398 1563.525 1567.239 1570.897 1573.74 1575.335 1576.946 1577.082 1576.902 1576.606 1576.495 1574.859 1573.985 1572.834 1571.558 1570.802 1569.112 1562.822 1561.151 1560.172 1559.318 1558.419 1556.613 1553.239 1552.08 1551.316 1550.952 1550.324 
1575.603 1575.714 1575.775 1575.682 1575.348 1574.462 1572.656 1570.088 1565.677 1564.831 1564.761 1564.225 1563.172 1557.408 1556.27 1556.417 1555.516 1553.725 1551.709 1557.559 1562.732 1565.757 1568.725 1571.282 1573.437 1575.723 1576.676 1576.902 1576.761 1576.327 1574.544 1573.219 1571.875 1570.696 1569.522 1567.114 1561.987 1560.69 1560.242 1560.011 1559.496 1557.858 1555.4 1553.702 1552.471 1551.805 1550.624 
1577.203 1577.348 1577.282 1577.082 1576.683 1575.828 1574.229 1571.914 1569.351 1568.411 1567.96 1566.972 1565.545 1561.461 1561.347 1561.922 1561.807 1560.984 1560.004 1559.165 1560.917 1563.831 1566.539 1569.399 1573.002 1574.792 1576.676 1576.911 1576.68 1576.331 1574.925 1574.127 1573 1571.411 1569.861 1568.07 1563.594 1562.245 1562.091 1562.015 1561.59 1558.746 1556.921 1555.168 1553.546 1552.209 1550.622 
1578.755 1578.956 1578.97 1578.692 1578.197 1577.215 1575.464 1573.095 1572.734 1571.925 1570.642 1569.189 1567.417 1565.162 1565.24 1565.417 1565.292 1565.164 1564.547 1561.872 1561.908 1564.212 1567.995 1570.844 1573.651 1574.792 1576.138 1576.677 1576.618 1576.365 1575.154 1574.349 1573.436 1572.583 1571.659 1569.586 1566.935 1565.063 1564.398 1563.898 1563.092 1559.947 1558.215 1556.635 1555.172 1553.565 1551.743 
1580.391 1580.631 1580.845 1580.596 1580.069 1579.161 1577.677 1575.952 1575.545 1574.575 1572.747 1570.597 1569.513 1568.872 1569.008 1569.218 1569.099 1569.151 1567.467 1565.797 1566.336 1567.944 1568.634 1571.519 1573.651 1574.998 1576.193 1576.751 1576.879 1576.712 1575.678 1574.781 1573.754 1573.189 1572.856 1572.221 1570.353 1568.009 1566.365 1564.864 1563.168 1560.253 1559.014 1557.715 1556.58 1555.45 1554.243 
1581.976 1582.696 1582.781 1582.596 1582.19 1581.598 1580.663 1578.678 1577.994 1576.461 1573.991 1571.854 1571.296 1571.472 1571.848 1572.399 1572.902 1573.265 1572.762 1571.332 1571.009 1571.607 1571.189 1571.519 1574.992 1576.176 1576.912 1577.306 1577.423 1577.265 1576.129 1575.373 1574.597 1573.958 1573.946 1574.029 1572.797 1570.447 1567.909 1565.449 1563.164 1560.164 1559.375 1558.524 1557.725 1557.398 1557.342 
1583.516 1584.481 1584.759 1584.777 1584.488 1584.004 1583.304 1581.133 1580.108 1578.106 1575.255 1573.223 1572.937 1574.087 1575.039 1575.885 1576.61 1577.088 1576.206 1575.133 1574.031 1571.607 1571.189 1572.812 1576.332 1577.538 1578.184 1578.333 1578.221 1577.569 1576.851 1576.085 1575.482 1574.965 1574.591 1574.093 1573.313 1571.282 1568.653 1566.302 1563.559 1560.369 1559.976 1559.564 1559.22 1559.392 1559.579 
1584.995 1586.062 1586.502 1586.666 1586.425 1585.878 1585.515 1583.678 1582.243 1580.305 1578.12 1576.472 1576.719 1577.631 1578.72 1579.828 1580.764 1581.121 1579.974 1578.293 1574.031 1573.432 1573.517 1574.309 1578.186 1579.215 1579.59 1579.75 1579.509 1578.348 1577.649 1576.996 1576.418 1575.833 1575.377 1574.304 1573.599 1572.266 1570.413 1568.672 1566.437 1561.904 1561.394 1561.172 1561.193 1561.531 1562.422 
1586.231 1587.247 1587.376 1587.394 1587.182 1586.845 1586.602 1585.895 1584.686 1582.869 1581.431 1580.53 1581.067 1581.768 1582.993 1584.289 1585.359 1585.871 1584.25 1578.293 1576.957 1576.587 1576.485 1578.863 1580.504 1581.565 1581.927 1581.537 1580.86 1579.099 1578.336 1577.694 1577.102 1576.524 1576.077 1575.046 1574.44 1573.776 1572.958 1572.064 1568.788 1567.027 1566.198 1565.808 1565.658 1565.659 1564.754 
1587.27 1587.905 1587.851 1587.705 1587.532 1587.28 1586.773 1586.409 1585.996 1585.283 1584.137 1583.63 1584.799 1585.679 1586.501 1587.04 1587.108 1586.867 1584.25 1582.514 1581.17 1580.555 1580.462 1581.573 1582.902 1584.441 1584.548 1583.161 1582.065 1579.713 1578.699 1577.947 1577.427 1577.049 1576.73 1576.004 1575.603 1575.169 1574.752 1574.281 1573.97 1573.431 1573.007 1572.6 1571.628 1570.286 1566.408 
1588.277 1587.959 1587.88 1587.719 1587.415 1587.23 1586.912 1586.693 1586.494 1586.317 1586.221 1586.321 1586.641 1586.714 1586.787 1586.745 1586.303 1586.867 1586.161 1585.884 1584.734 1582.844 1582.797 1584.551 1585.306 1585.72 1585.564 1584.72 1582.945 1580.13 1579.11 1578.326 1577.761 1577.319 1576.696 1576.497 1576.219 1575.979 1575.792 1575.479 1575.75 1576.2 1575.971 1574.71 1573.667 1571.946 1567.059 
1588.524 1587.971 1587.548 1587.164 1586.868 1586.62 1586.63 1586.583 1586.502 1586.672 1587.164 1586.831 1586.227 1586.047 1585.868 1585.583 1586.303 1585.669 1585.102 1584.608 1584.185 1583.692 1583.651 1585.591 1586.48 1586.245 1585.74 1585.029 1582.955 1580.217 1579.222 1578.432 1577.833 1577.318 1576.823 1576.549 1576.324 1576.276 1576.195 1576.06 1575.816 1575.68 1575.081 1573.938 1572.968 1571.56 1566.546 
1588.647 1587.395 1586.507 1586.176 1586.028 1585.939 1586.019 1586.139 1586.303 1586.521 1586.473 1585.816 1584.888 1584.573 1584.223 1585.583 1585.048 1584.224 1583.703 1583.29 1583.064 1582.959 1583.172 1584.861 1585.124 1584.734 1584.071 1583.394 1580.819 1579.722 1578.743 1578.041 1577.526 1577.108 1576.611 1576.383 1576.389 1576.476 1576.23 1575.997 1575.589 1574.827 1573.903 1572.954 1571.679 1567.682 1564.58 
1588.498 1586.904 1585.925 1585.565 1585.008 1584.473 1584.454 1584.856 1585.345 1585.506 1585.003 1583.637 1583.315 1584.573 1584.223 1583.735 1583.282 1582.629 1582.307 1582.066 1581.925 1581.958 1582.19 1582.749 1583.023 1582.984 1582.381 1581.596 1579.963 1579.003 1578.219 1577.649 1577.141 1576.762 1576.325 1576.295 1576.379 1576.316 1576.038 1575.906 1575.164 1574.53 1573.646 1572.345 1570.783 1566.813 1563.85 
1588.547 1587.072 1585.946 1585.323 1584.8 1584.143 1583.486 1583.403 1583.332 1583.185 1582.868 1581.946 1583.315 1582.949 1582.467 1581.995 1581.544 1580.931 1580.63 1580.416 1580.358 1580.425 1580.604 1580.911 1581.058 1580.986 1580.689 1580.25 1578.901 1578.162 1577.387 1576.661 1576.235 1575.842 1575.818 1576.055 1576.133 1575.961 1575.928 1574.9 1574.497 1574.362 1573.775 1572.436 1570.887 1567.128 1565.45 
1588.285 1586.848 1585.941 1585.386 1584.651 1583.219 1582.478 1581.879 1581.421 1580.901 1580.592 1581.946 1581.551 1581.2 1580.721 1580.266 1579.883 1579.139 1578.808 1578.64 1578.624 1578.571 1578.697 1578.941 1579.128 1579.2 1579.169 1578.834 1577.812 1576.935 1576.256 1575.702 1574.778 1574.413 1574.739 1575.357 1575.757 1575.829 1575.641 1574.014 1573.492 1573.58 1573.354 1572.313 1570.612 1567.424 1566.066 
1586.896 1586.21 1585.684 1585.264 1584.403 1582.531 1581.592 1580.591 1579.562 1578.704 1580.592 1580.036 1579.705 1579.375 1578.953 1578.482 1578.013 1577.656 1577.131 1576.602 1576.394 1576.209 1576.653 1577.083 1577.411 1577.486 1577.483 1577.548 1576.668 1575.56 1574.695 1574.443 1573.994 1573.048 1573.729 1574.723 1575.417 1575.804 1575.726 1573.752 1572.804 1572.25 1571.968 1571.224 1569.86 1567.268 1565.967 
1586.109 1585.672 1585.226 1584.522 1583.718 1581.666 1580.609 1579.377 1577.612 1578.704 1578.224 1578.036 1577.908 1577.458 1576.837 1576.359 1576.195 1576.247 1575.777 1574.998 1574.072 1573.516 1574.974 1575.467 1575.784 1575.847 1575.925 1576.3 1576.014 1574.821 1573.469 1572.368 1572.668 1571.586 1572.255 1573.275 1573.989 1574.429 1574.455 1573.458 1572.346 1571.324 1570.612 1569.76 1568.829 1566.653 1565.501 
1585.074 1584.694 1584.373 1583.804 1583.109 1581.245 1579.924 1578.428 1577.612 1575.748 1575.65 1575.939 1576.099 1575.917 1575.216 1574.215 1574.407 1574.704 1574.431 1573.679 1572.489 1571.436 1572.833 1573.2 1573.35 1573.748 1574.259 1574.774 1574.351 1573.086 1571.393 1569.479 1569.082 1568.125 1569.349 1570.66 1571.497 1572.172 1572.4 1572.049 1571.066 1570.035 1569.217 1568.327 1566.877 1566.003 1564.473 
1584.73 1584.345 1583.936 1583.477 1582.806 1580.972 1579.664 1578.428 1576.775 1574.945 1573.622 1573.99 1574.293 1574.219 1573.731 1573.193 1573.12 1573.187 1572.99 1572.189 1570.398 1569.073 1568.054 1567.869 1567.007 1566.696 1567.139 1568.969 1568.946 1568.224 1566.873 1565.527 1564.644 1563.341 1565.184 1567.665 1569.127 1569.749 1570.326 1569.8 1569.03 1568.334 1567.674 1567.1 1565.939 1565.296 1564.583 
1584.876 1584.621 1584.118 1583.683 1583.03 1580.972 1579.664 1578.208 1576.718 1575.188 1573.478 1573.208 1573.081 1572.892 1572.668 1572.326 1572.071 1571.686 1570.937 1570.001 1568.713 1567.026 1562.733 1561.897 1560.928 1560.366 1560.621 1562.232 1562.493 1562.34 1561.95 1561.5 1560.842 1560.352 1562.616 1565.205 1566.528 1567.378 1567.721 1567.325 1566.786 1566.326 1565.984 1565.684 1565.426 1565.042 1564.259 
1585.163 1584.944 1584.755 1584.316 1582.15 1581.044 1579.818 1578.48 1577.083 1575.963 1574.177 1573.306 1572.613 1572.257 1572.192 1571.785 1571.31 1570.855 1570.328 1569.561 1568.272 1563.243 1561.749 1561.649 1561.49 1561.307 1561.031 1560.518 1560.475 1560.302 1559.571 1558.42 1557.816 1558.57 1561.159 1563.172 1564.415 1565.28 1565.454 1564.826 1564.274 1564.202 1564.248 1563.963 1564.472 1564.445 1563.977 
1585.852 1585.924 1585.977 1584.316 1582.596 1581.567 1580.385 1579.074 1577.773 1576.705 1574.764 1574.064 1573.543 1572.876 1572.22 1571.82 1571.429 1571.007 1570.452 1569.804 1568.995 1565.65 1565.017 1565.024 1564.798 1564.514 1564.085 1563.203 1562.89 1562.442 1560.382 1556.468 1554.018 1554.412 1557.177 1560.649 1562.57 1563.2 1563.425 1562.95 1562.52 1562.37 1562.147 1562.364 1563.264 1563.814 1563.977 
1590.263 1589.566 1585.977 1585.759 1583.476 1582.228 1580.942 1579.679 1578.463 1577.446 1575.466 1574.572 1573.735 1573.102 1572.601 1571.899 1571.606 1571.291 1570.979 1570.62 1570.126 1569.385 1569.24 1569.092 1569.088 1569.191 1569.118 1567.933 1565.684 1563.163 1560.841 1556.339 1549.579 1549.949 1550.462 1552.049 1555.99 1559.257 1561.095 1560.507 1558.485 1555.411 1553.861 1556.389 1559.439 1563.814 1563.437 
1597.049 1589.566 1588.454 1587.092 1584.793 1583.255 1581.79 1580.55 1579.327 1578.224 1575.859 1574.624 1573.709 1573.487 1573.323 1572.313 1572.057 1571.911 1571.783 1571.77 1572.177 1572.537 1572.693 1572.869 1573.16 1573.367 1573.514 1571.525 1567.434 1563.328 1560.372 1557.223 1549.775 1548.557 1547.261 1546.724 1548.4 1551.395 1553.656 1552.72 1550.103 1546.628 1545.246 1558.594 1559.439 1559.76 1560.022 
1597.049 1593.976 1590.404 1588.043 1584.989 1583.762 1582.517 1581.31 1580.189 1578.155 1577.078 1576.037 1575.22 1574.571 1573.917 1572.826 1572.568 1572.47 1572.505 1572.91 1573.675 1574.495 1574.594 1575.051 1575.496 1575.155 1574.803 1572.16 1567.559 1563.059 1560.173 1557.266 1552.73 1551.152 1548.418 1543.685 1540.414 1543.056 1545.509 1544.359 1542.433 1540.178 1545.246 1549.6 1551.553 1552.586 1553.077 
1598.305 1595.437 1591.687 1588.749 1585.318 1584.057 1582.921 1582.057 1581.215 1579.397 1578.47 1577.41 1576.299 1575.327 1574.249 1573.271 1572.982 1572.804 1573.032 1573.578 1574.326 1575.346 1575.562 1575.876 1575.938 1575.502 1573.698 1571.367 1567.844 1563.985 1561.391 1559.744 1557.417 1554.038 1548.556 1541.537 1536.032 1535.749 1536.771 1536.106 1534.796 1540.178 1538.348 1540.823 1542.688 1544.217 1545.075 
1597.493 1594.994 1591.782 1589.056 1585.576 1584.39 1583.565 1583.148 1582.553 1581.149 1580.092 1578.823 1577.391 1575.921 1574.804 1574.109 1573.857 1573.436 1573.674 1574.593 1575.669 1575.877 1576.106 1576.2 1576.015 1575.463 1572.868 1570.965 1568.412 1565.493 1563.629 1562.73 1561.728 1555.475 1546.341 1539.871 1534.478 1530.053 1530.203 1529.559 1534.796 1533.794 1532.592 1533.322 1533.87 1534.339 1534.934 
1596.688 1594.398 1590.604 1586.845 1585.584 1585.086 1584.864 1584.662 1584.373 1583.263 1582.058 1580.656 1579.007 1577.341 1576.44 1575.555 1575.283 1574.955 1575.252 1575.948 1576.163 1576.203 1576.156 1576.09 1576.075 1575.737 1573.061 1571.131 1568.784 1566.579 1565.07 1563.684 1558.691 1551.377 1544.436 1538.501 1530.782 1524.339 1524.603 1529.559 1528.587 1527.87 1527.256 1527.234 1527.594 1528.126 1528.642 
1594.589 1592.423 1590.215 1586.298 1585.294 1585.321 1585.88 1586.191 1586.307 1584.874 1583.593 1582.117 1580.642 1579.508 1577.861 1577.38 1577.028 1576.88 1576.904 1576.799 1576.557 1576.331 1576.192 1576.07 1575.918 1576.034 1573.873 1571.492 1568.319 1565.484 1563.564 1558.851 1553.074 1547.223 1542.678 1536.945 1529.25 1523.343 1524.603 1523.974 1523.158 1522.308 1521.313 1520.84 1521.191 1521.507 1521.662 
1593.639 1591.883 1589.251 1585.874 1585.869 1586.295 1586.527 1586.875 1586.878 1585.739 1584.448 1583.062 1582.007 1581.167 1579.751 1579.165 1578.672 1578.28 1577.857 1577.423 1576.719 1576.409 1576.143 1575.657 1575.164 1574.875 1572.078 1569.379 1566.209 1562.919 1560.601 1553.269 1548.826 1544.91 1541.148 1537.063 1529.25 1523.343 1522.887 1521.496 1519.526 1517.057 1514.864 1514.058 1514.217 1514.386 1514.577 
1593.234 1591.954 1590.491 1586.958 1587.21 1587.736 1587.733 1587.672 1587.504 1586.241 1585.215 1584.165 1583.305 1582.491 1581.195 1580.494 1579.803 1579.144 1578.603 1578.011 1576.785 1576.156 1575.347 1574.479 1573.723 1570.392 1567.332 1564.742 1562.865 1560.141 1557.22 1549.224 1545.509 1542.43 1539.939 1537.063 1531.338 1524.736 1524.785 1522.333 1517.495 1514.163 1510.571 1510.31 1510.212 1510.261 1510.436 
1593.078 1591.822 1590.894 1589.405 1588.919 1588.572 1588.37 1588.343 1587.54 1586.861 1586.12 1585.37 1584.713 1583.993 1582.417 1581.446 1580.682 1579.976 1579.231 1578.424 1576.422 1575.512 1574.496 1573.191 1571.004 1564.953 1562.339 1560.191 1558.11 1556.33 1553.92 1547.019 1542.597 1538.947 1539.939 1537.731 1534.24 1527.918 1526.801 1525.449 1521.751 1515.327 1511.589 1511.017 1510.649 1510.609 1510.339 
1592.518 1591.692 1590.953 1589.87 1589.426 1589.061 1588.798 1588.606 1587.998 1587.465 1586.957 1586.465 1585.906 1585.331 1583.128 1582.311 1581.68 1580.991 1580.094 1577.435 1575.479 1573.968 1572.915 1570.857 1567.698 1560.99 1559.491 1558.244 1555.817 1551.701 1549.771 1544.229 1539.386 1538.947 1536.646 1535.161 1528.766 1525.744 1524.796 1523.681 1520.714 1515.807 1512.274 1512.355 1512.29 1511.84 1511.2 
1591.717 1591.203 1590.28 1589.92 1589.582 1589.274 1588.995 1588.818 1588.055 1587.612 1587.17 1586.713 1586.171 1585.509 1583.18 1582.87 1582.934 1582.662 1581.309 1576.926 1574.702 1573.563 1572.924 1570.892 1565.829 1559.216 1557.467 1555.207 1552.262 1549.613 1548.439 1544.656 1539.386 1536.146 1535.536 1534.288 1526.737 1524.676 1523.828 1522.434 1520.863 1517.965 1514.274 1513.964 1513.72 1513.505 1512.992 
1590.577 1590.496 1590.09 1589.859 1589.658 1589.421 1589.139 1588.669 1588.124 1587.632 1587.001 1586.19 1585.582 1584.828 1583.881 1584.233 1584.823 1584.973 1583.858 1578 1575.828 1574.491 1574.497 1572.981 1565.614 1559.731 1557.865 1555.182 1552.761 1551.411 1549.767 1544.656 1541.033 1538.974 1538.245 1537.416 1530.307 1527.438 1525.784 1523.875 1521.792 1520.169 1516.796 1515.987 1515.453 1514.827 1513.329 
1589.163 1589.59 1589.818 1589.845 1589.706 1589.45 1589.027 1588.622 1588.111 1587.657 1586.927 1585.98 1585.592 1584.788 1585.166 1585.64 1585.991 1585.897 1584.424 1579.022 1577.063 1575.847 1573.949 1570.018 1562.743 1559.639 1557.896 1555.739 1553.979 1552.665 1549.767 1547.889 1544.445 1541.36 1540.372 1539.212 1532.843 1529.114 1526.426 1523.93 1522.152 1520.959 1518.628 1517.565 1516.398 1515.072 1512.929 
1587.47 1588.317 1589.451 1589.609 1589.385 1588.949 1588.662 1588.517 1588.071 1587.704 1587.074 1586.401 1585.921 1585.58 1585.987 1586.218 1586.032 1585.414 1583.698 1578.648 1576.683 1575.179 1572.684 1567.647 1560.056 1558.748 1557.386 1556.145 1553.979 1552.665 1550.726 1549.244 1546.296 1542.778 1540.459 1538.575 1533.779 1530.182 1526.878 1524.632 1522.934 1520.897 1520.301 1519.136 1517.235 1515.236 1513.418 
1584.261 1585.851 1587.627 1587.895 1587.872 1587.736 1587.9 1588.097 1587.615 1587.648 1587.778 1586.781 1586.337 1586.173 1586.445 1586.316 1585.398 1583.723 1582.19 1577.809 1575.719 1574.12 1571.257 1567.057 1560.786 1559.36 1558.175 1556.145 1554.441 1552.567 1548.673 1547.684 1545.728 1542.51 1538.795 1536.588 1533.205 1530.632 1527.354 1524.854 1523.379 1522.971 1522.573 1520.815 1517.942 1515.356 1513.525 
1577.888 1579.938 1582.818 1583.707 1584.429 1585.078 1585.609 1586.561 1586.611 1586.925 1587.317 1587 1586.606 1587.07 1586.603 1585.536 1583.951 1581.849 1579.509 1576.66 1575.065 1573.239 1570.826 1567.476 1562.445 1561.024 1558.175 1556.95 1555.076 1552.788 1548.783 1547.483 1545.875 1543.171 1539.556 1535.116 1533.522 1531.328 1528.302 1525.699 1524.685 1525.707 1524.98 1522.948 1520.19 1517.156 1513.429 
1571.286 1574.404 1575.864 1577.198 1578.464 1579.693 1580.875 1582.713 1583.467 1583.997 1584.361 1584.9 1585.294 1586.502 1586.12 1584.291 1581.956 1579.66 1574.418 1573.427 1572.981 1571.786 1569.893 1567.478 1563.395 1561.024 1559.676 1558.113 1556.026 1553.938 1551.076 1549.304 1547.022 1544.208 1541.77 1537.04 1535.265 1533.335 1530.964 1528.969 1527.862 1527.809 1526.766 1524.899 1522.652 1519.772 1516.079 
1565.556 1568.783 1570.498 1571.611 1572.734 1573.863 1574.98 1577.192 1578.326 1579.232 1579.927 1580.829 1581.946 1583.515 1584.364 1583.661 1581.052 1577.994 1573.415 1571.346 1570.179 1569.393 1567.737 1566.573 1563.395 1561.885 1560.553 1559.083 1557.043 1554.629 1552.875 1550.812 1548.692 1546.419 1544.205 1538.376 1536.727 1535.439 1533.92 1532.953 1531.766 1529.745 1527.711 1525.227 1522.921 1521.396 1519.191 
1560.308 1564.832 1566.934 1568.041 1568.898 1569.568 1570.09 1572.08 1573.172 1574.13 1575.069 1576.083 1578.508 1579.655 1580.305 1579.98 1578.751 1576.65 1572.335 1570.501 1568.595 1566.781 1565.014 1566.573 1564.354 1562.799 1561.393 1560.182 1559.089 1557.159 1555.43 1553.108 1550.898 1548.912 1547.014 1541.667 1539.907 1538.069 1536.273 1535.887 1535.559 1532.399 1529.524 1526.636 1524.695 1524.125 1522.16 
1556.555 1562.257 1564.269 1565.37 1565.965 1566.133 1565.753 1565.941 1568.36 1570.137 1571.094 1572.054 1574.475 1575.614 1577.014 1577.591 1576.786 1575.583 1571.783 1569.914 1567.397 1564.241 1565.014 1564.211 1563.397 1563.478 1563.113 1561.913 1561.469 1560.214 1558.46 1555.707 1552.952 1550.783 1549.217 1545.167 1542.829 1540.427 1538.72 1538.63 1536.943 1534.945 1532.791 1530.378 1528.193 1527.363 1524.541 
1551.597 1559.157 1561.648 1562.896 1563.387 1563.069 1560.527 1561.701 1564.508 1566.434 1567.563 1568.721 1571.353 1572.727 1574.16 1575.184 1575.875 1575.724 1571.901 1568.532 1567.397 1564.241 1562.031 1561.806 1562.318 1562.634 1562.769 1562.803 1562.473 1561.819 1560.214 1557.741 1555.121 1552.544 1550.879 1547.766 1545.613 1543.61 1542.107 1540.813 1538.462 1537.039 1535.85 1534.46 1531.897 1529.73 1525.206 
1549.101 1555.491 1557.687 1559 1559.389 1559.021 1557.933 1559.238 1561.697 1563.531 1564.167 1564.34 1568.574 1571.382 1573.254 1574.602 1575.722 1576.184 1572.471 1568.532 1564.985 1562.36 1560.71 1558.941 1559.355 1559.863 1560.165 1560.236 1560.569 1559.822 1559.115 1557.264 1554.384 1552.521 1550.508 1549.602 1548.236 1546.556 1544.462 1541.639 1539.267 1538.902 1538.308 1537.101 1534.662 1530.423 1524.327 
1551.133 1552.937 1554.046 1554.468 1554.419 1554.325 1553.989 1555.228 1557.299 1558.902 1559.682 1560.429 1566.528 1569.926 1572.934 1575.435 1576.937 1575.639 1572.471 1568.757 1564.535 1561.354 1560.514 1556.245 1554.404 1554.537 1554.715 1555.176 1555.657 1555.755 1555.773 1555.407 1554.075 1552.708 1550.028 1549.61 1548.786 1546.91 1543.662 1540.474 1539.131 1539.45 1539.239 1538.235 1535.807 1530.09 1523.031 
1548.291 1550.2 1550.737 1550.61 1550.317 1550.08 1549.786 1551.144 1552.604 1552.584 1552.672 1557.074 1565.988 1569.419 1573.072 1575.94 1576.76 1575.639 1573.987 1571.06 1566.958 1563.557 1561.133 1555.744 1552.071 1549.301 1548.757 1549.138 1549.736 1550.976 1551.311 1552.121 1553.035 1552.596 1549.078 1548.094 1546.908 1544.738 1541.547 1538.721 1537.949 1538.113 1537.866 1536.881 1534.161 1524.979 1521.258 
1544.2 1545.464 1545.92 1546.145 1545.95 1545.558 1545.763 1546.827 1548.087 1548.715 1549.604 1559.737 1564.449 1568.585 1573.255 1576.616 1576.76 1576.838 1575.877 1573.683 1570.479 1566.995 1563.95 1557.131 1553.521 1550.574 1548.539 1547.992 1544.935 1544.797 1546.429 1548.007 1549.328 1549.865 1547.211 1545.537 1543.507 1541.22 1539.227 1537.019 1535.225 1534.493 1533.813 1532.669 1530.348 1522.669 1518.371 
1540.686 1540.753 1540.848 1541.038 1541.004 1540.582 1539.856 1543.162 1547.635 1548.042 1549.819 1557.339 1561.753 1566.916 1572.858 1576.616 1577.392 1577.302 1576.767 1576.004 1573.971 1570.236 1566.59 1560.976 1557.873 1554.522 1551.51 1550.071 1541.163 1537.937 1539.527 1541.702 1543.708 1544.873 1544.781 1542.769 1540.318 1538.14 1536.597 1532.413 1530.066 1528.888 1528.482 1527.754 1526.08 1519.266 1515.305 
1536.039 1536.383 1536.855 1537.044 1537.573 1537.983 1539.136 1544.043 1549.35 1549.645 1549.718 1554.584 1559.034 1563.738 1572.858 1577.15 1578.061 1577.746 1576.839 1576.123 1575.093 1572.538 1565.781 1563.825 1561.933 1559.052 1555.432 1552.463 1543.371 1538.176 1536.062 1536.619 1538.238 1539.719 1542.209 1540.507 1538.013 1535.947 1534.369 1529.046 1525.933 1524.286 1523.66 1522.387 1520.393 1514.959 1512.129 
1529.674 1529.737 1531.827 1535.124 1535.91 1540.538 1545.344 1550.087 1552.752 1553.539 1555.278 1559.65 1559.034 1563.738 1570.154 1576.336 1579.786 1577.207 1576.369 1575.766 1574.749 1572.888 1567.261 1565.262 1564.076 1562.286 1559.099 1555.31 1549.033 1543.113 1538.143 1536.498 1535.739 1535.813 1538.963 1538.032 1535.813 1533.656 1531.901 1527.835 1524.781 1521.152 1518.081 1516.16 1514.171 1510.43 1508.113 
1524.438 1526.055 1530.493 1535.065 1536.028 1541.611 1547.478 1552.07 1555.386 1558.615 1561.618 1559.65 1560.881 1562.661 1567.477 1574.235 1577.767 1576.651 1575.674 1574.75 1573.678 1571.836 1567.435 1565.58 1564.271 1562.943 1560.689 1556.523 1550.334 1545.922 1541.098 1538.462 1535.829 1531.189 1533.191 1533.301 1532.427 1531.336 1530.478 1527.455 1524.104 1519.353 1515.07 1512.316 1510.983 1510.096 1510.913 
1524.482 1529.826 1535.109 1537.961 1539.42 1544.915 1548.521 1552.498 1556.678 1560.406 1561.618 1565.312 1567.013 1570.284 1573.311 1574.65 1576.401 1575.895 1574.713 1573.423 1571.963 1569.921 1564.984 1563.505 1562.525 1561.512 1559.593 1556.113 1549.612 1546.39 1542.863 1540.211 1536.896 1526.064 1527.576 1528.33 1528.574 1528.946 1528.827 1525.721 1521.912 1517.583 1514.141 1511.993 1514.554 1516.158 1517.521 
1528.536 1535.356 1538.86 1541.36 1544.059 1549.361 1551.976 1554.832 1557.712 1560.406 1567.47 1569.609 1572.436 1574.907 1574.904 1575.294 1576.005 1575.728 1574.651 1572.966 1571.158 1568.89 1561.752 1560.57 1559.781 1558.905 1557.224 1551.618 1548.761 1545.916 1543.082 1540.063 1535.832 1525.711 1525.54 1525.844 1525.965 1526.227 1526.052 1521.446 1518.381 1515.635 1513.868 1513.933 1518.869 1521.2 1523.182 
1532.168 1538.718 1541.829 1544.771 1547.97 1553.064 1555.391 1557.797 1557.712 1561.08 1567.768 1570.621 1573.658 1575.446 1575.141 1575.528 1575.687 1575.727 1575.235 1574.247 1572.024 1568.513 1561.704 1559.61 1557.137 1554.574 1553.47 1549.886 1546.837 1543.518 1540.646 1537.928 1534.937 1527.874 1526.171 1524.522 1523.102 1522.894 1522.829 1521.416 1520.227 1519.786 1519.846 1520.539 1523.734 1525.888 1527.921 
1534.542 1540.075 1543.518 1547.298 1553.995 1556.613 1558.924 1557.797 1560.012 1563.08 1569.014 1571.481 1572.898 1573.413 1573.945 1574.527 1575.107 1575.292 1575.708 1575.337 1573.157 1565.592 1562.588 1559.97 1555.968 1551.041 1549.756 1547.064 1544.086 1540.654 1538.754 1537.973 1535.781 1529.015 1526.379 1524.745 1524.219 1524.373 1524.33 1524.119 1524.319 1525.203 1526.714 1527.732 1529.61 1530.916 1532.348 
1534.071 1539.564 1544.608 1549.321 1556.797 1556.613 1558.924 1561.197 1563.57 1565.681 1569.208 1570.415 1571.298 1571.849 1572.462 1573.138 1574.327 1574.852 1575.337 1575.118 1572.975 1566.173 1562.997 1559.52 1555.471 1551.51 1549.18 1545.273 1542.755 1540.396 1538.559 1537.584 1534.761 1527.904 1525.572 1525.262 1526.597 1528.398 1529.462 1529.047 1529.719 1531.645 1533.923 1535.387 1535.825 1536.225 1536.957 
1534.729 1539.447 1544.738 1549.793 1556.797 1559.83 1562.3 1564.497 1566.6 1568.301 1570.272 1570.638 1571.047 1571.385 1571.758 1572.901 1573.476 1573.979 1574.24 1573.604 1571.268 1565.567 1562.763 1559.616 1556.019 1552.711 1550.034 1545.438 1542.766 1540.042 1537.542 1535.45 1529.197 1526.138 1525.222 1527.081 1530.484 1533.739 1535.013 1534.462 1535.064 1536.999 1538.933 1540.655 1540.796 1540.627 1540.618 
1533.822 1538.952 1544.167 1549.793 1558.537 1561.622 1564.146 1566.586 1568.686 1570.265 1571.231 1571.066 1571.149 1571.281 1571.34 1572.32 1572.637 1572.951 1572.812 1571.644 1569.489 1564.501 1561.975 1559.233 1556.272 1553.285 1550.451 1545.231 1542.124 1538.93 1536.506 1533.894 1528.523 1526.818 1527.568 1530.226 1533.555 1537.507 1539.802 1539.52 1539.566 1540.947 1542.835 1543.842 1543.974 1543.542 1540.618 
1532.832 1537.716 1544.167 1549.268 1558.031 1561.478 1564.204 1566.413 1568.595 1569.882 1571.013 1570.693 1570.425 1570.344 1570.394 1571.047 1571.304 1571.394 1571.029 1569.83 1568.466 1564.18 1561.67 1559.07 1556.555 1553.677 1548.604 1545.76 1542.667 1539.783 1536.947 1534.778 1531.139 1530.289 1530.904 1533.217 1536.723 1539.782 1542.615 1542.987 1543.445 1544.196 1545.003 1545.992 1545.919 1543.542 1543.053 
1530.788 1537.716 1542.861 1547.81 1556.238 1559.46 1561.935 1564.033 1566.162 1569.008 1569.311 1568.982 1568.269 1567.688 1567.828 1568.849 1569.296 1569.602 1569.421 1568.72 1568.125 1564.624 1562.079 1559.459 1557.102 1554.93 1550.064 1547.417 1544.652 1541.867 1539.021 1536.895 1533.967 1533.536 1534.17 1535.948 1538.49 1540.891 1544.433 1545.577 1546.543 1547.219 1548.117 1549.033 1545.919 1545.687 1545.224 
1530.788 1535.532 1540.591 1545.13 1553.144 1555.998 1558.129 1560.113 1562.32 1566.204 1566.804 1566.266 1565.074 1564.365 1564.824 1566.71 1567.848 1568.626 1568.522 1568.126 1567.359 1565.304 1562.628 1560.062 1557.889 1556.002 1551.741 1549.438 1546.956 1544.262 1541.448 1539.176 1536.198 1535.961 1536.676 1538.337 1540.59 1545.286 1547.135 1548.633 1549.821 1550.836 1548.117 1549.033 1548.959 1548.664 1548.176 
1526.836 1531.459 1536.287 1544.883 1548.252 1550.72 1552.72 1554.971 1557.425 1562.272 1563.03 1562.326 1560.728 1559.591 1560.322 1564.715 1566.775 1568.45 1569.315 1569.57 1568.741 1566.822 1564.133 1561.573 1559.262 1557.365 1553.158 1550.951 1548.607 1546.089 1543.175 1540.359 1537.556 1537.699 1538.572 1540.237 1542.557 1547.948 1550.424 1552.422 1553.791 1550.836 1551.779 1552.765 1552.693 1552.347 1551.882 
1521.401 1525.931 1530.47 1539.027 1542.069 1543.923 1545.709 1548.614 1551.698 1557.695 1558.398 1557.133 1554.738 1552.992 1554.454 1563.107 1566.619 1569.717 1572.073 1573.208 1571.281 1569.278 1566.523 1563.749 1561.168 1559.029 1554.332 1552.038 1549.621 1547.152 1544.108 1538.211 1537.895 1538.595 1539.743 1541.561 1544.325 1550.952 1554.213 1556.823 1553.791 1554.761 1555.388 1556.54 1556.596 1556.3 1555.875 
1515.201 1520.186 1524.486 1532.686 1535.014 1536.213 1538.087 1542.652 1546.337 1551.927 1551.932 1550.19 1548.217 1548.298 1557.346 1562.618 1566.692 1570.245 1573.558 1575.317 1574.219 1572.333 1569.548 1566.375 1562.984 1560.305 1555.358 1553.153 1550.607 1548.101 1544.986 1538.715 1538.925 1540.582 1542.298 1544.803 1547.494 1553.85 1557.632 1556.823 1558.291 1558.746 1558.863 1560.238 1560.569 1560.41 1560.043 
1507.946 1512.946 1517.753 1524.372 1526.584 1529.687 1534.18 1538.238 1541.945 1545.086 1544.027 1541.567 1540.456 1545.06 1557.32 1562.531 1566.304 1569.777 1573.849 1576.379 1576.455 1574.269 1571.484 1567.724 1563.539 1558.256 1556.559 1554.277 1551.88 1549.686 1546.959 1541.66 1541.736 1544.129 1546.51 1548.854 1551.167 1556.799 1557.632 1560.765 1562.534 1562.786 1563.039 1563.814 1564.434 1564.682 1564.537 
1502.077 1505.478 1509.066 1516.224 1520.681 1525.868 1530.957 1534.776 1539.422 1538.851 1536.964 1535.958 1538.184 1543.568 1554.656 1559.704 1564.147 1567.711 1571.862 1575.028 1577.176 1575.656 1573.302 1569.761 1565.264 1559.716 1557.947 1555.911 1553.628 1550.834 1548.362 1545.051 1545.546 1547.826 1550.15 1552.629 1555.038 1556.799 1559.851 1562.774 1564.939 1565.913 1566.623 1567.406 1568.143 1568.767 1568.892 
1500.476 1501.127 1502.743 1509.53 1515.664 1522.348 1526.963 1529.143 1532.07 1530.921 1530.123 1532.955 1538.326 1542.678 1550.512 1555.005 1559.881 1564.145 1568.42 1572.637 1576.672 1576.397 1575.352 1572.699 1568.567 1562.231 1559.963 1557.718 1554.927 1551.704 1549.276 1547.517 1548.217 1550.628 1553.399 1552.629 1557.773 1560.384 1562.923 1565.482 1567.618 1568.76 1569.837 1570.913 1572.045 1572.73 1572.74 
1500.548 1500.625 1501.392 1504.702 1509.581 1515.339 1520.569 1522.454 1522.785 1523.493 1526.344 1531.103 1536.145 1540.011 1546.444 1550.562 1555.162 1560.851 1565.118 1575.315 1577.356 1577.411 1576.208 1574.712 1571.904 1564.371 1561.923 1559.409 1556.448 1553.211 1551.09 1550.413 1551.047 1553.168 1553.399 1556.038 1561.224 1563.751 1566.273 1568.715 1570.712 1572.119 1573.302 1574.194 1575.54 1576.603 1576.409 
1500.487 1500.57 1500.407 1501.128 1503.75 1508.225 1512.563 1514.381 1514.911 1517.894 1523.237 1527.432 1531.204 1535.836 1545.027 1550.257 1554.751 1560.297 1565.445 1574.823 1576.315 1575.415 1574.105 1573.945 1572.268 1565.613 1562.906 1559.816 1557.27 1555.696 1554.076 1554.475 1554.915 1553.168 1555.909 1558.631 1563.944 1566.553 1569.16 1571.622 1573.748 1575.647 1577.271 1577.923 1579.092 1580.205 1579.663 
1500.344 1499.916 1499.663 1499.593 1500.634 1503.424 1505.729 1505.808 1510.235 1514.376 1519.468 1524.272 1528.99 1540.361 1545.96 1551.432 1556.337 1561.11 1565.159 1572.998 1573.266 1571.54 1570.35 1570.5 1570.914 1566.554 1563.268 1560.353 1558.739 1558.094 1557.471 1558.175 1554.915 1556.064 1557.748 1560.546 1566.094 1568.803 1571.257 1573.679 1576.576 1579.115 1581.058 1582.311 1583.028 1583 1582.214 
1500.463 1498.63 1495.121 1495.781 1498.07 1499.727 1500.3 1499.581 1507.667 1513.013 1518.074 1523.756 1529.624 1541.434 1547.028 1553.649 1559.274 1561.911 1563.979 1568.833 1567.746 1565.6 1566.28 1569.098 1571.044 1569.063 1566.172 1562.481 1559.246 1559.041 1559.396 1558.175 1558.167 1558.022 1559.111 1561.513 1568.042 1570.792 1572.682 1575.028 1579.401 1583.318 1583.909 1584.761 1585.242 1585.074 1583.955 
1501.179 1498.399 1489.456 1488.939 1491.811 1493.784 1495.105 1501.699 1507.309 1512.692 1517.456 1523.09 1529.276 1541.597 1547.955 1555.334 1561.115 1563.114 1563.772 1562.134 1560.086 1558.422 1560.93 1565.752 1571.747 1571.55 1568.426 1563.845 1561.345 1560.04 1559.396 1559.85 1559.782 1559.368 1559.498 1560.04 1569.334 1572.234 1574.743 1577.56 1580.115 1584.586 1585.221 1585.522 1585.744 1585.564 1584.892 
1501.624 1499.601 1490.228 1486.809 1487.222 1488.38 1491.374 1501.927 1506.879 1511.66 1515.884 1520.49 1526.068 1539.935 1546.532 1554.26 1560.29 1561.526 1561.849 1559.43 1556.435 1555.614 1558.111 1561.626 1568.654 1569.669 1568.675 1564.677 1560.582 1560.04 1559.978 1560.067 1559.964 1559.774 1559.955 1565.068 1568.693 1571.615 1573.673 1575.846 1578.354 1583.065 1584.257 1584.846 1585.325 1585.702 1585.433 
1501.374 1497.845 1493.796 1489.399 1486.992 1487.304 1490.626 1501.582 1505.314 1509.031 1513.034 1517.273 1522.475 1536.776 1544.021 1550.701 1555.37 1558.421 1558.384 1554.097 1549.868 1550.332 1555.229 1558.83 1562.147 1563.448 1563.624 1564.677 1560.582 1560.141 1560.56 1560.819 1560.499 1559.543 1559.134 1563.818 1566.795 1569.199 1571.392 1573.789 1575.924 1580.02 1581.68 1582.978 1584.165 1585.701 1585.875 
1501.006 1497.283 1495.043 1491.132 1487.289 1487.505 1489.402 1499.342 1502.83 1506.309 1510.924 1515.609 1520.793 1534.053 1540.549 1545.366 1548.335 1549.978 1550.11 1547.571 1545.764 1547.11 1550.599 1553.248 1556.837 1558.511 1563.624 1562.306 1561.373 1559.935 1558.861 1558.451 1558.086 1557.928 1557.959 1560.584 1563.604 1566.509 1569.268 1571.938 1573.91 1576.692 1578.433 1580.652 1582.833 1584.798 1585.899 
1501.094 1496.974 1494.604 1491.224 1488.131 1487.586 1488.104 1495.103 1499.095 1503.621 1509.864 1515.029 1525.245 1531.093 1536.255 1539.605 1541.423 1542.521 1542.831 1541.223 1540.669 1542.731 1545.711 1547.381 1550.346 1558.511 1559.163 1558.812 1558.504 1556.769 1555.864 1555.106 1554.363 1553.961 1555.125 1558.674 1560.955 1563.613 1566.306 1568.828 1571.235 1573.136 1574.955 1578.003 1581.082 1583.497 1586.787 
1500.702 1497.214 1494.502 1491.753 1489.213 1487.971 1487.618 1491.559 1496.919 1502.506 1508.768 1514.257 1522.465 1525.908 1529.112 1531.913 1533.711 1534.815 1535.747 1534.801 1535.044 1537.402 1539.51 1541.411 1550.346 1552.787 1554.691 1555.687 1555.165 1553.316 1551.932 1550.016 1548.444 1549.116 1552.499 1556.522 1558.27 1560.493 1562.774 1564.701 1569.172 1570.967 1573.426 1576.625 1579.656 1582.296 1587.186 
1501.534 1497.462 1494.24 1491.394 1489.103 1487.9 1487.543 1490.541 1495.817 1501.649 1507.622 1512.948 1518.585 1520.906 1522.621 1524.021 1525.463 1526.426 1527.252 1527.113 1528.596 1531.948 1534.293 1543.543 1546.053 1548.807 1550.931 1551.68 1551.634 1549.49 1547.413 1545.772 1545.749 1547.789 1550.676 1552.783 1554.107 1556.237 1558.52 1560.394 1566.254 1569.746 1572.842 1575.751 1578.345 1580.815 1586 
1502.029 1497.43 1493.352 1489.641 1487.669 1487.216 1487.449 1490.228 1494.86 1500.051 1505.071 1509.732 1514.818 1515.74 1516.453 1517.41 1518.94 1520.375 1521.105 1521.745 1523.625 1526.515 1534.293 1538.667 1541.499 1544.75 1547.341 1548.226 1548.014 1544.778 1541.844 1540.778 1542.486 1545.118 1547.585 1548.609 1549.383 1551.032 1553.841 1557.701 1565.029 1568.482 1571.629 1574.382 1576.486 1578.482 1583.448 
1500.698 1497.422 1492.699 1488.639 1486.528 1486.442 1487.186 1489.585 1493.672 1498.115 1501.906 1505.228 1510.246 1510.884 1511.126 1512.014 1514.04 1515.677 1515.761 1516.945 1519.573 1526.515 1529.473 1535.101 1537.771 1541.012 1543.743 1544.553 1544.236 1540.162 1536.947 1536.457 1538.644 1539.784 1542.095 1543.537 1545.537 1547.99 1551.888 1556.862 1564.443 1566.967 1569.514 1572.137 1574.28 1575.405 1579.839 
1500.098 1496.909 1492.962 1489.307 1486.3 1485.845 1486.815 1488.427 1491.288 1495.042 1498.515 1501.13 1505.26 1506.498 1507.489 1508.428 1510.045 1511.427 1511.53 1516.945 1519.573 1522.628 1525.016 1531.985 1535.536 1538.542 1540.676 1541.207 1540.529 1537.246 1534.977 1534.357 1535.262 1535.84 1536.681 1539.369 1542.992 1546.904 1551.242 1555.696 1563.08 1564.767 1566.342 1568.411 1570.673 1573.102 1576.039 
1497.895 1494.926 1492.461 1490.319 1487.671 1485.402 1486.089 1487.095 1489.125 1492.261 1495.533 1500.261 1502.008 1503.194 1504.049 1504.791 1505.683 1508.44 1511.53 1512.616 1515.024 1518.617 1522.139 1529.595 1533.975 1537.149 1538.621 1538.787 1537.021 1534.643 1532.537 1531.511 1531.541 1532.297 1534.475 1536.736 1539.497 1543.464 1548.204 1552.519 1560.986 1562.848 1563.133 1563.224 1564.605 1570.661 1573.458 
1492.957 1491.428 1491.127 1490.459 1488.199 1484.853 1485.013 1486.047 1488.058 1490.028 1492.743 1497.199 1498.578 1499.676 1500.581 1500.979 1501.697 1508.44 1509.32 1510.624 1513.139 1517.593 1522.038 1527.866 1530.952 1534.162 1535.692 1535.681 1533.976 1531.984 1529.79 1527.942 1527.315 1528.289 1532.039 1533.73 1535.755 1538.985 1543.916 1548.526 1556.866 1559.036 1559.121 1559.292 1561.767 1568.083 1571.115 
1489.467 1488.6 1489.183 1489.126 1486.936 1484.371 1483.408 1483.417 1486.384 1488.896 1491.041 1494.04 1495.033 1496.309 1497.611 1498.113 1501.697 1506.006 1508.344 1510.445 1513.644 1518.211 1525.747 1527.771 1528.851 1529.802 1530.907 1530.98 1530.006 1528.682 1526.963 1525.018 1524.064 1525.743 1529.332 1531.092 1533.256 1535.407 1539.243 1550.119 1552.913 1553.69 1553.636 1555.276 1559.241 1564.316 1567.487 
1489.155 1488.035 1487.425 1486.912 1485.224 1479.06 1476.749 1478.69 1483.071 1486.661 1488.953 1491.273 1491.636 1492.484 1494.423 1498.113 1499.651 1504.837 1507.655 1510.59 1513.716 1517.56 1523.742 1525.059 1525.497 1525.981 1526.501 1526.504 1526.249 1525.231 1523.839 1522.599 1522.507 1524.179 1527.205 1528.686 1531.11 1534.069 1537.262 1546.344 1548.474 1548.422 1548.397 1550.554 1554.346 1560.175 1562.777 
1490.645 1488.953 1487.385 1485.875 1484.009 1478.309 1475.637 1476.397 1479.555 1483.158 1486.069 1488.143 1487.944 1488.499 1494.423 1496.851 1502.148 1505.338 1508.638 1511.438 1513.633 1515.462 1519.899 1521.265 1521.726 1522.216 1522.581 1522.853 1522.32 1521.227 1520.375 1520.219 1520.343 1523.628 1524.586 1526.148 1529.11 1532.659 1535.832 1540.478 1541.224 1542.177 1544.565 1547.39 1549.52 1556.766 1560.523 
1491.292 1489.547 1487.71 1485.691 1483.621 1478.245 1475.798 1475.875 1477.877 1480.628 1483.293 1485.553 1486.012 1488.499 1491.504 1496.146 1502.067 1505.213 1508.124 1510.678 1512.849 1514.338 1516.093 1516.949 1517.27 1517.722 1518.1 1518.251 1517.849 1516.532 1515.568 1516.433 1517.935 1521.592 1522.862 1524.942 1527.582 1530.098 1532.759 1535.167 1535.888 1538.379 1541.971 1545.245 1548.393 1554.098 1557.9 
1491.18 1489.838 1487.895 1485.72 1483.396 1477.382 1475.26 1475.55 1476.492 1478.859 1483.248 1485.553 1486.012 1487.644 1491.407 1496.668 1502.37 1504.39 1506.244 1508.165 1510.205 1511.563 1512.378 1512.512 1512.664 1513.129 1513.564 1513.789 1513.737 1512.728 1512.088 1513.608 1515.806 1519.555 1521.818 1524.223 1526.423 1527.996 1529.205 1532.81 1535.278 1538.22 1542 1546.394 1551.797 1552.96 1554.202 
1490.717 1489.4 1487.964 1485.805 1483.362 1478.749 1476.287 1475.329 1475.87 1477.752 1483.248 1484.983 1486.251 1488.502 1492.96 1497.745 1502.245 1502.963 1503.371 1504.393 1506.35 1506.996 1507.69 1508.001 1508.566 1509.403 1509.649 1510.338 1510.618 1510.422 1510.725 1512.188 1513.333 1517.154 1519.424 1521.92 1524.076 1524.882 1525.488 1531.161 1534.881 1537.98 1540.391 1543.916 1549.72 1549.57 1550.043 
1488.895 1488.145 1486.939 1485.198 1482.99 1479.57 1477.226 1475.29 1475.616 1477.752 1482.105 1484.754 1486.811 1489.426 1493.589 1497.649 1501.356 1501.587 1501.53 1501.567 1501.814 1501.821 1502.399 1503.15 1503.9 1505.046 1506.288 1507.075 1507.86 1508.665 1509.234 1510.359 1511.976 1515.56 1516.891 1518.141 1519.992 1522.293 1525.531 1528.345 1532.575 1536.224 1537.611 1539.167 1545.062 1547.148 1549.084 
1487.181 1486.914 1485.853 1484.252 1480.601 1479.065 1477.145 1475.553 1475.616 1476.948 1481.189 1484.287 1487.212 1489.167 1491.478 1494.133 1498.277 1498.315 1497.883 1497.475 1497.225 1497.954 1498.676 1499.371 1500.114 1501.38 1503.429 1504.104 1505.229 1506.223 1507.121 1509.319 1510.885 1513.45 1513.43 1514.98 1519.227 1521.377 1523.767 1525.64 1529.054 1532.827 1534.739 1536.037 1543.591 1547.478 1551.007 
1485.782 1485.708 1484.751 1483.281 1480.374 1478.9 1477.215 1475.553 1475.488 1475.969 1480.278 1483.268 1486.358 1488.816 1490.494 1492.602 1493.416 1492.812 1491.776 1491.516 1492.483 1494.813 1496.025 1497.21 1498.585 1500.599 1501.195 1501.52 1502.389 1503.694 1506.004 1507.986 1509.886 1511.149 1512.197 1515.09 1520.31 1522.885 1526.158 1528.223 1531.911 1535.893 1537.233 1538.666 1545.439 1549.348 1553.291 
1485.601 1485.013 1484.071 1482.796 1480.164 1478.827 1477.215 1475.852 1475.478 1475.454 1478.703 1481.478 1484.369 1486.952 1488.242 1488.819 1488.724 1487.927 1487.088 1487.479 1489.27 1491.903 1493.972 1495.72 1497.179 1498.348 1498.487 1499.752 1500.898 1502.81 1505.356 1507.11 1510.895 1513.46 1516.226 1519.823 1523.796 1525.668 1529.745 1532.493 1535.542 1538.331 1540.195 1542.333 1548.576 1552.16 1556.685 
1485.129 1484.717 1483.702 1482.419 1480.164 1478.827 1477.306 1475.961 1475.565 1475.437 1476.836 1478.763 1481.287 1483.93 1485.207 1485.943 1485.835 1485.189 1485.469 1486.834 1487.886 1490.808 1493.055 1494.265 1495.316 1496.502 1499.439 1500.779 1502.226 1503.949 1505.751 1507.358 1513.246 1517.043 1521.326 1524.641 1526.57 1528.384 1532.295 1535.166 1538.077 1540.784 1543.326 1548.661 1552.047 1555.828 1559.697 
1485.839 1484.864 1483.527 1482.419 1479.77 1478.52 1477.225 1475.931 1475.216 1475.181 1475.781 1477.116 1479.138 1481.085 1482.167 1482.263 1482.915 1483.64 1485.253 1487.286 1488.653 1490.47 1491.703 1492.771 1494.452 1497.458 1501.101 1501.749 1502.016 1502.766 1505.218 1509.579 1514.538 1519.415 1524.637 1527.133 1528.363 1529.46 1533.694 1536.275 1539.03 1542.125 1545.516 1551.688 1554.799 1558.142 1559.697 
1486.782 1485.412 1483.527 1482.067 1479.335 1478.177 1477.09 1475.85 1474.757 1474.821 1475.248 1476.133 1477.584 1479.234 1479.268 1477.679 1479.722 1482.576 1485.229 1487.707 1488.987 1488.948 1489.808 1490.924 1492.386 1495.844 1500.088 1500.409 1499.925 1500.846 1505.179 1510.742 1517.7 1521.779 1525.007 1526.682 1527.683 1531.165 1533.895 1536.4 1539.106 1542.262 1546.464 1552.684 1556.095 1558.142 1561.275 
1487.716 1485.412 1483.52 1480.269 1478.873 1477.855 1476.989 1475.569 1474.281 1474.868 1475.296 1475.871 1476.821 1477.694 1476.631 1476.739 1478.346 1480.344 1483.216 1485.412 1486.142 1486.813 1488.187 1489.149 1489.774 1492.179 1498.146 1499.248 1500.578 1503.458 1508.029 1512.346 1518.365 1521.423 1523.425 1524.949 1525.942 1529.525 1532.819 1535.919 1538.706 1541.981 1545.884 1551.841 1556.095 1559.809 1562.27 
1487.716 1486.215 1484.143 1479.171 1478.183 1477.303 1476.432 1474.848 1473.751 1474.645 1475.31 1476.083 1476.576 1476.272 1475.601 1476.819 1478.313 1479.778 1481.115 1482.547 1483.844 1485.299 1486.762 1487.313 1488.397 1492.214 1498.845 1501.576 1505.495 1510.176 1513.005 1515.676 1517.611 1519.175 1520.345 1521.469 1522.969 1526.959 1530.636 1534.419 1537.574 1540.308 1543.57 1551.841 1555.869 1560.197 1562.28 
1487.958 1486.183 1483.874 1477.853 1476.263 1476.12 1475.386 1473.704 1473.166 1474.536 1475.417 1476.165 1476.535 1476.149 1475.521 1476.357 1477.593 1478.462 1478.63 1479.604 1483.053 1484.817 1486.458 1487.974 1490.657 1495.11 1502.768 1506.743 1510.905 1513.579 1513.956 1513.95 1514.115 1514.468 1515.077 1516.349 1518.596 1524.654 1528.041 1531.335 1534.045 1540.308 1543.57 1548.683 1551.974 1556.091 1559.32 
1487.911 1485.569 1482.461 1477.938 1476.26 1475.326 1474.484 1473.155 1472.635 1474.354 1475.536 1476.292 1476.538 1476.206 1474.972 1475.456 1476.217 1476.436 1476.296 1477.043 1482.716 1484.689 1486.432 1489.999 1495.402 1499.753 1504.194 1507.59 1511.022 1512.408 1512.355 1511.157 1510.96 1511.075 1511.199 1511.807 1514.388 1522.732 1525.929 1527.949 1534.045 1536.658 1541.387 1544.534 1547.641 1550.031 1551.787 
1487.709 1485.494 1483.35 1478.218 1476.733 1475.378 1474.188 1472.927 1472.548 1473.902 1475.268 1476.26 1476.634 1476.249 1474.402 1474.489 1474.648 1474.889 1475.72 1477.388 1484.716 1485.967 1487.918 1492.942 1499.528 1502.371 1504.022 1506.299 1507.708 1508.047 1508.155 1507.594 1507.626 1507.949 1508.524 1509.567 1512.122 1518.688 1521.872 1527.949 1529.837 1531.946 1536.077 1538.782 1542.266 1545.531 1547.613 
1487.07 1484.924 1482.681 1478.506 1476.601 1475.367 1474.154 1472.784 1471.663 1472.938 1474.403 1475.697 1476.459 1476.178 1474.011 1474.153 1474.543 1475.55 1477.281 1480.099 1487.27 1489.765 1492.958 1497.21 1501.124 1501.803 1501.878 1502.146 1502.837 1503.587 1503.616 1502.89 1502.671 1503.206 1504.749 1506.755 1511.341 1513.825 1521.872 1523.746 1524.848 1526.415 1530.993 1533.4 1536.038 1538.461 1540.224 
1485.811 1484.112 1480.934 1479.204 1477.115 1475.293 1474.178 1472.992 1470.751 1471.327 1472.722 1474.168 1474.835 1474.314 1473.02 1473.759 1475.202 1476.808 1479.454 1487.039 1488.823 1490.331 1493.964 1498.559 1500.439 1499.946 1499.454 1499.406 1499.795 1499.88 1499.804 1499.197 1499.028 1499.784 1501.268 1502.952 1507.013 1513.825 1516.372 1518.404 1519.668 1521.057 1525.354 1527.66 1530.351 1532.559 1533.686 
1484.315 1483.285 1481.322 1479.97 1477.722 1475.52 1474.914 1474.511 1470.752 1470.081 1470.441 1471.071 1471.603 1471.422 1471.029 1473.33 1475.278 1477.393 1480.527 1487.937 1489.609 1491.233 1493.695 1495.964 1497.607 1497.587 1497.332 1497.283 1497.288 1496.879 1496.933 1496.409 1496.51 1497.261 1498.462 1499.48 1507.013 1509.231 1511.132 1512.78 1514.268 1515.784 1519.889 1522.623 1525.411 1527.608 1529.075 
1484.626 1483.361 1481.504 1480.382 1478.281 1476.25 1476.24 1476.363 1472.019 1469.864 1469.249 1468.589 1466.841 1466.982 1469.08 1472.518 1474.936 1476.866 1479.57 1486.183 1488.14 1489.672 1490.838 1491.937 1493.61 1495.099 1494.873 1494.69 1494.555 1494.063 1493.895 1494.052 1494.171 1494.669 1498.462 1499.48 1502.575 1504.456 1506.35 1508.237 1509.632 1510.646 1514.775 1518.146 1521.053 1523.566 1525.174 
1487.679 1484.822 1481.223 1480.303 1478.997 1477.671 1477.316 1477.158 1472.895 1470.201 1469.298 1467.84 1464.146 1464.59 1467.24 1470.754 1473.148 1474.863 1476.646 1483.361 1486.077 1487.162 1488.226 1489.366 1490.997 1493.01 1492.448 1491.578 1491.276 1490.972 1491.48 1491.668 1491.494 1494.669 1495.71 1496.68 1499.033 1500.322 1502.084 1504.242 1505.908 1508.671 1510.968 1513.626 1515.95 1518.039 1520.383 
1489.027 1486.343 1480.638 1479.59 1478.881 1478.66 1477.638 1475.304 1472.885 1470.416 1468.995 1467.715 1464.881 1463.776 1466.096 1469.578 1472.266 1473.398 1475.482 1481.141 1483.856 1485.355 1486.697 1488.507 1491.469 1491.423 1490.099 1488.533 1488.102 1488.151 1489.276 1489.408 1491.494 1491.547 1492.446 1493.66 1496.824 1498.149 1499.583 1501.418 1502.844 1504.706 1506.613 1509.012 1511.113 1512.956 1515.334 
1485.863 1483.174 1479.455 1478.645 1478.21 1478.096 1477.131 1474.325 1472.239 1470.214 1468.857 1467.469 1465.256 1463.921 1466.204 1469.197 1472.172 1474.961 1477.093 1481.001 1483.018 1484.57 1486.276 1488.166 1489.447 1489.274 1488.383 1486.89 1486.047 1486.066 1487.16 1489.408 1488.909 1488.522 1489.237 1491.069 1494.591 1496.218 1497.632 1499.186 1500.034 1500.709 1501.754 1504.094 1506.92 1509.017 1511.179 
1479.101 1477.663 1477.669 1477.422 1477.212 1477.136 1476.535 1472.874 1470.916 1469.683 1468.626 1467.059 1464.572 1463.949 1466.251 1469.305 1472.344 1475.305 1477.882 1479.045 1480.567 1482.327 1484.515 1486.319 1487.063 1486.979 1486.069 1484.54 1484 1484.018 1487.16 1487.423 1487.099 1486.932 1487.589 1490.409 1492.006 1493.674 1495.432 1497.026 1497.98 1498.709 1499.277 1500.769 1503.161 1505.325 1507.263 
1474.157 1473.434 1473.361 1473.735 1474.262 1474.251 1473.64 1469.759 1468.491 1467.929 1467.46 1466.426 1464.156 1463.775 1465.47 1467.998 1470.885 1473.808 1476.35 1477.402 1479.056 1480.696 1482.136 1483.374 1484.212 1484.143 1483.939 1483.208 1482.454 1484.018 1485.202 1485.666 1485.574 1485.8 1486.437 1488.745 1490.239 1491.962 1493.662 1495.104 1496.294 1497.492 1498.345 1499.339 1500.631 1502.086 1505.19 
1473.322 1471.421 1470.363 1469.874 1469.827 1469.217 1467.565 1466.352 1466.397 1466.556 1466.466 1465.768 1463.335 1463.556 1465.065 1467.113 1468.798 1471.033 1474.516 1476.008 1477.63 1478.896 1479.816 1480.756 1481.266 1481.4 1481.118 1480.72 1482.454 1482.485 1483.021 1483.73 1484.455 1484.975 1485.438 1487.758 1489.051 1490.736 1492.373 1493.655 1494.705 1496.313 1496.987 1497.789 1498.819 1499.592 1502.362 
1476.321 1474.123 1473.027 1471.086 1468.838 1466.97 1464.153 1464.397 1464.854 1465.284 1465.439 1465.085 1463.409 1463.448 1464.219 1465.015 1465.858 1468.023 1472.736 1474.221 1475.727 1476.907 1477.675 1478.305 1479.148 1479.118 1481.118 1480.72 1480.321 1480.297 1481.029 1481.867 1483.047 1484.45 1485.777 1488.36 1489.29 1490.386 1491.653 1492.663 1493.541 1495.006 1495.711 1496.492 1497.357 1498.042 1500.317 
1482.797 1479.193 1477.252 1475.076 1472.245 1468.943 1463.808 1463.689 1464.046 1464.393 1464.698 1464.693 1463.848 1463.467 1463.256 1463.304 1463.911 1465.788 1470.188 1471.957 1473.504 1474.641 1475.58 1476.758 1476.832 1479.118 1478.841 1478.378 1478.065 1478.027 1478.729 1479.744 1481.527 1484.509 1486.672 1488.937 1489.685 1490.417 1491.152 1491.865 1493.097 1493.774 1494.501 1495.273 1496.072 1496.874 1498.876 
1489.699 1486.328 1482.972 1479.595 1476.395 1472.627 1465.478 1464.039 1463.759 1463.98 1464.266 1464.42 1463.683 1463.111 1462.903 1462.909 1463.399 1464.449 1467.839 1469.237 1470.775 1472.24 1473.176 1474.097 1476.832 1476.642 1476.434 1476.213 1475.735 1476.052 1476.535 1478.153 1481.615 1484.886 1486.887 1489.363 1489.911 1490.249 1490.567 1490.948 1491.933 1492.527 1493.248 1494.029 1494.967 1495.949 1498.144 
1494.926 1490.622 1487.873 1483.951 1479.443 1475.557 1467.683 1464.894 1463.618 1463.576 1463.693 1463.882 1463.099 1462.515 1462.401 1462.503 1462.799 1464.731 1465.806 1466.947 1468.415 1469.858 1470.845 1474.097 1474.074 1473.753 1473.723 1473.995 1473.653 1474.601 1475.944 1478.498 1482.055 1485.291 1488.864 1489.498 1489.68 1489.472 1489.348 1489.776 1490.62 1491.148 1491.932 1492.849 1493.853 1494.859 1497.195 
1496.307 1492.882 1489.927 1485.898 1480.71 1476.439 1468.007 1464.896 1463.286 1463.091 1462.903 1462.809 1462.296 1461.823 1461.7 1461.777 1461.881 1463.008 1463.48 1464.5 1466.159 1467.548 1470.845 1470.572 1470.468 1470.285 1470.327 1471.159 1472.021 1475.14 1477.29 1480.186 1483.451 1486.731 1489.158 1489.109 1488.612 1487.972 1487.775 1488.286 1489.199 1489.736 1490.638 1491.757 1492.803 1493.808 1496.056 
1497.001 1493.161 1489.407 1484.895 1479.727 1475.737 1469.184 1466.249 1465.672 1465.579 1463.751 1461.757 1461.538 1461.236 1460.987 1460.881 1461.122 1461.965 1462.568 1463.584 1464.943 1467.548 1468.338 1467.701 1466.424 1465.925 1466.294 1467.909 1473.407 1475.31 1477.325 1479.653 1482.529 1485.866 1488.382 1488.003 1487.151 1486.291 1486.169 1486.766 1487.645 1488.441 1489.625 1490.844 1491.95 1494 1494.983 
1496.143 1492.019 1487.958 1484.003 1479.561 1476.013 1472.476 1471.675 1471.292 1470.929 1467.655 1462.699 1461.449 1460.658 1460.347 1460.089 1459.922 1460.932 1461.674 1462.581 1464.943 1466.037 1466.392 1465.814 1464.481 1463.317 1464.244 1467.035 1472.103 1474.612 1476.385 1478.069 1480.626 1483.685 1486.479 1486.06 1485.256 1484.673 1484.747 1485.276 1486.693 1487.973 1489.419 1490.686 1491.656 1493.05 1494.114 
1495.66 1492.247 1488.679 1484.712 1480.103 1476.153 1475.573 1476.446 1477.033 1476.373 1473.065 1465.291 1464.494 1463.122 1460.172 1459.531 1459.124 1459.544 1461.674 1462.581 1463.489 1464.028 1463.767 1463.328 1462.716 1462.8 1464.242 1466.241 1471.286 1473.572 1475.696 1477.796 1479.632 1481.142 1483.629 1483.679 1483.38 1483.088 1483.27 1485.017 1486.41 1487.945 1489.391 1490.398 1491.143 1491.574 1493.161 
1494.872 1492.337 1489.563 1486.511 1483.201 1478.672 1479.663 1480.694 1480.668 1478.732 1475.573 1469.005 1467.43 1466.143 1463.151 1459.628 1458.771 1459.544 1460.108 1460.798 1461.596 1462.132 1461.566 1461.482 1461.555 1462.148 1463.266 1464.843 1469.609 1472.117 1474.55 1476.779 1478.219 1478.959 1481.396 1481.605 1481.38 1480.869 1480.779 1483.667 1485.529 1487.427 1488.804 1489.493 1489.601 1489.685 1492.49 
1495.127 1492.314 1489.325 1487.073 1485.803 1483.469 1484.297 1485.27 1484.669 1481.403 1477.568 1471.792 1469.705 1467.664 1464.949 1462 1458.402 1458.531 1458.881 1459.198 1459.741 1460.2 1459.597 1459.951 1460.19 1460.858 1462.044 1463.337 1467.479 1470.377 1473.248 1475.545 1476.978 1479.182 1479.54 1479.213 1479.004 1478.465 1477.95 1481.271 1483.518 1485.664 1487.352 1487.773 1487.672 1489.796 1494.307 
1497.233 1495.053 1492.041 1489.675 1488.78 1487.937 1488.958 1489.545 1488.736 1485.51 1480.42 1473.593 1471.424 1469.097 1466.51 1462 1457.964 1457.565 1457.365 1457.531 1457.984 1458.248 1457.592 1457.866 1458.705 1459.74 1460.904 1462.123 1465.353 1468.382 1471.6 1474.203 1475.887 1477.83 1477.369 1476.736 1476.72 1476.382 1475.859 1479.011 1480.69 1482.594 1484.787 1485.372 1486.173 1490.844 1495.769 
1499.58 1498.282 1495.748 1493.147 1491.989 1492.12 1492.741 1492.32 1490.796 1488.293 1483.809 1476.029 1473.72 1471.418 1466.51 1463.757 1459.468 1458.208 1457.005 1456.18 1456.249 1456.32 1454.967 1455.871 1457.187 1458.306 1459.714 1462.318 1464.144 1467.066 1470.588 1473.618 1475.736 1476.673 1475.605 1474.817 1474.764 1474.469 1474.537 1477.635 1478.502 1479.24 1481.392 1484.553 1488.673 1492.167 1496.469 
1501.08 1500.339 1498.766 1496.656 1495.846 1495.881 1496.09 1495.154 1492.895 1490.322 1483.161 1479.538 1476.571 1471.418 1468.595 1465.771 1461.641 1459.691 1457.916 1456.674 1455.283 1452.956 1452.975 1454.502 1455.558 1456.741 1458.325 1461.668 1463.841 1466.806 1470.204 1473.401 1475.964 1475.496 1473.944 1473.231 1473.104 1473.104 1473.541 1475.829 1476.067 1477.109 1480.148 1483.39 1489.199 1492.831 1496.631 
1502.319 1501.985 1500.843 1500.054 1499.48 1499.432 1500.103 1499.16 1495.701 1491.049 1486.785 1483.585 1476.571 1474.047 1471.417 1468.437 1463.803 1461.988 1459.809 1457.582 1455.594 1453.408 1451.783 1452.975 1454.074 1455.087 1456.729 1461.402 1463.603 1465.977 1468.626 1471.487 1473.731 1473.098 1471.675 1471.332 1471.498 1471.99 1473.658 1474.874 1476.171 1478.039 1481.007 1484.589 1489.177 1491.391 1494.45 
1502.787 1502.473 1501.957 1502.035 1501.662 1501.96 1502.038 1500.861 1498.285 1495.233 1486.785 1483.585 1480.28 1477.152 1474.49 1471.636 1466.098 1463.905 1461.539 1458.836 1456.643 1452.221 1451.206 1451.521 1452.391 1453.379 1455.29 1460.835 1463.004 1465.064 1466.925 1468.506 1469.724 1468.961 1468.051 1468.73 1469.966 1470.93 1473.637 1475.229 1476.922 1479.045 1481.567 1484.535 1489.294 1491.104 1492.945 
1499.679 1500.303 1500.906 1501.299 1500.881 1500.596 1499.92 1498.4 1496.181 1495.233 1490.213 1487.944 1484.568 1480.53 1477.102 1474.219 1467.461 1465.044 1462.803 1460.21 1457.531 1452.799 1451.457 1450.929 1450.939 1451.732 1454.05 1459.295 1461.618 1463.646 1465.07 1465.752 1465.535 1465.104 1465.762 1467.134 1468.571 1469.919 1473.005 1474.779 1476.664 1478.942 1481.491 1484.272 1489.089 1490.902 1492.068 
1494.661 1495.357 1495.823 1496.092 1495.343 1494.563 1493.486 1492.077 1496.181 1493.839 1491.402 1490.27 1486.979 1481.762 1477.961 1471.224 1468.265 1465.833 1463.508 1461.171 1458.627 1453.518 1451.915 1451.109 1450.749 1451.195 1452.87 1457.048 1459.371 1461.757 1463.272 1463.714 1462.797 1463.276 1464.727 1466.261 1467.491 1468.246 1471.844 1473.589 1475.476 1477.803 1480.736 1483.54 1488.169 1489.532 1490.542 
1489.581 1489.989 1489.884 1489.817 1488.584 1487.655 1486.332 1492.077 1490.398 1489.133 1488.9 1487.801 1484.747 1480.285 1476.488 1471.975 1469.525 1467.033 1464.77 1462.697 1460.176 1454.352 1452.346 1451.197 1450.718 1450.877 1451.762 1455.176 1457.478 1459.968 1461.331 1461.559 1461.545 1462.604 1464.318 1465.772 1466.669 1466.978 1470.525 1472.579 1474.61 1476.918 1479.903 1485.027 1487.244 1488.808 1489.684 
1486.188 1486.385 1486.139 1484.019 1480.371 1479.446 1486.332 1484.69 1482.751 1481.631 1481.471 1480.247 1478.105 1475.978 1474.358 1471.553 1469.934 1467.858 1465.81 1464.04 1461.393 1454.922 1452.835 1451.29 1450.728 1450.72 1452.582 1454.394 1456.291 1457.987 1459.067 1459.619 1460.754 1462.262 1463.935 1465.061 1465.24 1464.758 1469.388 1472.514 1474.573 1476.84 1479.395 1483.91 1486.058 1487.871 1489.198 
1486.297 1484.837 1482.627 1478.531 1474.084 1479.446 1477.706 1475.454 1474.08 1474.424 1474.116 1473.556 1472.886 1472.345 1471.41 1469.365 1468.272 1467.085 1465.644 1464.103 1461.601 1454.663 1453.012 1451.399 1450.737 1450.726 1452.257 1453.766 1455.154 1456.349 1457.331 1458.019 1459.734 1461.381 1462.833 1463.365 1463.262 1465.262 1468.259 1471.25 1474.094 1476.74 1478.692 1482.337 1484.578 1486.877 1488.439 
1490.157 1488.934 1487.753 1475.336 1474.084 1473.61 1473.099 1472.875 1473.018 1471.281 1470 1469.454 1468.923 1468.692 1468.096 1467.293 1466.658 1465.659 1464.513 1463.053 1455.954 1453.433 1452.14 1451.115 1450.73 1450.724 1451.909 1453.086 1454.237 1455.269 1456.031 1456.728 1458.291 1459.393 1460.553 1461.393 1461.735 1465.325 1467.968 1470.722 1473.325 1475.531 1476.946 1479.56 1481.8 1484.452 1488.439 
1495.073 1493.088 1487.753 1479.375 1476.298 1474.554 1473.806 1473.62 1473.371 1470.375 1467.58 1465.356 1465.005 1464.895 1464.888 1465.209 1465.001 1464.16 1462.523 1460.187 1453.351 1451.858 1451.187 1450.732 1450.714 1450.717 1451.506 1452.551 1453.639 1454.529 1454.905 1455.182 1456.237 1457.23 1458.675 1459.993 1461.22 1464.973 1467.181 1469.348 1471.349 1473.435 1475.006 1477.868 1479.465 1484.452 1486.098 
1500.467 1493.088 1491.631 1485.492 1481.545 1479.013 1477.978 1476.744 1474.912 1470.757 1467.6 1464.541 1463.546 1463.165 1462.964 1463.113 1463.211 1462.4 1460.431 1457.934 1452.965 1452.117 1451.46 1450.82 1450.717 1450.713 1451.132 1451.938 1452.944 1453.867 1454.011 1453.595 1454.182 1454.734 1456.263 1458.839 1461.058 1464.251 1466.014 1467.339 1468.551 1470.544 1472.022 1475.129 1479.465 1481.056 1482.431 
1500.467 1498.26 1495.92 1490.253 1487.205 1484.755 1482.988 1480.568 1477.771 1474.625 1471.381 1467.614 1465.848 1464.768 1462.429 1462.077 1461.896 1460.988 1459.785 1458.276 1455.088 1453.939 1452.557 1451.215 1450.63 1450.649 1450.787 1451.254 1452.112 1452.829 1452.751 1451.761 1451.993 1453.167 1455.596 1457.716 1459.429 1462.957 1464.414 1465.367 1465.961 1466.66 1469.218 1475.129 1476.365 1477.543 1478.754 
1504.827 1502.63 1500.445 1495.51 1492.561 1490.382 1488.745 1485.432 1478.239 1475.401 1472.823 1470.326 1467.765 1466.036 1463.009 1462.159 1461.627 1461.09 1460.316 1459.476 1457.463 1455.831 1454.334 1452.824 1451.97 1450.768 1450.707 1450.96 1451.419 1451.939 1452.024 1451.249 1451.58 1452.603 1454.271 1455.614 1457.209 1460.451 1461.969 1462.839 1463.066 1462.805 1469.218 1471.387 1473.387 1474.961 1476.215 
1509.465 1507.196 1505.013 1501.147 1499.159 1496.26 1492.914 1489.419 1480.891 1477.364 1474.21 1471.292 1468.482 1465.643 1463.079 1462.835 1462.525 1462.053 1461.662 1461.157 1459.992 1458.314 1456.677 1454.975 1453.995 1451.243 1450.745 1450.679 1450.802 1451.265 1451.34 1451.311 1452.198 1453.306 1454.46 1455.206 1455.078 1457.023 1458.619 1459.622 1463.066 1462.805 1464.244 1466.103 1469.08 1472.215 1474.343 
1513.381 1511.297 1506.794 1505.073 1503.424 1500.43 1495.982 1491.011 1481.892 1477.894 1474.906 1472.456 1469.736 1466.63 1464.609 1464.686 1464.434 1463.976 1463.726 1463.13 1462.499 1461.377 1459.706 1457.653 1455.842 1451.99 1450.813 1450.634 1450.734 1450.5 1450.57 1451.447 1452.528 1453.334 1453.606 1453.734 1453.356 1453.74 1454.507 1459.622 1460.025 1459.737 1461.52 1462.889 1465.876 1469.936 1472.967 
1516.594 1514.637 1510.783 1508.133 1504.934 1501.126 1496.537 1491.379 1482.596 1478.581 1475.651 1473.98 1472.317 1470.457 1468.006 1467.729 1467.37 1466.824 1466.502 1465.633 1465.135 1464.294 1462.437 1459.812 1457.343 1452.959 1451.452 1450.81 1450.681 1450.589 1450.311 1450.778 1451.615 1451.939 1451.904 1451.672 1451.242 1450.958 1454.507 1455.487 1456.854 1457.371 1459.785 1462.096 1465.261 1468.737 1472.13 
1519.401 1517.083 1512.796 1509.362 1505.16 1500.976 1496.646 1492.017 1483.796 1479.297 1476.027 1474.76 1474.481 1473.103 1471.974 1471.538 1471.217 1470.669 1470.195 1468.402 1467.424 1466.165 1463.787 1461.242 1459.53 1455.723 1453.158 1451.642 1451.019 1450.385 1449.51 1449.642 1449.58 1449.408 1449.258 1448.874 1449.477 1450.958 1451.386 1452.914 1454.275 1454.219 1456.931 1460.619 1463.776 1466.927 1470.271 
1520.343 1517.735 1512.387 1508.602 1504.277 1500.293 1496.826 1493.055 1485.741 1481.587 1478.743 1477.999 1478.187 1477.168 1476.127 1475.531 1475.218 1474.926 1474.563 1472.535 1469.993 1466.732 1463.937 1462.84 1462.333 1459.587 1456.691 1453.659 1451.491 1450.81 1448.871 1448.352 1447.848 1446.8 1445.86 1445.452 1449.477 1449.566 1450.082 1451.593 1452.597 1451.27 1454.098 1457.755 1461.161 1464.25 1467.504 
1519.921 1517.514 1512.044 1508.175 1504.09 1500.312 1496.255 1488.973 1486.436 1484.662 1483.842 1484.029 1484.364 1482.867 1481.874 1481.023 1479.885 1478.445 1477.902 1475.813 1473.136 1470.047 1467.926 1466.793 1465.652 1463.955 1461.268 1457.786 1454.308 1452.389 1450.644 1449.061 1447.791 1447.108 1446.195 1445.452 1447.104 1447.419 1447.902 1449.402 1450.242 1449.968 1452.35 1455.262 1458.319 1461.278 1464.206 
1518.781 1516.415 1511.145 1507.366 1503.476 1499.791 1495.575 1488.302 1486.468 1486.173 1487.588 1489.296 1489.635 1488.227 1487.945 1487.067 1485.324 1482.833 1480.592 1477.134 1474.623 1473.069 1473.078 1472.452 1470.691 1468.247 1465.387 1462.484 1459.195 1456.312 1453.339 1451.684 1450.01 1447.108 1446.195 1444.828 1445.538 1444.951 1444.249 1444.994 1446.279 1448.285 1450.126 1452.479 1455.428 1458.513 1461.192 
1516.102 1513.74 1509.211 1505.492 1501.662 1498.742 1496.046 1490.025 1487.859 1487.709 1490.319 1492.752 1492.779 1491.9 1491.65 1490.233 1488.205 1485.451 1479.993 1477.298 1475.401 1475.401 1476.276 1476.736 1476.478 1473.903 1469.305 1465.371 1462.944 1460.109 1455.736 1453.434 1450.01 1448.108 1446.456 1444.254 1443.763 1441.922 1440.318 1441.097 1442.578 1446.009 1448.007 1450.245 1452.905 1456.014 1458.678 
1512.961 1509.956 1507.98 1504.186 1500.328 1499.215 1498.769 1493.172 1490.339 1490.631 1493.905 1496.46 1496.771 1494.14 1492.352 1490.451 1488.734 1486.753 1481.563 1478.372 1476.975 1477.407 1478.424 1478.877 1477.447 1475.309 1471.36 1467.282 1465.082 1462.346 1457.922 1453.434 1451.197 1449.651 1448.187 1444.578 1443.3 1441.432 1439.498 1439.298 1439.91 1443.325 1445.78 1448.46 1451.42 1454.023 1456.47 
1511.694 1509.488 1508.276 1505.43 1502.306 1502.056 1501.506 1496.138 1494.252 1495.396 1498.839 1500.598 1498.222 1495.916 1493.531 1491.321 1489.478 1487.457 1482.813 1480.302 1478.601 1478.227 1478.419 1477.455 1475.657 1474.121 1471.637 1468.965 1466.19 1463.004 1457.922 1455.369 1452.937 1451.358 1450.387 1447.226 1445.523 1443.985 1441.854 1439.788 1439.298 1441.279 1443.16 1445.34 1448.494 1451.282 1455.515 
1513.316 1510.233 1509.826 1508.675 1505.994 1503.531 1501.505 1498.759 1498.504 1499.322 1501.118 1502.217 1498.471 1495.839 1493.37 1491.042 1489.013 1487.357 1482.246 1480.236 1478.866 1478.17 1476.828 1475.295 1471.62 1470.747 1469.654 1467.742 1466.877 1463.004 1461.532 1459.482 1457 1454.798 1453.385 1451.09 1449.259 1446.522 1443.345 1440.574 1439.322 1439.534 1439.978 1441.39 1444.482 1447.435 1451.48 
1515.53 1512.579 1512.828 1512 1509.369 1505.742 1501.729 1501.14 1501.923 1502.71 1503.04 1502.352 1497.644 1494.435 1491.44 1488.778 1487.236 1485.992 1481.023 1477.867 1476.813 1476.123 1474.914 1469.513 1466.796 1465.159 1465.025 1465.769 1466.877 1465.434 1464.786 1463.68 1461.675 1459.579 1458.027 1454.701 1452.604 1449.725 1446.189 1442.681 1439.083 1438.733 1438.788 1438.957 1440.552 1443.288 1448.307 
1518.441 1515.247 1514.545 1512.842 1510.507 1507.909 1504.014 1504.314 1504.781 1503.883 1503.031 1501.383 1497.577 1494.017 1490.335 1487.849 1486.097 1485.238 1480.063 1476.785 1474.605 1472.334 1469.996 1464.704 1463.083 1462.336 1462.611 1465.769 1466.927 1466.652 1466.029 1465.587 1465.139 1464.334 1462.959 1458.469 1455.574 1452.444 1449.088 1445.734 1441.219 1439.753 1438.967 1438.722 1438.824 1439.962 1445.011 
1521.089 1516.725 1514.871 1512.466 1510.439 1509.648 1508.726 1507.933 1506.39 1503.632 1501.624 1499.885 1497.035 1493.668 1489.683 1487.833 1487.407 1486.471 1483.22 1479.371 1476.985 1473.383 1466.677 1462.704 1462.013 1462.336 1462.611 1463.134 1463.438 1464.908 1465.438 1465.909 1466.239 1466.339 1464.779 1462.331 1458.831 1454.818 1451.17 1448.423 1443.499 1441.036 1439.283 1438.824 1438.749 1438.737 1442.751 
1520.692 1518.663 1515.971 1513.077 1511.891 1512.468 1511.88 1510.31 1508.671 1506.449 1503.014 1500.873 1498.403 1495.612 1492.438 1490.566 1489.208 1487.809 1486.003 1483.051 1479.727 1475.775 1469.134 1462.552 1462.013 1460.889 1460.265 1460.315 1459.197 1460.873 1461.728 1462.545 1463.715 1465.483 1466.529 1465.017 1461.904 1457.664 1453.823 1450.899 1444.564 1441.323 1439.278 1438.816 1438.787 1438.91 1442.329 
1522.186 1520.333 1518.081 1515.898 1515.168 1515.3 1513.457 1512.422 1511.095 1508.383 1505.143 1502.775 1500.428 1498.287 1495.501 1493.123 1491.697 1490.048 1489.102 1486.228 1481.568 1477.738 1472.293 1462.552 1461.298 1459.985 1458.203 1455.634 1454.295 1455.391 1456.792 1458.357 1460.326 1462.867 1465.84 1465.336 1463.128 1459.419 1455.592 1452.487 1444.819 1441.134 1439.324 1438.924 1438.826 1440.405 1441.46 
1523.264 1521.926 1520.843 1519.559 1518.232 1517.027 1515.22 1514.383 1513.167 1510.593 1506.99 1503.101 1501.716 1499.578 1497.179 1494.734 1493.099 1491.041 1489.39 1486.512 1482.252 1478.163 1472.293 1462.626 1460.838 1458.985 1457.164 1454.844 1451.04 1451.279 1452.331 1454.001 1456.382 1459.188 1462.98 1462.691 1461.365 1458.725 1455.254 1452.607 1444.917 1441.015 1439.164 1438.877 1438.834 1439.755 1440.01 
1524.998 1524.424 1523.85 1522.376 1519.875 1517.522 1515.585 1514.503 1512.822 1509.271 1502.865 1501.161 1500.867 1499.615 1497.296 1494.693 1492.901 1490.861 1489.32 1486.624 1482.61 1478.163 1473.842 1464.722 1462.801 1460.932 1458.765 1456.266 1452.16 1451.35 1450.91 1451.184 1452.637 1455.168 1458.842 1458.759 1457.793 1455.917 1453.538 1448.901 1444.947 1440.944 1439.045 1438.86 1438.8 1438.997 1438.963 
1526.786 1526.286 1525.31 1523.54 1521.013 1515.354 1514.115 1512.289 1508.707 1504.094 1500.388 1497.9 1497.029 1496.675 1495.966 1493.584 1490.93 1489.657 1488.479 1485.845 1482.61 1478.558 1471.091 1467.612 1465.43 1463.617 1460.551 1456.681 1453.355 1452.104 1451.29 1450.809 1450.612 1451.996 1454.986 1454.671 1453.704 1452.011 1450.402 1446.943 1444.058 1440.965 1439.264 1439.186 1439.052 1438.781 1438.749 
1527.56 1526.882 1525.729 1523.857 1521.351 1514.396 1511.653 1508.608 1504.259 1500.188 1497.51 1490.371 1490.628 1491.664 1492.302 1491.616 1489.775 1486.485 1484.172 1485.845 1482.276 1479.029 1471.924 1468.69 1466.436 1463.98 1460.459 1456.72 1454.066 1452.647 1451.291 1450.333 1449.89 1451.695 1452.227 1451.946 1451.373 1450.225 1447.547 1444.546 1443.088 1441.435 1439.857 1439.23 1439.001 1438.697 1438.605 
1527.788 1527.295 1526.36 1524.741 1522.445 1515.438 1512.576 1508.886 1503.938 1500.107 1496.552 1487.473 1486.678 1487.673 1488.32 1488.254 1484.5 1486.485 1484.172 1481.719 1479.404 1476.51 1469.632 1466.109 1463.763 1461.193 1456.992 1453.639 1453.247 1452.436 1451.309 1450.293 1449.74 1449.881 1450.029 1449.881 1449.471 1448.286 1445.683 1441.851 1441.152 1440.639 1439.935 1439.229 1438.877 1438.545 1438.419 
1527.601 1527.527 1527.129 1525.63 1523.405 1516.284 1513.187 1509.217 1505.007 1501.744 1497.285 1488.61 1484.519 1481.081 1480.994 1481.398 1484.5 1482.093 1479.229 1476.204 1473.82 1471.075 1464.864 1462.465 1459.225 1455.271 1452.373 1451.13 1451.371 1451.41 1450.98 1450.155 1449.236 1449.194 1448.915 1448.422 1447.716 1446.281 1443.826 1439.856 1439.516 1439.544 1439.39 1438.979 1438.526 1438.331 1438.224 
1527.726 1528.192 1527.295 1526.043 1523.574 1516.077 1512.595 1508.99 1505.295 1501.796 1493.577 1489.906 1484.758 1478.283 1474.911 1481.398 1479.884 1477.556 1474.42 1470.314 1466.478 1464.043 1461.845 1458.919 1455.391 1452.914 1452.004 1450.8 1450.521 1450.404 1450.055 1449.57 1449.282 1448.919 1448.648 1448.289 1447.806 1446.581 1444.531 1440.956 1440.197 1439.652 1439.285 1439.115 1438.572 1438.259 1438 
