NCOLS 41
NROWS 41
XLLCORNER 279557.98
YLLCORNER 3945421.5
CELLSIZE 10
NODATA_VALUE -9999
80.17112 80.17908 80.18998 80.21416 80.22263 80.23267 80.2422 80.2507 80.26672 80.25594 80.26448 80.2728 80.28223 80.2889 80.29799 80.30005 80.30564 80.31101 80.31298 80.33051 80.34669 80.35382 80.36153 80.37701 80.38543 80.39323 80.40895 80.41908 80.42873 80.46056 80.46559 80.47762 80.48935 80.49859 80.50951 80.53987 80.55186 80.56453 80.57795 80.58843 80.6109 
80.18957 80.19767 80.20715 80.22642 80.23495 80.243 80.25122 80.25993 80.26672 80.26793 80.27431 80.28358 80.292 80.30109 80.31027 80.31735 80.32129 80.32394 80.33371 80.34251 80.35537 80.37617 80.38516 80.38819 80.40836 80.41974 80.43077 80.43379 80.44266 80.47022 80.48373 80.49499 80.50245 80.51487 80.53529 80.54993 80.56025 80.57718 80.59586 80.60506 80.63171 
80.20227 80.2107 80.21902 80.23535 80.2435 80.25777 80.27158 80.25993 80.27789 80.28653 80.28805 80.29697 80.31326 80.32068 80.32818 80.33793 80.34249 80.34137 80.34538 80.36395 80.37627 80.39512 80.40405 80.40886 80.43399 80.43536 80.44107 80.45055 80.46039 80.49703 80.508 80.51244 80.51786 80.52982 80.55001 80.56577 80.57765 80.58884 80.60363 80.63462 80.6442 
80.21095 80.21915 80.22964 80.25514 80.26353 80.27299 80.27158 80.28017 80.28874 80.29597 80.30509 80.31372 80.32249 80.33994 80.34126 80.34705 80.35699 80.36204 80.38096 80.38406 80.39716 80.40919 80.41609 80.4292 80.44599 80.4533 80.46074 80.46893 80.48005 80.50748 80.52153 80.5274 80.53211 80.54401 80.57085 80.58177 80.5909 80.60203 80.61538 80.65192 80.66244 
80.23053 80.23862 80.24776 80.26586 80.27428 80.27299 80.2822 80.29073 80.30787 80.30936 80.3138 80.32829 80.34109 80.35007 80.35902 80.36828 80.37245 80.3753 80.39319 80.4021 80.41839 80.42567 80.42985 80.44485 80.46476 80.47546 80.47749 80.48215 80.4963 80.51153 80.53109 80.54635 80.55361 80.56361 80.58416 80.59723 80.60834 80.61787 80.62756 80.65666 80.67262 
80.24182 80.24982 80.25822 80.2833 80.27428 80.283 80.2917 80.30042 80.31793 80.32668 80.33548 80.34412 80.35268 80.37057 80.37222 80.37766 80.38683 80.395 80.41227 80.4202 80.43737 80.44751 80.44855 80.46633 80.4808 80.49158 80.49638 80.50139 80.51022 80.52668 80.54608 80.56439 80.57531 80.58165 80.59849 80.61221 80.62112 80.6321 80.64599 80.66416 80.68071 
80.25478 80.26976 80.2869 80.2833 80.29479 80.30299 80.31182 80.3206 80.33852 80.34042 80.34488 80.35423 80.36341 80.38006 80.38895 80.39861 80.40337 80.40591 80.42141 80.43043 80.45188 80.46654 80.4697 80.48386 80.49061 80.50172 80.51367 80.52103 80.53934 80.54885 80.55927 80.57463 80.592 80.60211 80.61908 80.62498 80.63379 80.64812 80.65952 80.6834 80.69231 
80.27188 80.26976 80.2869 80.29623 80.30507 80.31366 80.32233 80.33958 80.34824 80.35777 80.36077 80.36707 80.38372 80.39302 80.39849 80.40696 80.41594 80.42535 80.43721 80.45033 80.46806 80.48011 80.48653 80.49767 80.508 80.52303 80.53272 80.53568 80.55362 80.56297 80.57018 80.58315 80.60184 80.61633 80.6338 80.64072 80.64901 80.66228 80.6759 80.70265 80.71293 
80.27188 80.28068 80.29782 80.30647 80.31494 80.32358 80.33237 80.34995 80.35874 80.36712 80.37575 80.38496 80.4016 80.41094 80.4137 80.4185 80.42799 80.43645 80.4614 80.47081 80.48462 80.49614 80.49944 80.5135 80.52948 80.54191 80.54707 80.55093 80.56845 80.57826 80.58708 80.59644 80.6122 80.64349 80.64498 80.65738 80.66463 80.6731 80.69701 80.71461 80.72994 
80.28192 80.2901 80.30749 80.3157 80.33047 80.34453 80.35263 80.37018 80.37936 80.38203 80.38481 80.39716 80.41415 80.41991 80.42893 80.438 80.44635 80.45546 80.47492 80.4827 80.49722 80.5104 80.51719 80.52887 80.53821 80.55306 80.56277 80.56555 80.58899 80.59993 80.60339 80.61142 80.62668 80.65432 80.6613 80.67018 80.68361 80.69761 80.71677 80.73248 80.74409 
80.29463 80.31042 80.32773 80.33653 80.34528 80.35399 80.36292 80.3805 80.38861 80.39799 80.4023 80.40708 80.43232 80.43422 80.44016 80.44965 80.45817 80.48309 80.49242 80.49978 80.51395 80.52592 80.53072 80.5492 80.55537 80.56789 80.57774 80.58205 80.6038 80.61926 80.62348 80.6261 80.63891 80.67273 80.68934 80.69471 80.69828 80.7108 80.73583 80.74512 80.74409 
80.31179 80.32079 80.33802 80.34682 80.3549 80.36755 80.38332 80.40068 80.40254 80.40778 80.41687 80.42517 80.44363 80.453 80.46233 80.4697 80.47628 80.49268 80.5042 80.5136 80.52694 80.54266 80.55437 80.56647 80.57799 80.58263 80.58944 80.60402 80.61477 80.62356 80.63605 80.64659 80.6581 80.67735 80.69807 80.71307 80.72304 80.73814 80.73583 80.74512 80.75338 
80.32198 80.3397 80.35618 80.36761 80.37578 80.38436 80.39268 80.40985 80.41892 80.42857 80.43314 80.43752 80.46245 80.47068 80.4798 80.48515 80.48887 80.50627 80.51994 80.53004 80.54267 80.55803 80.56956 80.58627 80.59485 80.597 80.60508 80.61749 80.6317 80.63833 80.6534 80.66546 80.66924 80.70131 80.71364 80.72217 80.73366 80.73814 80.756 80.76485 80.77371 
80.3427 80.35973 80.36829 80.37679 80.38579 80.395 80.41254 80.42136 80.43027 80.43801 80.44567 80.45528 80.47428 80.48297 80.49199 80.49963 80.50597 80.52709 80.53628 80.54387 80.55707 80.57262 80.59031 80.60194 80.60875 80.61578 80.62266 80.64156 80.64543 80.65661 80.67069 80.67873 80.68579 80.7138 80.72405 80.7357 80.73366 80.75163 80.77714 80.78535 80.79413 
80.35238 80.37 80.37887 80.38697 80.40038 80.41529 80.43204 80.44067 80.44997 80.45422 80.45718 80.46793 80.49245 80.50051 80.5098 80.51589 80.51933 80.54253 80.5521 80.5593 80.57193 80.58738 80.60387 80.61705 80.62836 80.63761 80.64311 80.65514 80.66188 80.67027 80.68447 80.69843 80.7156 80.72457 80.73899 80.7357 80.75378 80.76989 80.78721 80.80266 80.81535 
80.36238 80.3888 80.39937 80.40758 80.41597 80.42404 80.44295 80.45216 80.45931 80.46717 80.47657 80.49278 80.50395 80.5141 80.52045 80.5267 80.53601 80.55223 80.56445 80.57493 80.58714 80.60309 80.6203 80.63193 80.64203 80.65006 80.65784 80.66584 80.67935 80.69092 80.69926 80.71251 80.72793 80.7415 80.73899 80.75723 80.77179 80.78854 80.79697 80.81264 80.82491 
80.38321 80.39983 80.40825 80.41764 80.42715 80.43548 80.46112 80.4718 80.47475 80.47948 80.48782 80.50546 80.52026 80.53156 80.5366 80.54115 80.55902 80.56715 80.5793 80.58945 80.60137 80.61772 80.63461 80.64235 80.64991 80.66179 80.67415 80.68274 80.69225 80.70777 80.71678 80.72106 80.74609 80.7415 80.75349 80.76704 80.78175 80.8079 80.81806 80.82645 80.83454 
80.3933 80.41087 80.41908 80.43311 80.44708 80.45513 80.47137 80.47971 80.48878 80.49843 80.50455 80.52573 80.53639 80.5414 80.54802 80.5573 80.57426 80.58734 80.5976 80.60554 80.61539 80.62633 80.64238 80.65598 80.66801 80.68107 80.69498 80.70269 80.71239 80.72201 80.72988 80.74036 80.74609 80.76221 80.77467 80.78229 80.7941 80.81937 80.8354 80.84734 80.85471 
80.41336 80.4306 80.43924 80.4474 80.45541 80.46448 80.48412 80.49282 80.5019 80.50899 80.5159 80.54253 80.55268 80.55737 80.56286 80.57208 80.58965 80.60147 80.61133 80.61919 80.62952 80.65183 80.66644 80.68029 80.68491 80.69186 80.70832 80.72432 80.72644 80.73606 80.75164 80.74036 80.76711 80.77581 80.7845 80.79306 80.80145 80.82814 80.8458 80.85702 80.86478 
80.43142 80.43974 80.44957 80.45927 80.46748 80.47784 80.50262 80.51083 80.51998 80.52525 80.53 80.55694 80.56261 80.56934 80.57857 80.58701 80.60388 80.61696 80.62804 80.6358 80.64722 80.67245 80.68306 80.69248 80.70003 80.70778 80.73474 80.73769 80.74234 80.73606 80.75164 80.75774 80.77501 80.78569 80.79952 80.814 80.8214 80.8567 80.86234 80.86633 80.88025 
80.4429 80.45132 80.46575 80.47851 80.48639 80.50267 80.51109 80.51965 80.52784 80.53844 80.54957 80.57086 80.57867 80.58466 80.59386 80.60265 80.62017 80.63129 80.64112 80.64835 80.66133 80.69386 80.70192 80.71133 80.71561 80.72083 80.74731 80.75454 80.74234 80.75182 80.76121 80.76945 80.79496 80.80654 80.81477 80.82359 80.83207 80.85699 80.87542 80.89398 80.90227 
80.46233 80.47066 80.47853 80.48796 80.49864 80.51611 80.52492 80.53375 80.54189 80.55277 80.56976 80.58557 80.59383 80.59937 80.60828 80.61676 80.63354 80.64636 80.65826 80.66604 80.6771 80.70535 80.71349 80.72225 80.73006 80.73811 80.75659 80.75454 80.76318 80.77238 80.78114 80.79896 80.8157 80.82 80.82878 80.84451 80.85303 80.86951 80.89169 80.90298 80.91002 
80.47318 80.4825 80.49059 80.50288 80.5169 80.53329 80.54174 80.54993 80.56071 80.5726 80.58481 80.60083 80.60952 80.61526 80.62444 80.63326 80.65045 80.66675 80.6752 80.68069 80.69786 80.72401 80.73245 80.74129 80.75013 80.75896 80.75659 80.77292 80.77898 80.78203 80.79147 80.809 80.82529 80.83736 80.84464 80.8567 80.87292 80.88755 80.89783 80.91691 80.93796 
80.49088 80.5013 80.50929 80.51735 80.52518 80.54607 80.55575 80.56353 80.57494 80.58821 80.60013 80.61076 80.62107 80.62956 80.63805 80.65491 80.66306 80.6789 80.691 80.69733 80.7092 80.73555 80.74351 80.75221 80.76087 80.75896 80.77648 80.78545 80.79397 80.80261 80.81157 80.82926 80.84514 80.85788 80.86103 80.86603 80.8926 80.9006 80.9146 80.93119 80.94406 
80.50159 80.50937 80.51994 80.53082 80.53918 80.56242 80.57172 80.58309 80.59228 80.59616 80.61378 80.62688 80.63783 80.64619 80.65502 80.6726 80.68134 80.69115 80.70009 80.71133 80.73652 80.7522 80.76363 80.77185 80.76087 80.76956 80.78664 80.80212 80.8149 80.82375 80.82973 80.8481 80.851 80.86153 80.87653 80.884 80.91045 80.92068 80.92827 80.9364 80.94904 
80.51451 80.52275 80.53537 80.54817 80.55602 80.57217 80.58339 80.59799 80.60775 80.61238 80.63001 80.64124 80.65106 80.65933 80.66785 80.68487 80.69304 80.70624 80.71934 80.72809 80.75409 80.76518 80.77381 80.77185 80.78066 80.7895 80.80671 80.82301 80.83058 80.83282 80.84188 80.86783 80.87171 80.8827 80.89255 80.89636 80.92265 80.9314 80.93962 80.95177 80.96806 
80.53271 80.54053 80.54819 80.55775 80.57873 80.58714 80.6035 80.61343 80.61747 80.62672 80.64349 80.65685 80.66851 80.6768 80.68562 80.70318 80.71075 80.72639 80.73673 80.74038 80.77506 80.78533 80.77381 80.78245 80.79115 80.80848 80.81691 80.83234 80.84566 80.85396 80.86308 80.8711 80.88434 80.89813 80.9068 80.91556 80.94197 80.95152 80.95869 80.96699 80.97506 
80.54099 80.55198 80.56257 80.57296 80.59428 80.60213 80.61795 80.62901 80.63402 80.64305 80.66056 80.67114 80.68085 80.6892 80.69775 80.71459 80.72938 80.74282 80.75074 80.75786 80.77506 80.78533 80.79362 80.80249 80.81116 80.8287 80.83714 80.85239 80.86579 80.87434 80.88239 80.89046 80.89878 80.91212 80.92647 80.93423 80.9601 80.96522 80.96997 80.97892 80.9892 
80.55507 80.56767 80.57944 80.58671 80.60859 80.61768 80.62859 80.63952 80.64804 80.66493 80.67318 80.68679 80.69915 80.70741 80.71619 80.73373 80.7437 80.75233 80.76412 80.75786 80.78519 80.79585 80.80405 80.81221 80.82397 80.84054 80.85486 80.86749 80.87542 80.88423 80.90238 80.91032 80.91957 80.92884 80.93707 80.95472 80.97132 80.98345 80.99199 81.00079 81.00947 
80.57233 80.57921 80.58969 80.60207 80.6232 80.63732 80.64788 80.65601 80.66487 80.68243 80.69116 80.70118 80.71071 80.71913 80.73631 80.74493 80.75355 80.76145 80.76412 80.77895 80.80489 80.81596 80.8242 80.83242 80.844 80.86114 80.87474 80.88745 80.89542 80.90442 80.92166 80.9227 80.93434 80.9481 80.95583 80.97562 80.9901 81.00055 81.00865 81.01716 81.02568 
80.58444 80.59468 80.6053 80.61734 80.63883 80.6515 80.66101 80.6693 80.67783 80.69482 80.70296 80.71666 80.72977 80.73799 80.75559 80.76439 80.77319 80.76145 80.77383 80.78994 80.81512 80.8263 80.83449 80.84274 80.85368 80.88029 80.88856 80.89723 80.90548 80.91699 80.93402 80.94151 80.94917 80.95724 80.96737 80.99229 81.0039 81.01301 81.0217 81.03049 81.0481 
80.60001 80.61088 80.61827 80.62688 80.65292 80.66698 80.6783 80.68664 80.69546 80.71304 80.72176 80.73135 80.74067 80.74918 80.76644 80.7751 80.77319 80.78201 80.79089 80.80877 80.83287 80.84718 80.85472 80.86301 80.87369 80.90007 80.90836 80.91708 80.9257 80.93455 80.95184 80.96067 80.96371 80.97113 80.98698 81.00268 81.01819 81.03069 81.03844 81.04695 81.0639 
80.61175 80.61856 80.62885 80.64433 80.67087 80.68162 80.69131 80.6991 80.7077 80.72478 80.73282 80.74651 80.76042 80.76848 80.78557 80.7751 80.78381 80.79188 80.80351 80.82895 80.84504 80.85686 80.86504 80.87333 80.90059 80.91061 80.91898 80.92784 80.93614 80.94704 80.96479 80.97105 80.98104 80.98985 80.99918 81.01602 81.03129 81.04419 81.05225 81.06107 81.07867 
80.62439 80.63583 80.64478 80.67484 80.68415 80.69121 80.70389 80.7177 80.7261 80.74364 80.75238 80.76163 80.77023 80.78088 80.78557 80.79445 80.80336 80.81221 80.82122 80.83879 80.86243 80.87777 80.88515 80.89367 80.9204 80.93036 80.93858 80.94725 80.95578 80.96461 80.98407 80.99323 81.0003 81.00749 81.01407 81.03436 81.05008 81.06007 81.06823 81.0767 81.09365 
80.63999 80.64976 80.65928 80.68449 80.6992 80.71023 80.71983 80.72984 80.74622 80.75484 80.76288 80.77605 80.7902 80.78088 80.80684 80.81525 80.82407 80.83286 80.84164 80.85901 80.87509 80.88749 80.895 80.90645 80.93217 80.9408 80.94959 80.95844 80.9668 80.99221 81.00191 81.0106 81.01524 81.01923 81.02831 81.05173 81.06434 81.07436 81.08267 81.091 81.10915 
80.65081 80.66095 80.67484 80.70162 80.71386 80.72249 80.72984 80.74094 80.76565 80.77423 80.78234 80.77605 80.7902 80.79879 80.81688 80.82558 80.83435 80.84313 80.85192 80.86897 80.89188 80.90819 80.91548 80.92394 80.95021 80.96053 80.96868 80.9773 80.98578 81.00486 81.01404 81.02245 81.03143 81.04086 81.05849 81.06255 81.07657 81.08987 81.09959 81.11279 81.12468 
80.66763 80.67987 80.69576 80.71442 80.72275 80.73646 80.74953 80.75767 80.77638 80.785 80.78234 80.79606 80.8112 80.82822 80.83702 80.8458 80.85461 80.86343 80.87243 80.88987 80.90533 80.91805 80.92563 80.93646 80.96272 80.97141 80.98017 80.98904 80.99744 81.0218 81.03158 81.04209 81.05315 81.06036 81.07367 81.07742 81.09077 81.10432 81.11424 81.13491 81.13995 
80.68111 80.69208 80.7076 80.73171 80.7424 80.75069 80.76369 80.7788 80.79601 80.785 80.79298 80.8063 80.82156 80.83853 80.84731 80.85609 80.86423 80.87628 80.90113 80.9093 80.92477 80.93769 80.94621 80.95567 80.97994 80.9906 80.99867 81.00707 81.01637 81.03559 81.0436 81.05655 81.06917 81.07554 81.08767 81.09705 81.11242 81.12662 81.13231 81.15042 81.16076 
80.69283 80.70965 80.72602 80.74446 80.75281 80.76627 80.7807 80.78929 80.79601 80.80442 80.81239 80.82584 80.84163 80.85878 80.86755 80.87646 80.88551 80.89426 80.91142 80.91985 80.93519 80.94796 80.9591 80.97442 80.99285 81.00191 81.01052 81.01891 81.02911 81.05634 81.06583 81.07398 81.08234 81.09134 81.10948 81.1133 81.12555 81.14008 81.14655 81.16402 81.1733 
80.71264 80.72852 80.74632 80.76181 80.7731 80.78101 80.79343 80.78929 80.80631 80.82197 80.83458 80.84269 80.85149 80.869 80.87727 80.89204 80.90594 80.91396 80.93121 80.93934 80.95533 80.96991 80.97768 80.99467 81.00954 81.02244 81.03214 81.04067 81.0488 81.07124 81.08149 81.08958 81.09808 81.10657 81.1236 81.1281 81.14074 81.15535 81.16379 81.18202 81.19009 
80.73034 80.74107 80.7655 80.7746 80.78284 80.79614 80.79343 80.80914 80.82657 80.83543 80.84352 80.85612 80.87202 80.88925 80.89799 80.90681 80.91574 80.92451 80.942 80.94981 80.97018 80.98853 80.99583 81.01283 81.02257 81.03691 81.04878 81.05804 81.07862 81.08633 81.0947 81.10387 81.11303 81.12181 81.13934 81.14782 81.16228 81.17725 81.18375 81.19397 81.20869 
