NCOLS 45
NROWS 159
XLLCORNER 616413.99
YLLCORNER 4620195.4
CELLSIZE 10
NODATA_VALUE -9999
1478.769 1478.915 1478.732 1478.234 1477.38 1475.837 1475.543 1475.635 1475.9 1476.029 1476.026 1476.135 1476.668 1477.485 1478.151 1478.771 1478.849 1478.845 1478.806 1478.519 1478.207 1476.748 1474.83 1471.934 1468.1 1462.628 1462.201 1462.182 1462.185 1462.177 1462.238 1465.331 1468.308 1471.668 1474.871 1480.303 1483.126 1485.938 1491.422 1494.438 1497.326 1502.285 1505.157 1508.201 1510.82 
1477.435 1478.115 1477.937 1477.576 1476.885 1475.394 1474.779 1474.798 1474.986 1475.203 1475.251 1475.688 1476.474 1477.206 1477.68 1477.875 1477.681 1477.577 1477.481 1477.4 1477.066 1474.901 1472.696 1469.631 1466.137 1462.158 1462.18 1462.185 1462.185 1462.176 1462.242 1465.479 1468.642 1472.195 1475.665 1481.294 1484.239 1487.027 1492.961 1496.122 1499.203 1502.235 1509.122 1512.395 1514.398 
1476.301 1476.817 1476.847 1476.597 1476.283 1475.057 1474.494 1474.288 1474.237 1474.388 1474.603 1475.447 1476.205 1476.685 1476.989 1476.983 1476.639 1476.328 1476.106 1475.884 1475.413 1472.543 1470.212 1467.448 1464.735 1462.16 1462.185 1462.185 1462.185 1462.176 1462.243 1463.208 1468.929 1472.513 1475.846 1482.059 1485.054 1487.989 1494.539 1497.932 1501.081 1504.43 1511.743 1514.28 1515.754 
1474.987 1475.582 1475.626 1475.473 1475.34 1474.44 1474.013 1473.794 1473.598 1473.734 1473.995 1475.027 1475.648 1476.018 1476.146 1475.888 1475.556 1475.189 1474.774 1474.355 1473.697 1472.656 1468.672 1466.104 1463.895 1462.17 1462.185 1462.185 1462.185 1462.176 1462.244 1463.233 1469.088 1472.764 1476.192 1482.554 1485.666 1488.743 1495.874 1499.463 1502.681 1505.969 1512.961 1515.005 1515.4 
1473.536 1473.884 1474.326 1474.222 1474.012 1473.665 1473.399 1473.101 1473.033 1473.198 1473.398 1473.926 1474.677 1474.877 1475.05 1474.77 1474.424 1473.995 1473.277 1472.702 1471.881 1470.868 1467.525 1465.34 1463.566 1462.172 1462.185 1462.185 1462.187 1462.15 1462.303 1463.358 1469.16 1472.846 1476.31 1482.838 1486.138 1489.406 1496.737 1500.432 1503.672 1506.882 1513.1 1515.078 1515.578 
1471.891 1472.236 1472.642 1472.787 1472.736 1472.606 1472.509 1472.359 1472.497 1472.599 1472.784 1473.128 1473.629 1473.72 1473.767 1473.408 1473.13 1472.685 1471.719 1471.021 1470.231 1469.3 1466.456 1464.713 1463.42 1462.171 1462.185 1462.185 1462.184 1462.196 1462.47 1463.439 1469.166 1472.81 1476.305 1483.079 1486.465 1489.811 1497.032 1500.585 1503.786 1506.958 1512.802 1514.757 1515.396 
1470.24 1470.498 1470.792 1471.072 1471.329 1471.548 1471.617 1471.621 1471.722 1471.906 1472.066 1472.171 1472.471 1472.477 1472.432 1472.017 1471.698 1471.249 1470.142 1469.411 1468.658 1467.955 1465.597 1464.163 1463.239 1462.169 1462.185 1462.185 1462.183 1462.208 1462.508 1463.444 1469.105 1472.807 1476.331 1483.079 1486.442 1489.804 1493.22 1500.062 1503.221 1506.321 1512.148 1514.183 1515.069 
1468.492 1468.659 1469.267 1469.73 1469.995 1470.498 1470.725 1470.889 1471.12 1471.15 1471.25 1471.345 1471.384 1471.314 1471.191 1470.608 1470.229 1469.779 1468.683 1468.056 1467.419 1466.689 1464.849 1463.977 1463.124 1462.272 1462.186 1462.185 1462.185 1462.24 1462.57 1463.343 1468.876 1472.707 1476.312 1482.898 1486.157 1489.38 1492.706 1499.103 1502.135 1505.337 1511.354 1513.572 1514.807 
1466.913 1467.025 1467.811 1468.257 1468.824 1469.516 1469.845 1470.156 1470.406 1470.404 1470.419 1470.436 1470.35 1470.241 1469.956 1469.404 1468.943 1468.489 1467.973 1466.893 1466.273 1465.588 1464.131 1463.673 1463.002 1462.284 1462.185 1462.185 1462.185 1462.257 1462.624 1463.337 1468.562 1472.385 1476.122 1482.586 1485.829 1488.996 1492.037 1498.028 1500.956 1504.096 1510.232 1512.621 1514.334 
1465.125 1465.382 1466.697 1467.292 1467.921 1468.889 1469.107 1469.34 1469.52 1469.611 1469.684 1469.628 1469.359 1469.21 1468.99 1468.225 1467.8 1467.415 1466.906 1465.754 1465.192 1464.486 1463.698 1463.28 1462.786 1462.215 1462.199 1462.252 1462.193 1462.291 1462.541 1463.249 1468.046 1471.884 1475.544 1481.977 1485.301 1488.496 1491.308 1496.924 1499.714 1502.607 1508.694 1511.168 1513.06 
1464.039 1464.434 1465.737 1466.645 1467.249 1468.166 1468.487 1468.638 1468.798 1468.969 1468.961 1468.897 1468.592 1468.352 1468.054 1467.261 1466.838 1466.469 1466.025 1464.814 1464.249 1463.913 1463.212 1462.884 1462.563 1462.217 1462.205 1462.282 1462.27 1462.365 1462.651 1463.111 1467.399 1471.172 1474.712 1481.25 1484.598 1487.742 1490.539 1495.687 1498.361 1500.971 1506.704 1509.378 1511.585 
1464.039 1463.917 1465.469 1466.251 1466.774 1467.551 1467.898 1468.109 1468.2 1468.35 1468.329 1468.184 1467.795 1467.618 1467.32 1466.581 1466.052 1465.628 1465.257 1464.186 1463.869 1463.431 1462.762 1462.564 1462.256 1462.193 1462.219 1462.282 1462.289 1462.455 1462.698 1463.026 1466.776 1470.507 1474.03 1477.371 1483.609 1486.706 1489.511 1494.384 1496.827 1499.199 1504.527 1507.328 1509.734 
1463.523 1463.917 1465.469 1465.854 1466.363 1467.01 1467.263 1467.401 1467.48 1467.629 1467.598 1467.459 1467.127 1466.929 1466.775 1466.057 1465.58 1464.987 1464.598 1463.815 1463.355 1462.893 1462.388 1462.192 1462.11 1462.1 1462.136 1462.205 1462.199 1462.525 1462.77 1462.941 1466.102 1469.649 1473.198 1476.466 1482.441 1485.407 1488.148 1492.954 1495.227 1497.496 1502.313 1504.934 1507.452 
1463.264 1463.747 1465.064 1465.854 1466.363 1466.55 1466.741 1466.868 1466.875 1466.963 1466.89 1466.827 1466.62 1466.39 1466.15 1465.795 1464.89 1464.465 1464.166 1463.236 1462.765 1462.532 1462.1 1462.059 1461.915 1461.978 1462.021 1462.102 1462.167 1462.539 1462.842 1463.106 1465.371 1468.541 1472.015 1475.177 1481.02 1483.891 1486.606 1491.409 1493.49 1495.685 1500.105 1502.443 1504.935 
1463.008 1463.552 1464.748 1465.43 1465.874 1466.271 1466.084 1466.134 1466.134 1466.191 1466.262 1466.199 1466.043 1465.819 1465.431 1465.053 1464.233 1463.922 1463.472 1462.618 1462.342 1462.117 1461.833 1461.82 1461.879 1461.808 1462.026 1462.102 1462.177 1462.439 1462.775 1463.08 1464.855 1467.5 1470.654 1473.719 1479.471 1482.22 1484.882 1489.583 1491.708 1493.873 1498.152 1500.254 1502.529 
1462.776 1463.316 1464.435 1465.011 1465.474 1465.775 1466.084 1466.134 1465.315 1465.358 1465.441 1465.461 1465.307 1465.117 1464.795 1464.353 1463.806 1463.377 1462.851 1462.192 1461.979 1461.979 1461.718 1461.793 1461.794 1461.861 1461.996 1462.004 1462.072 1462.467 1462.645 1462.889 1464.317 1466.447 1469.425 1472.335 1478.004 1480.578 1483.104 1487.584 1489.681 1491.867 1494.066 1498.168 1500.211 
1462.331 1462.875 1463.979 1464.519 1465.017 1465.194 1465.429 1465.403 1465.315 1465.358 1464.635 1464.733 1464.647 1464.49 1464.18 1463.965 1463.209 1462.766 1462.399 1461.868 1461.725 1461.593 1461.63 1461.635 1461.787 1461.801 1461.889 1461.923 1462.147 1462.471 1462.638 1462.871 1463.158 1465.369 1468.33 1471.082 1476.598 1479.025 1481.321 1485.691 1487.691 1489.837 1491.93 1496.001 1497.998 
1461.797 1462.342 1463.49 1463.965 1464.381 1464.583 1464.706 1464.676 1464.524 1464.542 1464.635 1464.733 1463.978 1463.786 1463.414 1463.098 1462.488 1462.13 1461.854 1461.437 1461.377 1461.457 1461.394 1461.494 1461.478 1461.406 1461.724 1461.942 1462.09 1462.421 1462.648 1462.878 1463.167 1464.678 1467.165 1469.81 1475.112 1477.517 1479.68 1483.88 1485.797 1487.663 1489.574 1493.753 1495.805 
1461.095 1461.674 1462.22 1463.246 1463.586 1463.824 1463.913 1463.891 1463.767 1463.747 1463.827 1463.981 1464.01 1462.651 1462.425 1462.061 1461.514 1461.228 1461.185 1461.021 1461.014 1460.946 1460.95 1460.859 1460.86 1460.793 1460.879 1461.2 1461.667 1462.396 1462.686 1462.979 1463.287 1464.237 1465.975 1468.526 1473.667 1476.035 1478.246 1482.161 1483.96 1485.676 1487.348 1491.31 1493.572 
1460.122 1460.701 1461.263 1462.189 1462.478 1462.67 1462.818 1462.833 1462.768 1462.775 1462.936 1462.988 1462.918 1462.651 1462.425 1461.056 1460.546 1460.473 1460.489 1460.472 1460.427 1460.432 1460.36 1460.325 1460.261 1460.266 1460.33 1460.557 1460.964 1462.05 1462.604 1463.097 1463.338 1463.813 1464.618 1467.129 1472.174 1474.579 1476.88 1480.405 1482.017 1483.673 1485.31 1488.879 1491.004 
1459.024 1459.459 1460.009 1460.908 1461.21 1461.439 1461.576 1461.604 1461.589 1461.649 1461.713 1461.723 1461.6 1461.471 1461.319 1461.056 1460.546 1460.137 1460.14 1460.149 1460.159 1460.151 1460.092 1460.085 1460.085 1460.085 1460.104 1460.218 1460.467 1461.427 1462.056 1462.736 1463.207 1463.714 1464.028 1465.836 1470.6 1472.967 1475.063 1476.97 1480.169 1481.749 1483.323 1486.76 1488.829 
1457.852 1458.293 1458.777 1459.53 1459.82 1459.984 1460.262 1460.269 1460.34 1460.391 1460.456 1460.518 1460.502 1460.498 1460.438 1460.336 1460.165 1460.137 1460.14 1460.09 1460.088 1460.089 1460.102 1460.104 1460.108 1460.104 1460.086 1460.093 1460.173 1460.375 1461.219 1461.952 1462.663 1463.545 1463.852 1464.558 1468.825 1470.961 1473.057 1474.898 1478.17 1479.644 1481.145 1484.614 1486.486 
1456.678 1457.078 1457.47 1458.129 1458.434 1458.631 1458.927 1459.067 1459.114 1459.246 1459.394 1459.445 1459.555 1459.704 1459.755 1459.766 1459.975 1460.073 1460.092 1460.092 1460.235 1460.255 1460.331 1460.389 1460.459 1460.458 1460.26 1460.164 1460.089 1460.079 1460.523 1461.022 1461.641 1463.1 1463.572 1464.056 1467.007 1469.041 1470.848 1472.664 1475.935 1477.536 1478.899 1482.048 1483.916 
1455.486 1455.791 1456.183 1456.827 1457.114 1457.366 1457.533 1457.657 1457.893 1457.924 1458.167 1458.362 1458.626 1459.24 1459.489 1459.562 1459.776 1460.046 1460.225 1460.251 1460.235 1460.255 1460.82 1460.969 1461.047 1461.087 1460.486 1460.253 1460.1 1460.076 1460.209 1460.404 1460.855 1462.359 1463.026 1463.548 1465.151 1467.116 1468.892 1470.49 1473.488 1474.829 1476.101 1479.089 1480.93 
1454.207 1454.608 1455.004 1455.683 1455.883 1456.09 1456.129 1456.151 1456.453 1456.842 1457.041 1457.272 1457.767 1458.652 1459.1 1459.465 1459.736 1460.094 1460.416 1460.55 1460.63 1460.726 1460.82 1460.969 1461.829 1461.718 1461.053 1460.656 1460.343 1460.141 1460.094 1460.192 1460.408 1461.419 1462.098 1462.645 1463.975 1465.141 1466.764 1468.276 1470.891 1472.151 1473.344 1476.098 1477.741 
1453.15 1453.663 1454.06 1454.615 1454.708 1454.839 1454.724 1454.664 1454.91 1455.786 1456.439 1456.566 1456.938 1458.11 1458.71 1459.22 1459.801 1460.162 1460.544 1460.834 1461.202 1461.404 1461.639 1461.792 1461.829 1462.351 1461.833 1461.416 1460.987 1460.549 1460.067 1460.08 1460.148 1460.788 1461.286 1461.829 1462.311 1463.279 1464.422 1465.919 1468.251 1469.385 1470.584 1473.195 1474.706 
1452.398 1452.927 1453.335 1453.546 1453.407 1453.369 1453.532 1453.7 1453.904 1454.38 1456.319 1456.266 1456.452 1457.947 1458.631 1459.241 1460.012 1460.418 1460.799 1461.213 1461.838 1462.136 1462.339 1462.4 1462.432 1462.351 1462.163 1462.408 1461.828 1461.161 1460.206 1460.078 1460.073 1460.417 1460.753 1461.121 1461.427 1462.276 1462.732 1463.58 1465.508 1466.693 1467.742 1470.342 1471.841 
1451.93 1452.244 1452.557 1452.397 1452.197 1452.102 1452.642 1453.046 1453.349 1453.454 1455.671 1456.432 1456.631 1458.028 1458.721 1459.324 1459.867 1460.755 1461.194 1461.678 1462.579 1462.854 1463.007 1463.083 1463.05 1463.034 1462.997 1462.408 1461.828 1462.084 1460.526 1460.178 1460.084 1460.25 1460.396 1460.536 1460.675 1461.155 1461.588 1462.126 1463.091 1463.846 1464.67 1467.278 1468.777 
1451.809 1451.861 1451.928 1451.816 1451.766 1451.744 1451.816 1452.479 1452.997 1453.384 1454.511 1456.009 1456.881 1458.282 1459.027 1459.637 1460.243 1461.151 1461.703 1462.215 1463.209 1463.582 1463.825 1463.749 1463.649 1463.564 1463.545 1463.272 1462.86 1462.084 1460.526 1460.493 1460.139 1460.109 1460.187 1460.245 1460.241 1460.385 1460.548 1460.767 1461.483 1462.127 1462.911 1464.382 1465.69 
1451.653 1451.687 1451.73 1451.786 1451.786 1451.786 1451.781 1452.035 1452.637 1453.348 1454.823 1455.789 1457.201 1458.964 1459.596 1460.126 1460.624 1461.542 1462.079 1462.564 1463.675 1464.127 1464.391 1464.206 1464.142 1464.083 1464.016 1463.942 1463.813 1463.2 1461.233 1460.493 1460.527 1460.095 1460.092 1460.079 1460.077 1460.099 1460.15 1460.143 1460.622 1461.087 1461.714 1462.348 1463.559 
1451.333 1451.231 1451.392 1451.774 1451.786 1451.786 1451.783 1452.027 1452.696 1453.665 1455.738 1456.873 1458.006 1459.66 1460.141 1460.546 1461.006 1461.835 1462.349 1462.832 1463.798 1464.261 1464.462 1464.274 1464.205 1464.219 1464.228 1464.247 1464.216 1464.012 1462.362 1461.276 1460.527 1460.184 1460.375 1460.257 1460.149 1460.097 1460.084 1460.077 1460.26 1460.576 1461.013 1461.258 1462.156 
1451.059 1450.993 1451.126 1451.73 1451.787 1451.775 1451.771 1452.512 1453.42 1454.632 1457.06 1458.114 1458.976 1460.117 1460.586 1461.001 1461.391 1462.12 1462.538 1462.875 1463.738 1464.114 1464.332 1464.501 1464.413 1464.408 1464.379 1464.313 1464.209 1464.218 1463.38 1462.288 1461.323 1460.81 1460.375 1460.257 1460.728 1460.331 1460.212 1460.103 1460.15 1460.289 1460.458 1460.837 1461.306 
1451.009 1451.002 1450.962 1451.72 1451.783 1451.828 1452.172 1453.66 1454.812 1456.181 1458.459 1459.226 1459.903 1460.41 1461.193 1461.562 1461.778 1462.425 1462.687 1462.994 1463.736 1464.053 1464.314 1464.589 1464.807 1464.812 1464.756 1464.562 1464.349 1464.272 1464.034 1463.463 1462.82 1462.261 1461.374 1461.026 1460.728 1460.331 1460.596 1460.253 1460.065 1460.104 1460.261 1460.476 1460.869 
1451.156 1451.372 1451.543 1451.707 1451.841 1452.319 1453.108 1455.247 1456.589 1457.789 1459.717 1460.435 1461.075 1461.509 1461.954 1462.114 1462.28 1462.664 1462.821 1463.099 1463.824 1464.118 1464.435 1464.792 1464.979 1465.082 1465.057 1464.794 1464.685 1464.579 1464.212 1464.139 1463.974 1463.685 1462.916 1462.518 1462.031 1461.081 1460.596 1460.598 1460.129 1460.083 1460.088 1460.21 1460.654 
1451.424 1451.608 1451.765 1451.738 1452.373 1453.281 1454.384 1456.672 1457.835 1458.972 1461.261 1462.372 1463.086 1463.454 1463.286 1462.809 1462.743 1462.918 1463.082 1463.276 1463.933 1464.241 1464.594 1464.993 1465.153 1465.233 1465.213 1465.065 1464.936 1464.705 1464.178 1464.174 1464.108 1464.073 1463.994 1463.806 1463.469 1462.196 1461.25 1460.598 1460.279 1460.083 1460.1 1460.151 1460.337 
1451.698 1451.715 1451.722 1452.057 1453.538 1454.672 1455.694 1457.807 1458.775 1459.879 1462.391 1463.561 1464.274 1464.461 1464.111 1463.773 1463.225 1463.211 1463.328 1463.427 1463.99 1464.377 1464.812 1465.213 1465.379 1465.385 1465.477 1465.278 1465.098 1464.753 1464.292 1464.149 1464.109 1464.145 1464.172 1464.233 1464.137 1463.381 1462.421 1461.127 1460.555 1460.083 1460.1 1460.099 1460.118 
1451.911 1452.216 1452.702 1453.25 1455.114 1456.052 1456.966 1458.731 1459.604 1460.565 1462.905 1463.911 1464.41 1464.569 1464.274 1464.193 1463.974 1463.429 1463.439 1463.648 1463.815 1464.56 1465.026 1465.376 1465.612 1465.635 1465.631 1465.481 1465.358 1465.046 1464.535 1464.349 1464.326 1464.311 1464.184 1464.186 1464.19 1463.863 1463.135 1461.929 1461.146 1460.324 1460.206 1460.099 1460.118 
1453.001 1453.427 1454.062 1454.867 1456.454 1457.32 1458.23 1459.591 1460.413 1461.282 1462.16 1463.936 1464.452 1464.581 1464.415 1464.174 1464.132 1463.895 1463.901 1463.845 1464.016 1464.8 1465.162 1465.518 1465.839 1465.882 1465.837 1465.806 1465.675 1465.422 1465.11 1464.798 1464.647 1464.31 1464.186 1464.183 1464.141 1463.713 1463.203 1462.585 1461.996 1460.852 1460.425 1460.164 1460.084 
1453.652 1454.841 1455.514 1456.189 1457.758 1458.646 1459.404 1460.711 1461.353 1462.026 1462.861 1464.334 1464.744 1464.698 1464.382 1464.171 1464.15 1464.231 1464.272 1464.089 1464.161 1465.129 1465.449 1465.792 1466.1 1466.128 1466.096 1466.089 1465.942 1465.775 1465.52 1465.059 1464.769 1464.276 1464.192 1464.111 1463.888 1463.555 1463.32 1463.103 1462.723 1461.57 1460.956 1460.567 1460.095 
1454.908 1456.022 1456.784 1457.526 1459.061 1459.915 1460.766 1462.126 1462.359 1462.844 1463.565 1464.476 1464.669 1464.733 1464.332 1464.178 1464.175 1464.414 1464.485 1464.189 1464.25 1465.438 1465.88 1466.132 1466.406 1466.505 1466.36 1466.296 1466.212 1466.082 1465.783 1465.183 1464.787 1464.274 1464.132 1463.941 1463.678 1463.554 1463.393 1463.324 1463.229 1462.744 1462.117 1461.388 1460.384 
1456.079 1457.308 1458.168 1459.065 1460.616 1461.111 1461.586 1463.838 1463.965 1463.791 1464.18 1464.435 1464.315 1464.269 1464.52 1464.481 1464.46 1464.881 1465.008 1464.973 1465.165 1465.806 1466.231 1466.454 1466.697 1466.736 1466.667 1466.574 1466.492 1466.264 1465.923 1464.947 1464.429 1464.213 1464.024 1463.753 1463.685 1463.555 1463.481 1463.542 1463.767 1463.969 1463.614 1462.84 1461.151 
1457.202 1458.458 1459.326 1460.312 1462.758 1463.004 1462.65 1464.105 1464.451 1464.542 1464.711 1464.458 1464.26 1464.183 1464.454 1464.728 1464.972 1465.191 1465.708 1465.823 1465.938 1466.249 1466.483 1466.715 1466.934 1466.975 1466.892 1466.79 1466.828 1466.511 1466.151 1464.344 1464.133 1464.136 1463.87 1463.645 1463.632 1463.604 1463.64 1463.956 1464.277 1464.922 1464.951 1464.707 1462.498 
1458.137 1459.328 1460.276 1461.269 1463.669 1464.335 1464.146 1463.657 1464.459 1464.789 1464.961 1464.583 1464.254 1464.181 1464.529 1464.962 1465.245 1465.53 1466.023 1466.203 1466.224 1466.398 1466.518 1466.707 1466.981 1467.124 1467.229 1467.234 1467.26 1466.979 1466.466 1464.246 1464.151 1464.035 1463.777 1463.666 1463.625 1463.567 1463.885 1464.183 1464.798 1465.9 1466.116 1466.058 1463.852 
1458.96 1460.055 1460.788 1461.701 1463.778 1464.373 1464.382 1464.21 1464.564 1464.98 1464.997 1464.578 1464.25 1464.182 1464.512 1464.985 1465.449 1465.826 1466.432 1466.611 1466.542 1466.546 1466.58 1466.652 1467.058 1467.357 1467.603 1467.841 1467.748 1467.615 1466.979 1464.596 1464.088 1463.964 1463.74 1463.646 1463.622 1463.679 1464.154 1464.658 1465.82 1466.867 1467.021 1466.732 1465.088 
1459.599 1460.659 1461.272 1461.946 1463.65 1464.334 1464.591 1464.673 1464.983 1465.201 1465.282 1464.733 1464.209 1464.163 1464.149 1464.62 1465.645 1466.145 1466.594 1466.66 1466.646 1466.637 1466.479 1466.271 1466.72 1467.332 1467.89 1468.253 1468.729 1468.577 1468.012 1465.081 1464.183 1464.053 1463.887 1463.677 1463.677 1463.913 1464.713 1465.769 1467.065 1468.43 1468.634 1468.394 1467.65 
1460.332 1461.182 1461.646 1462.174 1463.536 1464.255 1464.583 1464.749 1465.213 1465.185 1465.185 1465.186 1464.847 1464.475 1464.443 1464.945 1465.959 1466.528 1466.954 1467.011 1467.009 1466.532 1465.849 1464.68 1464.494 1465.656 1467.726 1468.834 1469.836 1470.114 1469.791 1466.84 1465.053 1464.249 1464.259 1464.447 1464.457 1464.606 1465.753 1467.023 1468.485 1471.025 1471.809 1471.498 1470.258 
1460.928 1461.454 1461.873 1462.377 1463.383 1463.992 1464.313 1464.785 1465.018 1465.1 1465.176 1465.242 1465.242 1465.082 1465.111 1465.607 1466.473 1467.032 1467.539 1467.499 1467.42 1466.534 1465.489 1464.239 1464.071 1465.214 1466.97 1468.951 1471.183 1471.974 1472.691 1470.799 1468.167 1466.731 1466.405 1466.165 1466.103 1466.325 1467.443 1468.733 1470.272 1473.77 1475.272 1475.088 1473.063 
1460.928 1462.035 1462.246 1462.534 1462.902 1463.666 1464.198 1464.578 1465.109 1465.08 1465.083 1465.189 1465.165 1465.198 1465.542 1466.501 1467.107 1467.568 1468.013 1468.102 1468.005 1466.158 1464.474 1464.181 1464.179 1466.046 1467.549 1469.255 1472.256 1473.698 1474.86 1475.293 1473.59 1471.497 1469.866 1468.712 1468.605 1468.739 1469.724 1470.609 1471.589 1474.949 1476.542 1476.393 1474.526 
1461.37 1462.035 1462.849 1463.051 1463.28 1463.641 1463.982 1464.221 1464.952 1465.006 1465.08 1464.843 1464.801 1465.073 1465.445 1466.783 1467.456 1468.058 1468.891 1468.936 1468.967 1467.466 1466.005 1464.507 1464.015 1466.862 1468.362 1469.932 1472.625 1473.977 1475.448 1476.709 1475.872 1474.137 1472.988 1471.34 1471.1 1471.141 1471.837 1472.323 1472.949 1473.819 1476.631 1476.35 1474.937 
1462.005 1462.614 1462.849 1463.051 1463.761 1463.726 1463.95 1464.342 1464.962 1465.022 1465.074 1464.447 1464.175 1464.195 1464.573 1466.942 1467.82 1468.654 1469.902 1470.131 1470.088 1469.234 1467.711 1465.966 1466.111 1468.211 1470.006 1471.088 1473.098 1474.313 1475.698 1476.464 1476.406 1475.412 1474.509 1473.419 1473.682 1473.782 1473.63 1474.156 1475.089 1475.649 1476.723 1476.496 1475.606 
1462.61 1463.46 1463.851 1463.936 1463.761 1463.726 1464.201 1464.586 1465.097 1465.107 1464.991 1464.352 1464.178 1464.208 1464.525 1466.915 1468.172 1469.173 1471.246 1471.758 1471.907 1471.706 1470.407 1469.901 1470.107 1471.448 1472.129 1472.725 1473.537 1474.252 1475.669 1476.398 1476.526 1476.269 1475.432 1475.36 1476.012 1476.066 1474.841 1475.377 1476.311 1476.518 1476.567 1476.531 1475.979 
1463.096 1463.929 1464.246 1464.334 1464.283 1463.743 1464.201 1464.586 1465.401 1465.307 1465.129 1464.838 1464.176 1464.206 1464.489 1466.863 1468.502 1469.963 1472.43 1473.183 1473.568 1473.659 1473.257 1473.664 1474.016 1474.224 1474.717 1474.579 1474.174 1474.428 1475.492 1476.323 1476.581 1476.41 1475.858 1476.297 1476.542 1476.452 1475.401 1476.014 1476.559 1476.606 1476.104 1475.526 1475.068 
1463.581 1463.975 1464.33 1464.258 1464.179 1464.189 1464.566 1464.961 1465.401 1465.629 1465.463 1465.171 1464.164 1464.277 1464.979 1467.285 1468.959 1470.411 1473.522 1474.95 1475.801 1475.712 1474.906 1474.772 1475.134 1476.352 1476.409 1476.191 1474.896 1475.063 1475.661 1476.34 1476.593 1476.54 1476.394 1476.478 1476.483 1476.384 1476.098 1476.391 1476.587 1476.553 1475.664 1474.74 1474.236 
1464.149 1464.355 1464.302 1464.161 1464.089 1464.611 1465.104 1465.548 1465.815 1465.629 1465.463 1465.518 1464.052 1464.372 1465.52 1468.238 1469.648 1471.164 1474.157 1475.551 1476.41 1476.615 1476.273 1475.914 1476.205 1476.609 1476.586 1476.477 1476.035 1476.153 1476.068 1476.4 1476.621 1476.677 1476.674 1476.529 1476.47 1476.383 1476.216 1476.452 1476.593 1476.593 1475.581 1474.78 1474.184 
1464.548 1464.686 1464.324 1464.185 1464.252 1465.053 1465.503 1465.868 1466.148 1466.056 1465.876 1465.518 1464.052 1465.097 1466.136 1469.184 1470.583 1471.932 1474.729 1475.927 1476.497 1476.599 1476.526 1476.583 1476.502 1476.557 1476.464 1476.392 1476.372 1476.379 1476.366 1476.38 1476.645 1476.674 1476.603 1476.602 1476.456 1476.385 1476.348 1476.508 1476.582 1476.583 1475.844 1475.043 1474.421 
1464.967 1465.073 1464.834 1464.582 1464.768 1465.48 1465.926 1466.29 1466.484 1466.498 1466.324 1465.99 1464.571 1465.097 1467.859 1470.227 1471.44 1472.67 1473.724 1475.54 1476.362 1476.576 1476.584 1476.606 1476.68 1476.486 1476.384 1476.384 1476.386 1476.386 1476.385 1476.387 1476.574 1476.696 1476.688 1476.605 1476.452 1476.389 1476.385 1476.523 1476.583 1476.584 1476.088 1475.449 1474.879 
1465.302 1465.501 1465.453 1465.454 1465.479 1465.993 1466.361 1466.707 1466.886 1467.064 1466.975 1466.817 1466.414 1466.542 1467.859 1470.227 1472.485 1473.349 1474.192 1475.4 1475.941 1476.392 1476.631 1476.675 1476.593 1476.43 1476.385 1476.385 1476.386 1476.386 1476.385 1476.387 1476.534 1476.595 1476.595 1476.549 1476.455 1476.39 1476.385 1476.524 1476.583 1476.588 1476.24 1475.729 1475.315 
1465.537 1465.734 1465.902 1465.978 1466.059 1466.542 1466.867 1467.124 1467.3 1467.7 1467.753 1467.855 1468.17 1468.731 1469.559 1471.507 1472.485 1473.349 1475.104 1476.141 1476.251 1476.279 1476.523 1476.58 1476.58 1476.427 1476.385 1476.386 1476.386 1476.386 1476.385 1476.388 1476.535 1476.585 1476.586 1476.543 1476.454 1476.39 1476.385 1476.531 1476.577 1476.514 1476.304 1475.836 1475.537 
1465.854 1466.04 1466.292 1466.456 1466.66 1467.015 1467.341 1467.582 1467.81 1468.286 1468.562 1468.773 1469.662 1470.221 1470.871 1472.58 1473.349 1474.16 1475.104 1476.141 1476.484 1476.407 1476.415 1476.477 1476.478 1476.384 1476.392 1476.391 1476.39 1476.385 1476.386 1476.386 1476.471 1476.585 1476.586 1476.584 1476.449 1476.389 1476.386 1476.534 1476.577 1476.5 1476.203 1475.964 1476.075 
1466.171 1466.363 1466.685 1466.878 1467.058 1467.536 1467.753 1468.062 1468.326 1468.866 1469.273 1469.717 1470.794 1471.351 1471.959 1473.475 1474.096 1474.741 1475.676 1476.496 1476.484 1476.412 1476.384 1476.402 1476.48 1476.503 1476.485 1476.486 1476.486 1476.384 1476.386 1476.384 1476.521 1476.698 1476.694 1476.771 1476.509 1476.391 1476.385 1476.532 1476.577 1476.499 1476.209 1476.104 1476.353 
1466.424 1466.565 1466.993 1467.198 1467.475 1467.945 1468.174 1468.514 1468.785 1469.516 1469.949 1470.489 1471.596 1472.213 1472.822 1473.491 1474.787 1475.492 1476.16 1476.488 1476.474 1476.412 1476.384 1476.402 1476.485 1476.588 1476.495 1476.485 1476.48 1476.384 1476.385 1476.389 1476.58 1476.719 1476.788 1476.795 1476.613 1476.474 1476.467 1476.591 1476.573 1476.494 1476.314 1476.287 1476.382 
1466.577 1466.774 1467.283 1467.518 1467.783 1468.043 1468.666 1469.004 1469.29 1470.094 1470.608 1471.144 1472.288 1472.911 1473.546 1474.19 1475.192 1475.875 1476.431 1476.456 1476.471 1476.492 1476.382 1476.402 1476.485 1476.656 1476.64 1476.483 1476.398 1476.386 1476.385 1476.389 1476.583 1476.749 1476.894 1476.979 1476.924 1476.781 1476.776 1476.706 1476.56 1476.488 1476.32 1476.301 1476.379 
1466.692 1466.92 1467.51 1467.775 1468.038 1468.34 1469.025 1469.37 1469.759 1470.603 1471.112 1471.615 1472.839 1473.486 1474.171 1474.755 1475.777 1476.267 1476.447 1476.382 1476.401 1476.476 1476.39 1476.422 1476.525 1476.656 1476.64 1476.629 1476.547 1476.399 1476.399 1476.404 1476.766 1476.944 1477.002 1477.078 1477.057 1476.994 1476.989 1476.74 1476.643 1476.493 1476.377 1476.381 1476.385 
1466.744 1467.019 1467.694 1468.018 1468.367 1468.663 1469.35 1469.731 1470.103 1471.151 1471.589 1472.039 1473.185 1473.819 1474.56 1475.308 1476.312 1476.516 1476.414 1476.36 1476.404 1476.477 1476.506 1476.582 1476.699 1476.708 1476.687 1476.629 1476.853 1476.628 1476.631 1476.635 1476.766 1477.119 1477.115 1477.181 1477.198 1477.183 1477.103 1476.849 1476.722 1476.495 1476.398 1476.386 1476.386 
1466.772 1467.13 1467.84 1468.161 1468.552 1468.961 1469.72 1470.11 1470.531 1471.439 1471.914 1472.419 1473.396 1473.98 1474.708 1475.404 1476.485 1476.464 1476.32 1476.33 1476.41 1476.456 1476.472 1476.687 1476.694 1476.793 1476.848 1476.907 1476.853 1476.628 1476.937 1476.969 1477.103 1477.246 1477.308 1477.311 1477.26 1477.195 1477.189 1477.018 1476.791 1476.493 1476.393 1476.386 1476.386 
1466.732 1467.176 1467.996 1468.372 1468.79 1469.145 1470.04 1470.423 1470.888 1471.683 1472.151 1472.614 1473.082 1473.978 1474.516 1474.978 1476.1 1476.054 1475.935 1476.224 1476.307 1476.35 1476.427 1476.592 1476.726 1476.869 1476.907 1476.923 1477.009 1476.933 1476.937 1476.969 1477.416 1477.408 1477.428 1477.499 1477.413 1477.371 1477.217 1477.076 1476.78 1476.49 1476.393 1476.381 1476.399 
1466.648 1467.095 1467.557 1468.471 1468.977 1469.38 1470.342 1470.807 1471.21 1472.086 1472.525 1472.891 1473.264 1474.034 1474.402 1474.706 1475.258 1475.437 1475.571 1475.901 1476.05 1476.239 1476.353 1476.573 1476.802 1476.875 1477.005 1477.032 1477.107 1477.137 1477.2 1477.349 1477.416 1477.408 1477.629 1477.611 1477.572 1477.485 1477.421 1477.171 1476.891 1476.591 1476.417 1476.423 1476.494 
1466.58 1467.151 1467.605 1468.633 1469.16 1469.623 1470.627 1471.098 1471.531 1472.422 1472.818 1473.192 1473.498 1474.152 1474.394 1474.62 1475.012 1475.202 1475.367 1475.758 1475.904 1476.17 1476.35 1476.577 1476.802 1476.905 1477.034 1477.137 1477.215 1477.393 1477.449 1477.498 1477.526 1477.561 1477.629 1477.739 1477.669 1477.62 1477.605 1477.323 1477.104 1476.805 1476.633 1476.572 1476.692 
1466.64 1467.185 1467.768 1468.862 1469.377 1469.835 1470.898 1471.376 1471.776 1472.7 1473.154 1473.513 1473.772 1474.297 1474.567 1474.753 1474.993 1475.149 1475.309 1475.653 1475.947 1476.267 1476.372 1476.614 1476.814 1476.973 1477.121 1477.234 1477.291 1477.448 1477.54 1477.566 1477.693 1477.757 1477.809 1477.739 1477.669 1477.8 1477.724 1477.654 1477.339 1477.106 1476.868 1476.852 1476.887 
1466.759 1467.354 1467.91 1469.024 1469.601 1470.054 1471.137 1471.646 1472.065 1473.11 1473.595 1473.934 1474.203 1474.633 1474.802 1474.96 1475.159 1475.304 1475.364 1475.457 1476.052 1476.37 1476.388 1476.609 1476.822 1476.969 1477.268 1477.332 1477.352 1477.463 1477.764 1477.808 1477.816 1477.865 1477.92 1477.922 1477.809 1477.8 1477.724 1477.846 1477.563 1477.414 1477.271 1477.005 1476.984 
1466.952 1467.566 1468.104 1469.183 1469.734 1470.259 1471.219 1471.726 1472.301 1472.839 1473.925 1474.43 1474.764 1475.171 1475.219 1475.281 1475.455 1475.478 1475.573 1475.688 1476.047 1476.347 1476.391 1476.477 1476.745 1476.964 1477.308 1477.417 1477.499 1477.592 1477.811 1477.847 1477.903 1478.029 1478.015 1478.013 1477.93 1477.914 1477.914 1477.846 1477.563 1477.619 1477.533 1477.228 1477.08 
1467.323 1467.866 1468.405 1469.491 1470.013 1470.474 1471.323 1471.893 1472.518 1473.125 1474.257 1474.948 1475.6 1475.944 1475.923 1475.857 1476.003 1475.998 1476.013 1476.036 1476.158 1476.233 1476.36 1476.428 1476.631 1476.955 1477.37 1477.447 1477.531 1477.685 1477.916 1478.035 1478.056 1478.137 1478.146 1478.146 1478.117 1478.005 1478.006 1477.935 1477.756 1477.619 1477.649 1477.388 1477.19 
1467.751 1468.273 1468.742 1469.71 1470.259 1470.776 1471.679 1472.184 1472.746 1473.302 1474.424 1475.196 1476.06 1476.448 1476.413 1476.376 1476.419 1476.431 1476.387 1476.375 1476.366 1476.291 1476.361 1476.495 1476.695 1476.967 1477.398 1477.516 1477.597 1477.745 1478.053 1478.143 1478.193 1478.255 1478.314 1478.33 1478.269 1478.135 1478.109 1478.033 1477.884 1477.795 1477.649 1477.388 1477.378 
1468.166 1468.689 1469.072 1469.973 1470.468 1471.007 1471.938 1472.394 1472.874 1473.414 1474.582 1475.12 1475.744 1476.433 1476.445 1476.504 1476.536 1476.485 1476.485 1476.49 1476.528 1476.441 1476.431 1476.589 1476.738 1476.974 1477.209 1477.564 1477.642 1477.793 1478.081 1478.161 1478.22 1478.311 1478.302 1478.381 1478.393 1478.274 1478.214 1478.157 1477.976 1477.899 1477.812 1477.523 1477.378 
1468.627 1469.02 1469.469 1470.358 1470.764 1471.226 1472.1 1472.627 1473.069 1473.473 1474.509 1474.912 1475.392 1476.164 1476.345 1476.407 1476.495 1476.485 1476.486 1476.483 1476.543 1476.556 1476.543 1476.671 1476.77 1476.967 1477.201 1477.635 1477.708 1477.813 1478.083 1478.138 1478.237 1478.344 1478.333 1478.378 1478.386 1478.313 1478.324 1478.309 1478.078 1477.983 1477.823 1477.623 1477.477 
1469.034 1469.443 1469.898 1470.568 1470.98 1471.446 1471.902 1472.747 1473.204 1473.589 1474.388 1474.776 1475.18 1475.954 1476.283 1476.454 1476.483 1476.507 1476.557 1476.559 1476.484 1476.544 1476.648 1476.822 1476.956 1477.102 1477.289 1477.61 1477.653 1477.808 1478.074 1478.209 1478.229 1478.333 1478.408 1478.428 1478.427 1478.424 1478.388 1478.331 1478.189 1478.089 1477.933 1477.73 1477.617 
1469.59 1469.847 1470.227 1470.882 1471.268 1471.664 1472.127 1472.818 1473.219 1473.609 1474.388 1474.755 1475.071 1475.945 1476.282 1476.487 1476.569 1476.514 1476.585 1476.587 1476.481 1476.511 1476.627 1476.867 1477.003 1477.201 1477.312 1477.55 1477.607 1477.756 1478.021 1478.168 1478.246 1478.338 1478.413 1478.456 1478.456 1478.436 1478.386 1478.363 1478.248 1478.129 1478 1477.867 1477.757 
1470.086 1470.246 1470.552 1471.316 1471.667 1471.977 1472.363 1472.998 1473.304 1473.615 1474.355 1474.681 1475.063 1475.873 1476.236 1476.491 1476.525 1476.5 1476.518 1476.52 1476.458 1476.411 1476.44 1476.701 1476.917 1477.129 1477.207 1477.511 1477.543 1477.661 1477.961 1478.054 1478.126 1478.208 1478.341 1478.338 1478.375 1478.373 1478.338 1478.289 1478.177 1478.059 1478.022 1478.01 1477.782 
1470.532 1470.78 1471.075 1471.623 1471.996 1472.283 1472.511 1473.142 1473.519 1473.82 1474.338 1474.663 1474.976 1475.612 1476.103 1476.435 1476.431 1476.407 1476.412 1476.407 1476.399 1476.385 1476.382 1476.379 1476.76 1477.031 1477.108 1477.471 1477.505 1477.61 1477.841 1477.967 1478.083 1478.163 1478.286 1478.291 1478.335 1478.324 1478.273 1478.248 1478.133 1478.079 1478.055 1477.975 1477.878 
1471.063 1471.28 1471.501 1471.935 1472.223 1472.604 1472.915 1473.372 1473.642 1474.024 1474.504 1474.739 1474.976 1475.28 1475.709 1475.982 1476.268 1476.375 1476.33 1476.389 1476.386 1476.385 1476.389 1476.434 1476.663 1476.862 1477.003 1477.327 1477.455 1477.577 1477.748 1477.877 1478.033 1478.126 1478.207 1478.246 1478.239 1478.267 1478.281 1478.197 1478.156 1478.066 1477.982 1477.931 1477.851 
1471.465 1471.689 1471.919 1472.144 1472.586 1472.822 1473.123 1473.596 1473.822 1474.055 1474.571 1474.762 1475.074 1475.323 1475.64 1475.807 1475.986 1476.133 1476.108 1476.125 1476.391 1476.385 1476.388 1476.463 1476.57 1476.732 1476.835 1477.225 1477.386 1477.531 1477.629 1477.783 1477.932 1477.969 1478.036 1478.085 1478.133 1478.162 1478.196 1478.155 1478.06 1477.991 1477.961 1477.967 1477.791 
1471.824 1472.024 1472.334 1472.567 1472.902 1473.131 1473.355 1473.808 1474.036 1474.263 1474.727 1474.926 1475.083 1475.305 1475.74 1475.875 1475.952 1476.01 1476.096 1476.166 1476.446 1476.479 1476.47 1476.485 1476.501 1476.546 1476.63 1476.934 1477.066 1477.282 1477.532 1477.676 1477.77 1477.81 1477.982 1477.928 1477.966 1478.016 1477.979 1477.988 1477.843 1477.791 1477.774 1477.807 1477.851 
1472.251 1472.46 1472.738 1472.897 1473.292 1473.448 1473.672 1474.015 1474.248 1474.475 1474.931 1475.158 1475.382 1475.604 1476.036 1476.183 1476.335 1476.23 1476.075 1476.178 1476.403 1476.429 1476.487 1476.422 1476.403 1476.4 1476.419 1476.688 1476.788 1476.975 1477.137 1477.51 1477.572 1477.7 1477.866 1477.818 1477.822 1477.868 1477.823 1477.782 1477.723 1477.403 1477.369 1477.432 1477.775 
1472.718 1472.912 1473.056 1473.276 1473.598 1473.77 1473.988 1474.29 1474.46 1474.692 1475.191 1475.501 1475.809 1476.118 1476.348 1476.478 1476.483 1476.334 1476.24 1476.19 1476.265 1476.399 1476.398 1476.388 1476.386 1476.385 1476.385 1476.468 1476.561 1476.668 1476.826 1477.193 1477.381 1477.542 1477.716 1477.794 1477.736 1477.667 1477.662 1477.579 1477.485 1476.877 1476.717 1476.965 1477.573 
1472.718 1472.912 1473.374 1473.503 1473.954 1474.159 1474.304 1474.611 1474.811 1475.112 1475.347 1475.748 1475.926 1476.309 1476.568 1476.681 1476.598 1476.381 1476.338 1476.189 1476.176 1476.334 1476.385 1476.387 1476.328 1476.386 1476.386 1476.39 1476.403 1476.425 1476.518 1476.868 1477.102 1477.255 1477.595 1477.66 1477.638 1477.528 1477.438 1477.361 1477.13 1476.563 1476.353 1476.526 1477.378 
1472.936 1473.229 1473.374 1473.854 1474.229 1474.362 1474.516 1475.082 1475.309 1475.531 1475.766 1475.974 1475.947 1476.303 1476.528 1476.591 1476.588 1476.437 1476.361 1476.279 1476.195 1476.215 1476.289 1476.297 1476.289 1476.295 1476.3 1476.388 1476.386 1476.383 1476.391 1476.604 1476.802 1477.017 1477.455 1477.518 1477.453 1477.44 1477.342 1477.141 1476.831 1476.453 1476.387 1476.495 1477.306 
1473.333 1473.656 1473.79 1473.854 1474.229 1474.683 1474.822 1475.31 1475.595 1475.836 1476.138 1476.438 1476.387 1476.212 1476.427 1476.506 1476.579 1476.436 1476.35 1476.289 1476.354 1476.377 1476.369 1476.299 1476.285 1476.285 1476.285 1476.347 1476.387 1476.386 1476.385 1476.399 1476.476 1476.73 1477.197 1477.368 1477.388 1477.332 1477.263 1476.999 1476.688 1476.374 1476.406 1476.65 1477.353 
1473.765 1474.062 1474.185 1474.275 1474.536 1474.683 1474.822 1475.448 1475.706 1476.008 1476.25 1476.519 1476.492 1476.415 1476.305 1476.42 1476.581 1476.598 1476.472 1476.49 1476.563 1476.516 1476.366 1476.292 1476.285 1476.285 1476.285 1476.283 1476.32 1476.383 1476.386 1476.386 1476.378 1476.419 1477.061 1477.24 1477.3 1477.288 1477.139 1476.875 1476.571 1476.383 1476.479 1476.71 1477.428 
1474.159 1474.452 1474.538 1474.659 1474.852 1474.962 1475.048 1475.448 1475.706 1476.036 1476.328 1476.606 1476.595 1476.521 1476.376 1476.451 1476.691 1476.871 1476.825 1476.9 1476.899 1476.674 1476.459 1476.386 1476.423 1476.453 1476.38 1476.365 1476.347 1476.297 1476.363 1476.385 1476.389 1476.456 1477.03 1477.233 1477.361 1477.372 1477.115 1476.912 1476.548 1476.394 1476.531 1476.825 1477.437 
1474.574 1474.938 1475.051 1475.01 1475.172 1475.188 1475.333 1475.412 1475.816 1476.036 1476.366 1476.548 1476.705 1476.724 1476.613 1476.683 1476.906 1477.075 1477.243 1477.308 1477.314 1476.875 1476.625 1476.403 1476.651 1476.63 1476.483 1476.542 1476.363 1476.386 1476.463 1476.409 1476.362 1476.449 1477.115 1477.287 1477.377 1477.452 1477.226 1476.907 1476.525 1476.408 1476.581 1476.853 1477.505 
1475.026 1475.443 1475.499 1475.459 1475.548 1475.554 1475.587 1475.714 1476.121 1476.268 1476.366 1476.548 1476.758 1476.917 1477.051 1477.063 1477.138 1477.362 1477.408 1477.419 1477.493 1477.253 1476.948 1476.804 1476.892 1476.875 1476.885 1476.974 1476.41 1476.383 1476.451 1476.775 1476.644 1476.808 1477.409 1477.553 1477.534 1477.537 1477.444 1477.104 1476.629 1476.57 1476.808 1476.984 1477.641 
1475.425 1475.885 1475.878 1475.937 1476.097 1476.123 1476.052 1476.066 1476.3 1476.484 1476.422 1476.503 1476.758 1476.917 1477.348 1477.45 1477.467 1477.594 1477.73 1477.726 1477.718 1477.604 1477.372 1477.225 1477.199 1477.194 1477.186 1477.122 1476.453 1476.414 1476.713 1477.011 1477.05 1477.142 1477.616 1477.707 1477.84 1477.91 1477.765 1477.62 1477.393 1477.213 1477.252 1477.425 1477.608 
1475.651 1476.282 1476.333 1476.319 1476.482 1476.541 1476.479 1476.371 1476.224 1476.395 1476.521 1476.699 1476.964 1477.124 1477.348 1477.45 1477.85 1477.938 1477.965 1478.029 1478.025 1477.922 1477.911 1477.837 1477.823 1477.684 1477.58 1477.352 1476.763 1476.701 1476.936 1477.251 1477.396 1477.541 1477.703 1477.977 1478.049 1478.122 1478.217 1478.177 1478.077 1477.929 1477.891 1477.866 1478.01 
1475.841 1476.427 1476.56 1476.58 1476.807 1476.824 1476.657 1476.465 1476.259 1476.416 1476.659 1477.003 1477.105 1477.327 1477.5 1477.688 1477.85 1478.198 1478.237 1478.237 1478.233 1478.242 1478.242 1478.234 1478.155 1477.988 1477.883 1477.654 1477.39 1477.364 1477.288 1477.67 1477.814 1477.956 1478.031 1478.313 1478.449 1478.523 1478.531 1478.528 1478.508 1478.481 1478.469 1478.448 1478.469 
1475.836 1476.434 1476.645 1476.781 1476.877 1476.883 1476.816 1476.602 1476.386 1476.438 1476.697 1477.255 1477.424 1477.545 1477.696 1477.906 1478.049 1478.198 1478.237 1478.557 1478.566 1478.655 1478.647 1478.638 1478.565 1478.293 1478.212 1478.137 1477.967 1477.899 1477.896 1478.079 1478.204 1478.277 1478.418 1478.693 1478.763 1478.839 1478.895 1478.845 1478.915 1478.91 1478.907 1478.899 1478.901 
1475.899 1476.393 1476.61 1476.878 1476.967 1476.965 1476.922 1476.835 1476.619 1476.656 1476.924 1477.442 1477.648 1477.756 1477.901 1478.198 1478.269 1478.317 1478.511 1478.557 1478.566 1478.951 1478.946 1478.925 1478.863 1478.783 1478.626 1478.542 1478.421 1478.42 1478.415 1478.541 1478.643 1478.784 1478.857 1479.115 1479.162 1479.158 1479.255 1479.233 1479.241 1479.276 1479.247 1479.308 1479.245 
1475.96 1476.409 1476.674 1476.971 1477.09 1477.044 1477.03 1477.005 1477.049 1477.04 1477.16 1477.578 1477.71 1477.929 1478.088 1478.398 1478.529 1478.558 1478.875 1478.877 1478.942 1478.951 1478.946 1479.169 1479.25 1479.106 1479.038 1478.963 1478.948 1478.936 1478.935 1479.016 1479.023 1479.109 1479.256 1479.417 1479.492 1479.559 1479.603 1479.656 1479.644 1479.642 1479.631 1479.621 1479.541 
1476.021 1476.526 1476.869 1477.152 1477.118 1477.048 1477.093 1477.053 1477.124 1477.236 1477.299 1477.677 1477.89 1478.03 1478.174 1478.546 1478.696 1478.859 1479.109 1479.171 1479.162 1479.233 1479.239 1479.169 1479.653 1479.46 1479.463 1479.464 1479.454 1479.444 1479.444 1479.507 1479.517 1479.516 1479.582 1479.795 1479.817 1479.963 1479.962 1479.987 1480.055 1480.057 1480.047 1480.029 1479.949 
1476.067 1476.623 1476.932 1477.074 1477.087 1477.091 1477.062 1476.984 1476.955 1477.108 1477.297 1477.523 1477.994 1478.139 1478.337 1478.856 1478.996 1479.141 1479.372 1479.484 1479.478 1479.559 1479.651 1479.596 1479.653 1479.46 1479.886 1479.869 1479.859 1479.854 1479.846 1479.833 1479.928 1479.934 1480.003 1480.146 1480.218 1480.288 1480.389 1480.377 1480.372 1480.366 1480.362 1480.344 1480.26 
1476.064 1476.297 1476.948 1477.038 1477.123 1476.936 1476.639 1476.565 1476.651 1476.857 1477.124 1477.376 1478.047 1478.263 1478.571 1479.006 1479.164 1479.365 1479.693 1479.795 1479.815 1479.948 1479.979 1479.995 1479.985 1479.957 1479.886 1479.869 1480.278 1480.268 1480.273 1480.268 1480.266 1480.349 1480.42 1480.561 1480.632 1480.7 1480.688 1480.714 1480.782 1480.781 1480.734 1480.662 1480.656 
1476.134 1476.306 1477.02 1477.145 1477.237 1476.775 1476.377 1476.385 1476.431 1476.529 1476.633 1477.056 1477.995 1478.333 1478.704 1479.146 1479.36 1479.676 1479.993 1480.132 1480.228 1480.276 1480.338 1480.408 1480.405 1480.401 1480.38 1480.306 1480.278 1480.268 1480.779 1480.77 1480.688 1480.761 1480.827 1480.929 1480.938 1481.01 1481.115 1481.102 1481.096 1481.09 1481.085 1481.063 1480.98 
1476.234 1476.357 1477.234 1477.371 1477.339 1476.957 1476.519 1476.369 1476.386 1476.385 1476.38 1476.6 1477.929 1478.395 1478.861 1479.407 1479.678 1479.949 1480.321 1480.491 1480.604 1480.619 1480.762 1480.819 1480.815 1480.804 1480.799 1480.802 1480.804 1480.7 1480.779 1481.085 1481.172 1481.16 1481.15 1481.291 1481.331 1481.339 1481.484 1481.44 1481.498 1481.421 1481.391 1481.392 1481.381 
1476.384 1476.628 1477.417 1477.605 1477.63 1477.304 1477.01 1476.739 1476.38 1476.386 1476.384 1476.376 1477.83 1478.523 1479.008 1479.711 1480.023 1480.236 1480.469 1480.846 1480.911 1481.014 1481.174 1481.233 1481.226 1481.196 1481.213 1481.206 1481.188 1481.111 1481.156 1481.085 1481.172 1481.576 1481.573 1481.65 1481.665 1481.739 1481.811 1481.83 1481.821 1481.819 1481.764 1481.695 1481.691 
1476.986 1477.277 1477.871 1478.002 1478.022 1477.757 1477.511 1477.169 1476.565 1476.386 1476.384 1476.383 1477.86 1478.633 1479.248 1480.135 1480.456 1480.716 1480.912 1481.182 1481.264 1481.42 1481.571 1481.617 1481.635 1481.563 1481.597 1481.586 1481.52 1481.498 1481.488 1481.489 1481.513 1481.576 1481.573 1482.009 1482.055 1482.059 1482.126 1482.235 1482.231 1482.222 1482.069 1482.01 1482.004 
1477.713 1478.016 1478.558 1478.638 1478.627 1478.451 1478.074 1477.459 1476.575 1476.386 1476.362 1476.549 1478.186 1478.97 1479.664 1480.649 1480.905 1481.127 1481.318 1481.599 1481.677 1481.794 1481.94 1481.918 1481.998 1481.973 1481.916 1481.919 1481.921 1481.911 1481.907 1481.903 1481.934 1481.988 1481.966 1482.009 1482.388 1482.465 1482.543 1482.473 1482.522 1482.445 1482.491 1482.423 1482.407 
1478.52 1478.736 1479.367 1479.604 1479.572 1479.425 1478.955 1478.285 1477.165 1476.464 1476.753 1477.034 1478.838 1479.601 1480.254 1481.17 1481.414 1481.588 1481.776 1482.048 1482.076 1482.146 1482.3 1482.269 1482.34 1482.323 1482.337 1482.303 1482.296 1482.327 1482.314 1482.289 1482.326 1482.368 1482.313 1482.379 1482.388 1482.465 1482.837 1482.851 1482.843 1482.845 1482.798 1482.71 1482.619 
1479.278 1479.703 1480.248 1480.585 1480.745 1480.717 1480.34 1479.906 1479.196 1477.724 1477.731 1478.569 1479.901 1480.527 1480.94 1481.658 1481.944 1482.166 1482.32 1482.515 1482.536 1482.572 1482.651 1482.642 1482.712 1482.667 1482.701 1482.637 1482.63 1482.725 1482.717 1482.629 1482.631 1482.703 1482.785 1482.783 1482.779 1482.766 1482.837 1482.851 1483.168 1483.163 1483.155 1483.104 1482.945 
1480.175 1480.47 1481.319 1481.706 1481.961 1482.526 1482.5 1482.169 1481.806 1480.886 1480.595 1480.797 1481.346 1481.68 1481.868 1482.063 1482.492 1482.666 1482.78 1482.94 1482.998 1482.99 1483.006 1482.987 1483.069 1483.079 1483.027 1483.055 1483.021 1483.044 1483.096 1483.016 1482.999 1483.026 1483.077 1483.093 1483.156 1483.095 1483.148 1483.174 1483.168 1483.163 1483.456 1483.429 1483.34 
1480.962 1481.535 1482.343 1482.828 1483.376 1483.867 1484.994 1485.453 1484.919 1483.999 1483.634 1483.205 1482.861 1482.849 1482.909 1483.009 1483.143 1483.247 1483.264 1483.348 1483.413 1483.406 1483.356 1483.392 1483.394 1483.431 1483.352 1483.425 1483.37 1483.377 1483.392 1483.312 1483.382 1483.432 1483.426 1483.504 1483.479 1483.484 1483.489 1483.578 1483.571 1483.564 1483.456 1483.743 1483.664 
1481.881 1482.409 1483.325 1483.894 1484.57 1485.21 1487.063 1487.795 1487.83 1486.567 1485.753 1485.23 1484.329 1484.093 1483.938 1483.899 1483.777 1483.719 1483.778 1483.716 1483.748 1483.748 1483.724 1483.719 1483.637 1483.719 1483.637 1483.692 1483.73 1483.733 1483.696 1483.614 1483.768 1483.813 1483.814 1483.86 1483.772 1483.799 1483.898 1483.896 1483.886 1483.868 1483.828 1483.743 1483.664 
1482.743 1483.339 1484.369 1485.033 1485.649 1486.399 1487.912 1488.559 1488.732 1488.176 1487.506 1486.744 1485.65 1485.261 1484.979 1484.769 1484.473 1484.318 1484.228 1484.198 1484.173 1484.116 1484.083 1484.028 1484 1483.991 1483.906 1483.884 1483.967 1483.983 1483.974 1483.964 1484.066 1484.1 1484.071 1484.118 1484.1 1484.114 1484.273 1484.295 1484.263 1484.178 1484.163 1484.15 1484.062 
1483.567 1484.098 1485.29 1485.929 1486.596 1487.149 1488.328 1488.702 1488.862 1488.521 1488.118 1487.584 1486.585 1486.131 1485.771 1485.528 1485.089 1484.896 1484.8 1484.552 1484.564 1484.534 1484.482 1484.411 1484.357 1484.262 1484.225 1484.199 1484.231 1484.191 1484.239 1484.291 1484.354 1484.401 1484.353 1484.448 1484.5 1484.449 1484.576 1484.606 1484.593 1484.51 1484.498 1484.448 1484.351 
1484.31 1484.833 1486.038 1486.771 1487.36 1487.892 1488.746 1488.881 1488.965 1488.647 1488.346 1487.949 1487.597 1486.813 1486.498 1486.2 1485.648 1485.462 1485.215 1484.976 1484.932 1484.875 1484.794 1484.67 1484.588 1484.558 1484.536 1484.496 1484.489 1484.454 1484.479 1484.479 1484.604 1484.66 1484.725 1484.742 1484.901 1484.852 1484.892 1484.969 1484.99 1484.932 1484.924 1484.771 1484.686 
1484.854 1485.466 1486.075 1487.305 1487.911 1488.458 1488.958 1489.08 1489.083 1488.79 1488.547 1488.158 1487.965 1487.333 1486.96 1486.637 1486.162 1485.912 1485.594 1485.381 1485.253 1485.186 1485.102 1484.955 1484.931 1484.881 1484.774 1484.748 1484.751 1484.742 1484.747 1484.79 1484.822 1484.87 1485.031 1485.113 1485.245 1485.261 1485.247 1485.332 1485.292 1485.302 1485.304 1485.171 1485.099 
1485.466 1485.996 1486.528 1487.638 1488.223 1488.616 1489.151 1489.174 1489.094 1488.946 1488.685 1488.446 1488.286 1487.757 1487.375 1487.136 1486.472 1486.24 1485.993 1485.747 1485.605 1485.413 1485.39 1485.264 1485.205 1485.118 1485.063 1485.051 1485.001 1485.018 1485.066 1485.099 1485.083 1485.256 1485.401 1485.474 1485.545 1485.599 1485.661 1485.685 1485.672 1485.637 1485.633 1485.534 1485.486 
1485.949 1486.328 1486.847 1487.74 1488.34 1488.731 1489.1 1489.102 1489.173 1489.094 1488.885 1488.654 1488.498 1488.056 1487.779 1487.402 1486.888 1486.65 1486.421 1486.004 1485.884 1485.771 1485.646 1485.47 1485.394 1485.375 1485.387 1485.357 1485.274 1485.317 1485.344 1485.29 1485.376 1485.611 1485.715 1485.784 1485.84 1485.903 1486.014 1485.965 1486.115 1486.055 1486.047 1485.989 1485.842 
1486.554 1486.759 1487.026 1487.673 1488.351 1488.74 1489.141 1489.206 1489.279 1489.24 1489.127 1488.953 1488.731 1488.231 1487.934 1487.683 1487.065 1486.871 1486.57 1486.449 1486.151 1486.018 1485.918 1485.782 1485.76 1485.694 1485.615 1485.589 1485.505 1485.551 1485.612 1485.629 1485.685 1485.825 1485.909 1486.03 1486.179 1486.271 1486.372 1486.368 1486.505 1486.458 1486.451 1486.453 1486.326 
1487.421 1487.49 1487.374 1487.767 1488.356 1488.739 1489.259 1489.288 1489.29 1489.366 1489.24 1489.057 1488.757 1488.267 1488.035 1487.806 1487.212 1487.009 1486.842 1486.686 1486.464 1486.312 1486.229 1486.071 1486.02 1486.003 1485.845 1485.817 1485.851 1485.819 1485.822 1485.91 1485.957 1486.098 1486.176 1486.276 1486.518 1486.632 1486.738 1486.814 1486.942 1486.922 1486.912 1486.883 1486.776 
1488.376 1488.382 1488.23 1488.11 1488.346 1488.65 1489.322 1489.399 1489.395 1489.475 1489.233 1489.052 1488.745 1488.373 1488.111 1487.807 1487.369 1487.182 1486.963 1486.867 1486.679 1486.519 1486.443 1486.322 1486.3 1486.229 1486.102 1486.102 1486.113 1486.084 1486.171 1486.181 1486.205 1486.342 1486.445 1486.614 1486.846 1486.987 1487.11 1487.272 1487.288 1487.342 1487.375 1487.296 1487.234 
1488.431 1488.702 1488.739 1488.526 1488.565 1488.797 1489.615 1489.552 1489.406 1489.463 1489.302 1489.057 1488.825 1488.511 1488.309 1488.001 1487.567 1487.413 1487.246 1487.091 1486.948 1486.903 1486.745 1486.572 1486.527 1486.508 1486.344 1486.333 1486.408 1486.407 1486.365 1486.418 1486.414 1486.544 1486.649 1486.838 1487.204 1487.363 1487.461 1487.611 1487.752 1487.75 1487.825 1487.802 1487.688 
1488.431 1488.449 1488.646 1488.953 1489.071 1489.244 1489.736 1489.677 1489.592 1489.512 1489.34 1489.125 1488.74 1488.677 1488.501 1488.11 1487.663 1487.542 1487.458 1487.297 1487.148 1487.155 1487.135 1486.927 1486.81 1486.813 1486.704 1486.65 1486.554 1486.619 1486.609 1486.619 1486.617 1486.753 1486.845 1487.004 1487.231 1487.677 1487.841 1487.985 1488.185 1488.229 1488.307 1488.245 1488.098 
1488.118 1488.449 1488.646 1488.865 1489.295 1489.585 1489.757 1489.737 1489.6 1489.599 1489.298 1489.012 1488.633 1488.461 1488.261 1488.179 1487.95 1487.791 1487.574 1487.56 1487.417 1487.36 1487.353 1487.229 1487.192 1487.119 1487.115 1486.885 1486.803 1486.758 1486.78 1486.827 1486.832 1486.968 1487.061 1487.215 1487.442 1487.959 1488.131 1488.338 1488.516 1488.583 1488.612 1488.577 1488.449 
1488.079 1488.218 1488.482 1488.865 1489.295 1489.493 1489.737 1489.696 1489.705 1489.71 1489.358 1489.007 1488.627 1488.434 1488.394 1488.392 1488.32 1488.127 1487.959 1487.802 1487.621 1487.579 1487.648 1487.623 1487.626 1487.604 1487.475 1487.259 1487.108 1486.953 1486.982 1487.027 1486.96 1487.085 1487.21 1487.427 1487.599 1488.168 1488.417 1488.604 1488.694 1488.754 1488.751 1488.797 1488.707 
1488.344 1488.316 1488.26 1488.844 1489.264 1489.493 1489.787 1489.888 1489.809 1489.799 1489.355 1488.999 1488.619 1488.461 1488.665 1488.797 1488.659 1488.433 1488.269 1488.111 1487.818 1487.776 1487.863 1488.163 1488.122 1488.027 1487.805 1487.553 1487.335 1487.241 1487.145 1487.157 1487.144 1487.273 1487.381 1487.558 1487.703 1488.369 1488.586 1488.683 1488.801 1488.858 1488.855 1488.916 1488.884 
1488.643 1488.479 1488.317 1488.861 1489.324 1489.625 1489.787 1489.888 1489.915 1489.843 1489.495 1488.997 1488.621 1488.63 1488.824 1489.101 1489.061 1488.657 1488.573 1488.418 1488.063 1488.062 1488.083 1488.617 1488.531 1488.35 1488.039 1487.687 1487.534 1487.46 1487.306 1487.251 1487.262 1487.448 1487.578 1487.673 1487.81 1488.418 1488.606 1488.68 1488.84 1488.886 1488.891 1488.944 1488.917 
1488.825 1488.606 1488.45 1488.863 1489.404 1489.819 1489.998 1490 1489.915 1489.843 1489.646 1489.21 1488.762 1488.889 1489.222 1489.325 1489.329 1488.926 1488.549 1488.399 1488.396 1488.383 1488.388 1488.668 1488.618 1488.374 1488.204 1487.917 1487.824 1487.671 1487.455 1487.429 1487.368 1487.502 1487.661 1487.698 1487.911 1488.411 1488.608 1488.688 1488.843 1488.886 1488.886 1488.913 1488.886 
1488.774 1488.784 1488.66 1488.835 1489.38 1489.938 1490.12 1490.212 1490.142 1490.145 1489.646 1489.21 1489.252 1489.332 1489.594 1489.633 1489.558 1488.964 1488.554 1488.49 1488.721 1488.719 1488.807 1488.968 1488.611 1488.472 1488.386 1488.23 1488.138 1487.975 1487.595 1487.565 1487.563 1487.571 1487.774 1487.786 1487.946 1488.43 1488.604 1488.61 1488.794 1488.917 1488.961 1488.899 1488.973 
1488.634 1488.785 1488.884 1488.924 1489.762 1490.135 1490.322 1490.422 1490.365 1490.361 1489.971 1489.569 1489.252 1489.955 1489.998 1489.957 1489.873 1489.064 1488.674 1488.638 1489.263 1489.279 1489.411 1489.349 1488.876 1488.698 1488.765 1488.496 1488.343 1488.188 1487.816 1487.634 1487.585 1487.583 1487.786 1487.804 1487.952 1488.337 1488.526 1488.583 1488.788 1488.905 1488.91 1488.887 1488.99 
1488.529 1488.773 1489.164 1489.473 1490.042 1490.3 1490.513 1490.686 1490.681 1490.675 1490.372 1490.193 1490.067 1489.955 1489.998 1490.36 1490.197 1489.455 1489.226 1489.385 1489.775 1489.859 1489.826 1489.749 1489.325 1489.209 1489.2 1488.645 1488.437 1488.29 1487.97 1487.756 1487.757 1487.682 1487.883 1487.881 1487.962 1488.258 1488.518 1488.585 1488.794 1488.888 1488.885 1488.886 1488.985 
1488.504 1488.852 1489.329 1489.769 1490.349 1490.584 1490.758 1490.992 1491.015 1491.006 1490.899 1490.841 1490.759 1490.656 1490.536 1490.36 1490.197 1490.299 1490.249 1490.229 1490.397 1490.34 1490.237 1490.071 1489.787 1489.697 1489.529 1488.971 1488.63 1488.491 1488.116 1487.853 1487.869 1487.791 1487.918 1487.992 1488.066 1488.304 1488.511 1488.579 1488.653 1488.888 1488.885 1488.886 1488.915 
1488.577 1488.975 1489.479 1489.958 1490.54 1490.872 1491.072 1491.31 1491.443 1491.457 1491.476 1491.433 1491.337 1491.169 1490.977 1490.818 1490.641 1490.299 1490.249 1490.947 1490.957 1490.866 1490.759 1490.512 1490.205 1490.073 1489.744 1489.145 1488.911 1488.699 1488.625 1487.995 1487.879 1487.872 1487.983 1487.992 1488.074 1488.418 1488.612 1488.666 1488.674 1488.888 1488.886 1488.886 1488.86 
1488.68 1489.144 1489.693 1490.158 1490.915 1491.21 1491.418 1491.734 1491.864 1491.937 1492.024 1491.953 1491.837 1491.716 1491.643 1491.524 1491.297 1491.131 1491.043 1490.947 1491.643 1491.484 1491.346 1491.042 1490.58 1490.324 1489.844 1488.951 1488.627 1488.574 1488.433 1488.036 1487.984 1487.981 1488.024 1488.077 1488.084 1488.488 1488.648 1488.771 1488.697 1488.889 1488.886 1488.886 1488.846 
1488.862 1489.422 1489.942 1490.446 1491.272 1491.549 1491.828 1492.163 1492.287 1492.411 1492.455 1492.542 1492.422 1492.398 1492.282 1492.188 1492.012 1491.903 1491.812 1491.668 1491.643 1491.484 1491.794 1491.562 1490.946 1490.425 1489.84 1488.537 1488.589 1488.566 1488.354 1488.076 1488.09 1488.088 1488.012 1488.103 1488.177 1488.436 1488.626 1488.695 1488.761 1488.887 1488.886 1488.886 1488.891 
1489.59 1490.013 1490.418 1490.918 1491.701 1492.019 1492.24 1492.654 1492.751 1492.953 1493.015 1493.126 1493.112 1493.047 1493.035 1492.956 1492.759 1492.684 1492.477 1492.38 1492.375 1492.047 1491.794 1491.562 1491.428 1490.823 1490.075 1488.571 1488.556 1488.484 1488.413 1488.19 1488.161 1488.01 1488.138 1488.185 1488.188 1488.439 1488.627 1488.697 1488.775 1488.825 1488.884 1488.886 1488.889 
1490.426 1490.823 1491.099 1491.513 1492.221 1492.532 1492.756 1493.191 1493.292 1493.443 1493.602 1493.75 1493.766 1493.762 1493.72 1493.646 1493.569 1493.438 1493.356 1493.149 1493.093 1492.79 1492.532 1492.28 1491.428 1490.823 1490.514 1488.832 1488.621 1488.601 1488.441 1488.26 1488.196 1488.201 1488.192 1488.184 1488.187 1488.246 1488.601 1488.596 1488.671 1488.825 1488.902 1488.973 1488.943 
1491.188 1491.603 1491.884 1492.167 1492.791 1493.105 1493.329 1493.816 1493.96 1494.069 1494.258 1494.409 1494.447 1494.47 1494.463 1494.452 1494.391 1494.228 1494.152 1494.048 1493.892 1493.594 1493.252 1492.929 1492.038 1491.334 1490.514 1490.284 1489.213 1488.973 1488.71 1488.485 1488.416 1488.41 1488.351 1488.287 1488.285 1488.278 1488.527 1488.585 1488.585 1488.766 1488.914 1488.98 1488.93 
1491.888 1492.384 1492.578 1492.795 1493.395 1493.669 1493.886 1494.144 1494.658 1494.792 1494.94 1495.124 1495.147 1495.224 1495.243 1495.199 1495.168 1495.109 1495.036 1494.867 1494.786 1494.411 1494.098 1493.78 1492.854 1492.087 1491.218 1490.284 1489.213 1489.853 1489.439 1488.906 1488.748 1488.624 1488.451 1488.362 1488.3 1488.371 1488.333 1488.493 1488.575 1488.721 1488.827 1488.975 1488.983 
1492.53 1493.002 1493.189 1493.414 1494.017 1494.317 1494.579 1494.793 1495.305 1495.515 1495.614 1495.887 1495.973 1496 1496.086 1496 1495.915 1495.911 1495.813 1495.679 1495.593 1495.298 1495.06 1494.755 1493.877 1493.186 1492.41 1491.572 1490.132 1489.853 1489.439 1489.731 1489.391 1488.892 1488.536 1488.468 1488.392 1488.385 1488.383 1488.412 1488.558 1488.613 1488.723 1488.878 1488.985 
1493.069 1493.545 1493.819 1494.038 1494.603 1494.87 1495.176 1495.455 1495.909 1496.124 1496.318 1496.678 1496.811 1496.867 1496.914 1496.872 1496.782 1496.74 1496.628 1496.544 1496.457 1496.252 1496.076 1495.885 1495.15 1494.512 1493.807 1493.048 1491.623 1491.036 1490.516 1489.731 1489.982 1489.423 1488.584 1488.538 1488.397 1488.381 1488.384 1488.397 1488.466 1488.584 1488.62 1488.778 1488.941 
1493.6 1494.128 1494.38 1494.66 1495.204 1495.439 1495.753 1496.062 1496.539 1496.804 1497.032 1497.49 1497.591 1497.735 1497.745 1497.763 1497.707 1497.587 1497.438 1497.352 1497.267 1497.151 1497.088 1497.002 1496.611 1496.179 1495.591 1494.868 1493.261 1492.489 1491.721 1490.506 1489.982 1489.423 1489.342 1488.527 1488.479 1488.401 1488.386 1488.385 1488.391 1488.588 1488.598 1488.681 1488.833 
1494.132 1494.658 1494.893 1495.203 1495.833 1496.138 1496.38 1496.67 1497.243 1497.532 1497.756 1498.235 1498.385 1498.546 1498.668 1498.669 1498.574 1498.386 1498.014 1497.943 1497.889 1498.025 1498.15 1498.143 1498.249 1498.121 1497.828 1497.109 1495.18 1494.107 1493.071 1491.273 1490.584 1489.985 1489.342 1488.527 1488.484 1488.409 1488.392 1488.388 1488.393 1488.471 1488.579 1488.596 1488.815 
1494.545 1495.228 1495.488 1495.723 1496.075 1496.725 1497.006 1497.364 1497.976 1498.26 1498.486 1498.786 1499.098 1499.511 1499.782 1499.66 1499.391 1499.068 1498.611 1498.561 1498.601 1498.741 1498.924 1499.151 1499.35 1499.894 1499.93 1499.485 1497.219 1495.776 1494.277 1492.026 1491.118 1490.262 1489.544 1488.524 1488.484 1488.409 1488.45 1488.4 1488.469 1488.418 1488.498 1488.6 1488.831 
1495.047 1495.714 1495.974 1496.329 1496.647 1497.276 1497.638 1497.95 1498.663 1498.984 1499.141 1499.33 1499.635 1500.151 1500.549 1500.503 1500.056 1499.651 1499.252 1499.276 1499.319 1499.317 1499.535 1499.871 1500.269 1500.828 1501.024 1500.867 1498.688 1497 1495.178 1492.486 1491.407 1490.573 1489.851 1488.658 1488.605 1488.551 1488.45 1488.377 1488.389 1488.437 1488.51 1488.614 1488.922 
1495.574 1496.182 1496.469 1496.788 1497.157 1497.768 1498.102 1498.523 1499.373 1499.65 1499.823 1499.778 1499.975 1500.413 1500.786 1500.787 1500.316 1499.891 1500.115 1500.169 1500.058 1500.05 1500.267 1500.56 1500.864 1501.071 1501.154 1501.12 1498.956 1497.122 1495.609 1492.934 1491.874 1490.973 1490.221 1489.159 1488.976 1488.851 1488.487 1488.377 1488.389 1488.41 1488.584 1488.629 1488.927 
1495.911 1496.555 1496.94 1497.3 1497.608 1498.325 1498.695 1499.097 1499.818 1500.245 1500.578 1500.4 1500.366 1500.68 1500.928 1500.638 1500.203 1500.101 1500.789 1500.849 1500.761 1500.788 1500.862 1500.93 1500.986 1501.002 1500.855 1500.39 1498.384 1497.003 1495.716 1494.395 1492.245 1491.383 1490.746 1489.91 1489.58 1488.91 1488.486 1488.412 1488.464 1488.41 1488.584 1488.658 1489.043 
1496.231 1496.933 1497.266 1497.649 1498.013 1498.785 1499.152 1499.466 1500.255 1500.693 1500.934 1500.877 1500.889 1501.011 1500.959 1500.534 1500.375 1500.469 1500.918 1500.994 1500.985 1500.985 1500.999 1500.954 1500.957 1500.658 1500.118 1499.308 1497.495 1496.564 1495.518 1494.436 1492.469 1491.678 1490.929 1489.689 1489.047 1488.623 1488.55 1488.461 1488.403 1488.481 1488.571 1488.658 1489.043 
1496.635 1496.943 1497.571 1497.97 1498.43 1499.113 1499.486 1499.783 1500.524 1500.837 1501.054 1501.137 1501.123 1501.015 1500.852 1500.474 1500.496 1500.584 1500.86 1500.934 1500.931 1500.892 1500.897 1500.884 1500.746 1500.098 1499.5 1498.768 1497.063 1496.224 1495.275 1494.322 1492.436 1491.623 1490.774 1489.142 1488.554 1488.569 1488.55 1488.504 1488.516 1488.57 1488.695 1488.922 1489.276 
1497.063 1497.36 1497.995 1498.375 1498.688 1499.395 1499.716 1500.089 1500.792 1501.003 1501.157 1501.185 1501.111 1500.91 1500.819 1500.474 1500.548 1500.569 1500.851 1500.879 1500.812 1500.682 1500.649 1500.655 1500.684 1500.008 1499.34 1498.613 1496.964 1496.101 1495.125 1494.21 1492.308 1491.362 1490.492 1488.82 1488.585 1488.585 1488.584 1488.599 1488.637 1488.658 1489.08 1489.313 1489.528 
1497.293 1497.738 1498.354 1498.603 1498.978 1499.71 1500.025 1500.405 1501.02 1501.196 1501.265 1501.27 1501.06 1500.77 1500.625 1500.637 1500.668 1500.727 1500.84 1500.876 1500.771 1500.61 1500.607 1500.723 1500.846 1500.386 1499.537 1498.672 1497.01 1496.149 1495.263 1494.306 1492.235 1491.244 1490.285 1488.711 1488.586 1488.585 1488.583 1488.722 1488.894 1489.082 1489.409 1489.643 1489.85 
1497.604 1497.973 1498.713 1499.007 1499.31 1499.962 1500.36 1500.732 1501.12 1501.305 1501.362 1501.366 1501.117 1500.821 1500.733 1500.761 1500.755 1500.765 1500.876 1500.857 1500.785 1500.742 1500.681 1500.8 1500.873 1500.557 1499.687 1498.796 1498.1 1496.433 1495.5 1494.544 1492.406 1491.368 1490.325 1488.757 1488.58 1488.583 1488.608 1489.076 1489.25 1489.454 1489.83 1490.028 1490.167 
1498.019 1498.395 1499.132 1499.429 1499.728 1500.231 1500.553 1500.863 1501.332 1501.508 1501.563 1501.565 1501.33 1501.076 1500.937 1500.828 1500.881 1501.005 1500.976 1500.916 1500.779 1500.714 1500.792 1500.873 1500.95 1500.598 1499.93 1499.22 1498.615 1496.856 1495.85 1494.892 1492.704 1491.577 1490.54 1488.916 1488.604 1488.623 1488.846 1489.453 1489.667 1489.837 1490.203 1490.333 1490.503 
1498.226 1498.603 1499.609 1499.941 1500.162 1500.617 1500.821 1500.977 1501.197 1501.623 1501.675 1501.675 1501.664 1501.582 1501.341 1501.101 1501.136 1501.158 1501.081 1500.918 1500.781 1500.756 1500.823 1500.907 1500.976 1500.836 1500.472 1499.905 1499.26 1497.349 1496.289 1495.229 1493.144 1492.078 1491.026 1489.606 1489.294 1489.204 1489.366 1489.849 1490.084 1490.319 1490.55 1490.687 1490.886 
1498.455 1498.899 1499.956 1500.384 1500.672 1500.872 1501.027 1501.185 1501.41 1501.725 1501.782 1501.778 1501.782 1501.761 1501.661 1501.441 1501.317 1501.266 1501.263 1500.956 1500.791 1500.784 1500.811 1500.913 1501.057 1500.985 1500.837 1500.583 1499.872 1497.684 1496.619 1495.636 1493.676 1492.777 1491.859 1490.68 1490.327 1490.268 1490.167 1490.367 1490.577 1490.771 1490.947 1491.079 1491.197 
1498.738 1499.039 1500.254 1500.754 1500.891 1501.142 1501.231 1501.399 1501.632 1501.71 1501.798 1501.872 1501.84 1501.779 1501.776 1501.629 1501.512 1501.367 1501.301 1501.056 1500.837 1500.784 1500.849 1500.98 1501.013 1500.961 1500.91 1500.788 1500.124 1497.941 1496.922 1495.946 1494.126 1493.371 1492.764 1492.254 1491.307 1491.239 1491.03 1491.115 1491.189 1491.302 1491.455 1491.516 1491.546 
1498.874 1499.249 1500.185 1500.643 1500.873 1501.298 1501.417 1501.499 1501.649 1501.786 1501.796 1501.869 1501.892 1501.868 1501.786 1501.624 1501.55 1501.456 1501.308 1501.217 1501.032 1500.884 1500.972 1500.986 1500.984 1500.938 1500.806 1500.557 1499.828 1497.976 1497.01 1496.101 1494.686 1494.04 1493.515 1493.079 1492.245 1492.039 1491.786 1491.759 1491.789 1491.818 1491.929 1491.971 1491.921 
1499.181 1499.48 1500.089 1500.462 1500.766 1501.126 1501.342 1501.495 1501.651 1501.86 1502.011 1502.082 1501.819 1501.799 1501.877 1501.89 1501.72 1501.565 1501.414 1501.132 1500.984 1500.894 1500.989 1500.976 1500.913 1500.844 1500.523 1500 1499.358 1497.781 1497.032 1496.344 1495.119 1494.56 1494.09 1493.801 1492.968 1492.759 1492.619 1492.357 1492.407 1492.397 1492.353 1492.355 1492.267 
1499.181 1499.676 1500.049 1500.387 1500.758 1500.853 1501.231 1501.376 1501.535 1501.945 1501.985 1501.981 1501.931 1501.972 1501.885 1501.802 1501.745 1501.57 1501.346 1500.906 1500.805 1500.877 1500.969 1500.885 1500.816 1500.717 1499.948 1499.432 1498.815 1497.615 1497.067 1496.562 1495.489 1495.062 1494.668 1494.385 1493.645 1493.483 1493.309 1492.985 1492.95 1492.904 1492.818 1492.754 1492.672 
1499.397 1499.676 1500.156 1500.305 1500.641 1500.762 1500.977 1501.063 1501.286 1501.877 1501.985 1501.999 1502.106 1501.984 1501.98 1501.915 1501.597 1501.367 1501.141 1500.763 1500.805 1500.882 1500.824 1500.808 1500.631 1500.227 1499.348 1498.998 1498.504 1497.583 1497.059 1496.662 1495.866 1495.523 1495.132 1494.807 1494.268 1494.063 1493.871 1493.556 1493.44 1493.353 1493.303 1493.224 1493.136 
1499.72 1499.847 1500.156 1500.305 1500.484 1500.691 1500.75 1500.762 1500.821 1501.653 1501.953 1502.171 1502.082 1501.984 1501.981 1501.917 1501.453 1501.131 1500.829 1500.786 1500.79 1500.797 1500.533 1500.269 1500.033 1499.648 1498.988 1498.678 1498.344 1497.594 1497.226 1496.843 1496.572 1495.858 1495.536 1495.278 1494.735 1494.57 1494.416 1494.117 1493.95 1493.937 1493.854 1493.68 1493.586 
