NCOLS 86
NROWS 42
XLLCORNER 276236.32
YLLCORNER 3833388.9
CELLSIZE 10
NODATA_VALUE -9999
1592.75 1588.71 1583.134 1580.819 1578.225 1575.575 1573.423 1571.09 1570.418 1569.204 1566.768 1564.286 1562.781 1562.81 1562.068 1560.474 1558.544 1556.851 1555.109 1552.37 1551.556 1548.632 1544.484 1544.256 1543.409 1542.985 1545.123 1544.879 1544.577 1544.27 1543.731 1543.419 1543.141 1542.499 1541.293 1540.282 1536.446 1534.539 1533.702 1533.284 1534.216 1535.721 1536.066 1536.411 1535.707 1532.447 1528.039 1524.903 1523.278 1521.131 1518.384 1515.84 1513.751 1511.33 1509.683 1507.416 1504.412 1503.002 1501.568 1499.893 1497.833 1494.776 1490.654 1489.541 1488.439 1487.798 1486.782 1485.412 1483.527 1482.067 1479.335 1478.177 1477.09 1475.85 1474.757 1474.821 1475.248 1476.133 1477.584 1479.234 1479.268 1477.679 1479.722 1482.576 1485.229 1487.707 
1592.17 1587.98 1583.142 1581.105 1578.707 1576.309 1574.648 1572.456 1571.712 1570.505 1568.961 1567.544 1564.982 1564.35 1563.347 1561.79 1560.004 1558.412 1557.052 1553.988 1552.464 1550.44 1547.083 1542.984 1541.356 1542.985 1542.668 1542.353 1542.119 1541.894 1540.843 1540.667 1540.531 1539.709 1538.452 1537.81 1534.705 1532.613 1530.747 1529.075 1529.687 1531.183 1531.836 1531.921 1530.425 1526.862 1522.868 1517.913 1516.463 1515.323 1514.162 1513.027 1511.089 1509.712 1507.562 1505.207 1503.275 1502.187 1500.7 1499.682 1497.163 1493.913 1492.302 1491.399 1489.75 1488.803 1487.716 1485.412 1483.52 1480.269 1478.873 1477.855 1476.989 1475.569 1474.281 1474.868 1475.296 1475.871 1476.821 1477.694 1476.631 1476.739 1478.346 1480.344 1483.216 1485.412 
1591.724 1585.046 1583.352 1581.574 1579.601 1577.806 1576.454 1573.773 1572.605 1571.744 1571.106 1570.053 1567.514 1565.551 1564.434 1562.734 1561.216 1560.453 1557.836 1555.417 1552.643 1550.241 1547.846 1542.984 1541.356 1540.761 1540.169 1539.531 1539.099 1538.986 1539.054 1538.978 1538.552 1537.784 1536.961 1534.27 1532.09 1530 1527.744 1525.256 1525.206 1526.29 1526.936 1527.369 1526.347 1522.857 1518.88 1512.755 1512.132 1511.813 1511.5 1511.102 1509.238 1507.011 1504.47 1502.543 1500.827 1500.312 1499.325 1498.134 1496.398 1494.65 1493.078 1491.877 1490.3 1489.303 1487.716 1486.215 1484.143 1479.171 1478.183 1477.303 1476.432 1474.848 1473.751 1474.645 1475.31 1476.083 1476.576 1476.272 1475.601 1476.819 1478.313 1479.778 1481.115 1482.547 
1592.085 1585.65 1583.83 1582.259 1580.919 1579.773 1578.429 1575.375 1574.172 1573.583 1573.053 1571.922 1570.179 1566.93 1565.386 1564.176 1563.302 1562.593 1559.921 1556.359 1553.061 1551.169 1547.846 1544.464 1540.4 1539.104 1537.944 1537.029 1536.745 1536.712 1537.361 1537.803 1537.827 1537.669 1537.392 1532.804 1530.528 1528.509 1526.691 1524.815 1523.462 1522.568 1522.575 1522.486 1521.338 1518.13 1512.184 1511.057 1510.606 1510.156 1509.504 1509.147 1507.342 1505.703 1503.888 1502.107 1500.579 1499.597 1497.995 1496.913 1495.785 1494.475 1493.209 1491.279 1490.376 1489.303 1487.958 1486.183 1483.874 1477.853 1476.263 1476.12 1475.386 1473.704 1473.166 1474.536 1475.417 1476.165 1476.535 1476.149 1475.521 1476.357 1477.593 1478.462 1478.63 1479.604 
1593.344 1586.24 1584.472 1583.673 1582.93 1581.783 1580.203 1577.168 1576.05 1575.33 1574.578 1573.481 1570.117 1567.737 1565.969 1565.064 1564.369 1563.749 1560.414 1557.094 1553.788 1551.169 1549.108 1546.624 1541.216 1539.162 1538.445 1537.777 1536.997 1536.171 1536.647 1537.306 1537.65 1537.603 1536.785 1532.318 1529.833 1528.084 1526.972 1525.588 1523.533 1520.15 1518.868 1517.373 1515.549 1513.549 1511.268 1510.624 1509.849 1509.059 1508.559 1508.123 1505.971 1505.059 1503.599 1502.116 1501.404 1500.582 1498.024 1496.62 1495.238 1493.927 1492.883 1490.95 1490.376 1489.319 1487.911 1485.569 1482.461 1477.938 1476.26 1475.326 1474.484 1473.155 1472.635 1474.354 1475.536 1476.292 1476.538 1476.206 1474.972 1475.456 1476.217 1476.436 1476.296 1477.043 
1595.685 1588.603 1586.748 1586.181 1585.219 1583.812 1582.086 1579.141 1577.645 1576.655 1575.974 1574.865 1570.68 1567.826 1565.427 1563.995 1563.218 1562.268 1559.532 1556.013 1553.788 1551.812 1550.128 1548.013 1542.72 1540.613 1539.567 1538.504 1537.83 1536.271 1536.145 1536.684 1537.086 1536.83 1535.685 1531.505 1529.485 1528.125 1527.043 1525.636 1523.833 1519.139 1517.313 1515.753 1514.41 1513.301 1511.063 1510.102 1509.303 1508.545 1507.909 1507.18 1505.497 1504.583 1503.423 1502.577 1501.901 1500.028 1498.574 1496.687 1494.65 1493.167 1492.883 1490.95 1490.106 1489.157 1487.709 1485.494 1483.35 1478.218 1476.733 1475.378 1474.188 1472.927 1472.548 1473.902 1475.268 1476.26 1476.634 1476.249 1474.402 1474.489 1474.648 1474.889 1475.72 1477.388 
1598.122 1592.53 1590.342 1588.99 1587.42 1585.317 1582.299 1580.73 1579.157 1577.496 1575.74 1574.656 1570.736 1566.876 1563.624 1562.306 1561.315 1560.495 1557.432 1556.013 1552.603 1551.164 1549.813 1546.905 1544.986 1542.042 1539.131 1537.496 1537.095 1535.351 1535.131 1535.005 1534.651 1534.646 1533.621 1530.401 1529.222 1527.986 1526.673 1525.37 1521.585 1519.193 1517.363 1516.242 1515.166 1513.955 1511.681 1510.138 1508.883 1508.119 1507.279 1506.45 1504.798 1503.773 1502.773 1502.168 1502.025 1500.08 1498.077 1495.597 1493.315 1493.167 1491.985 1490.282 1489.436 1488.522 1487.07 1484.924 1482.681 1478.506 1476.601 1475.367 1474.154 1472.784 1471.663 1472.938 1474.403 1475.697 1476.459 1476.178 1474.011 1474.153 1474.543 1475.55 1477.281 1480.099 
1600.347 1595.809 1593.707 1591.962 1589.746 1587.215 1583.706 1582.074 1579.984 1577.609 1575.345 1573.227 1569.6 1566.234 1562.917 1560.883 1559.706 1558.658 1557.432 1555.239 1552.397 1549.694 1548.717 1549.471 1546.313 1541.335 1538.074 1536.673 1535.918 1533.974 1533.405 1532.227 1530.844 1530.37 1529.518 1529.316 1528.512 1527.588 1526.531 1525.361 1522.008 1520.042 1518.266 1516.551 1515.035 1514.198 1511.963 1510.248 1508.638 1507.698 1506.994 1504.889 1503.985 1503.053 1501.88 1500.746 1500.809 1499.314 1497.112 1494.605 1493.315 1491.884 1490.924 1488.541 1487.768 1487.132 1485.811 1484.112 1480.934 1479.204 1477.115 1475.293 1474.178 1472.992 1470.751 1471.327 1472.722 1474.168 1474.835 1474.314 1473.02 1473.759 1475.202 1476.808 1479.454 1487.039 
1605.203 1599.226 1597.312 1595.855 1593.139 1590.048 1585.566 1583.599 1581.336 1578.77 1576.333 1574.372 1570.038 1567.038 1563.702 1561.383 1559.694 1557.84 1555.852 1553.603 1551.682 1549.353 1547.582 1549.405 1545.085 1539.677 1537.291 1536.081 1534.922 1532.907 1530.947 1528.398 1526.922 1526.75 1528.073 1528.095 1527.667 1527.137 1526.573 1525.817 1523.137 1521.027 1518.354 1516.011 1515.3 1514.385 1511.98 1510.892 1509.575 1507.953 1505.658 1504.16 1503.271 1502.45 1501.59 1500.466 1499.834 1497.426 1495.599 1494.605 1492.241 1490.672 1489.579 1487.474 1486.451 1485.488 1484.315 1483.285 1481.322 1479.97 1477.722 1475.52 1474.914 1474.511 1470.752 1470.081 1470.441 1471.071 1471.603 1471.422 1471.029 1473.33 1475.278 1477.393 1480.527 1487.937 
1608.016 1605.29 1602.812 1600.04 1596.832 1593.266 1586.953 1584.555 1582.135 1579.33 1577 1574.822 1569.628 1566.818 1564.2 1561.383 1559.694 1556.926 1555.282 1552.896 1550.51 1548.643 1546.99 1545.885 1541.486 1537.839 1536.451 1535.591 1534.4 1532.096 1529.619 1526.395 1524.547 1525.284 1527.099 1526.798 1526.794 1526.642 1526.274 1525.932 1524.79 1521.641 1517.9 1515.871 1514.981 1514.828 1512.978 1512.376 1510.644 1507.507 1505.509 1503.442 1502.665 1501.947 1501.442 1500.774 1499.085 1496.083 1495.599 1493.633 1491.467 1489.646 1487.446 1487.009 1486.418 1485.577 1484.626 1483.361 1481.504 1480.382 1478.281 1476.25 1476.24 1476.363 1472.019 1469.864 1469.249 1468.589 1466.841 1466.982 1469.08 1472.518 1474.936 1476.866 1479.57 1486.183 
1612.531 1611.147 1608.756 1604.539 1599.952 1596.014 1588.396 1585.252 1582.729 1580.168 1577.468 1572.482 1570.309 1567.871 1564.2 1561.59 1559.965 1557.395 1555.231 1552.724 1550.724 1549.619 1549.032 1541.959 1538.179 1536.87 1536.023 1534.832 1532.985 1531.613 1529.714 1527.097 1524.73 1524.487 1525.856 1525.872 1525.922 1526.048 1525.972 1525.176 1521.985 1517.819 1514.896 1514.337 1513.986 1513.809 1513.626 1513.076 1510.747 1507.002 1504.934 1502.781 1502.283 1501.735 1501.344 1500.506 1498.246 1496.083 1494.456 1492.631 1490.792 1489.357 1488.523 1488.771 1488.973 1488.896 1487.679 1484.822 1481.223 1480.303 1478.997 1477.671 1477.316 1477.158 1472.895 1470.201 1469.298 1467.84 1464.146 1464.59 1467.24 1470.754 1473.148 1474.863 1476.646 1483.361 
1615.057 1614.671 1612.477 1608.792 1603.568 1598.61 1590.327 1586.63 1584.052 1581.799 1578.76 1573.999 1571.585 1567.871 1565.223 1562.909 1561.365 1558.051 1555.53 1553.1 1551.606 1550.651 1549.454 1542.4 1538.923 1537.181 1535.816 1534.788 1532.888 1531.522 1529.687 1527.392 1525.322 1524.237 1523.796 1523.699 1523.199 1521.702 1519.508 1518.097 1514.815 1512.776 1511.873 1511.705 1512.049 1510.901 1510.499 1508.993 1506.223 1503.445 1502.098 1501.655 1501.316 1500.947 1500.218 1498.545 1498.246 1494.375 1492.869 1491.385 1490.199 1489.215 1489.422 1489.662 1489.834 1489.917 1489.027 1486.343 1480.638 1479.59 1478.881 1478.66 1477.638 1475.304 1472.885 1470.416 1468.995 1467.715 1464.881 1463.776 1466.096 1469.578 1472.266 1473.398 1475.482 1481.141 
1615.28 1615.571 1614.684 1611.467 1607.133 1601.981 1593.444 1589.235 1585.835 1583.335 1580.813 1575.032 1571.585 1569.082 1566.674 1564.492 1562.308 1557.57 1555.404 1553.271 1550.788 1548.763 1545.647 1541.931 1538.356 1536.792 1536.183 1535.411 1533.293 1531.811 1529.982 1528.155 1526.618 1525.265 1523.571 1522.277 1520.699 1519.297 1517.89 1515.489 1514.124 1513.206 1512.911 1511.843 1508.923 1505.306 1504.084 1502.953 1501.855 1500.625 1500.68 1500.724 1500.113 1498.432 1500.218 1498.545 1494.011 1492.074 1490.529 1489.388 1488.589 1488.25 1487.856 1487.549 1487.376 1487.17 1485.863 1483.174 1479.455 1478.645 1478.21 1478.096 1477.131 1474.325 1472.239 1470.214 1468.857 1467.469 1465.256 1463.921 1466.204 1469.197 1472.172 1474.961 1477.093 1481.001 
1615.05 1615.01 1614.345 1613.018 1609.96 1600.586 1596.495 1592.375 1588.398 1585.124 1582.256 1575.032 1572.434 1570.121 1567.928 1565.313 1562.687 1558.08 1555.969 1553.71 1551.284 1549.255 1545.25 1542.689 1540.007 1538.384 1537.441 1536.391 1534.078 1532.607 1530.922 1529.487 1528.384 1527.239 1525.634 1524.734 1523.033 1521.047 1519.98 1517.841 1516.813 1516.244 1515.658 1514.845 1513.544 1508.491 1506.878 1505.523 1503.465 1500.652 1498.695 1497.071 1495.238 1498.432 1496.175 1494.016 1490.611 1489.368 1487.706 1485.989 1484.799 1483.97 1482.032 1481.271 1480.718 1480.186 1479.101 1477.663 1477.669 1477.422 1477.212 1477.136 1476.535 1472.874 1470.916 1469.683 1468.626 1467.059 1464.572 1463.949 1466.251 1469.305 1472.344 1475.305 1477.882 1479.045 
1614.521 1614.303 1613.722 1612.886 1610.63 1602.823 1599.232 1595.515 1591.064 1586.989 1582.256 1575.919 1573.004 1571.154 1569.489 1566.633 1560.786 1558.873 1556.869 1554.585 1552.269 1550.059 1545.457 1543.275 1541.678 1540.278 1538.833 1537.135 1534.553 1533.33 1532.015 1530.822 1529.39 1526.232 1525.263 1524.584 1523.549 1522.794 1522.361 1520.775 1520.006 1519.28 1518.389 1517.56 1516.337 1513.642 1513.274 1512.344 1510.901 1508.795 1502.222 1498.589 1495.238 1493.082 1491.296 1489.773 1487.636 1486.012 1483.761 1481.852 1480.207 1478.33 1476.455 1475.681 1474.942 1474.522 1474.157 1473.434 1473.361 1473.735 1474.262 1474.251 1473.64 1469.759 1468.491 1467.929 1467.46 1466.426 1464.156 1463.775 1465.47 1467.998 1470.885 1473.808 1476.35 1477.402 
1613.676 1612.947 1612.096 1610.958 1609.278 1603.991 1601.032 1597.734 1593.509 1586.989 1583.915 1577.28 1574.564 1573.318 1572.235 1569.499 1561.797 1559.539 1558.103 1556.295 1553.384 1550.714 1546.184 1544.377 1542.79 1541.317 1539.731 1537.803 1535.339 1534.538 1533.517 1532.453 1531.078 1527.398 1526.027 1525.621 1525.241 1524.985 1524.787 1524.238 1523.209 1521.889 1521.035 1520.383 1519.632 1518.347 1517.995 1517.319 1516.67 1515.821 1511.259 1498.589 1496 1494.72 1493.515 1491.737 1488.398 1486.93 1484.878 1483.461 1481.599 1478.699 1475.866 1475.04 1474.357 1473.916 1473.322 1471.421 1470.363 1469.874 1469.827 1469.217 1467.565 1466.352 1466.397 1466.556 1466.466 1465.768 1463.335 1463.556 1465.065 1467.113 1468.798 1471.033 1474.516 1476.008 
1612.216 1610.66 1609.967 1608.826 1607.345 1603.713 1601.469 1597.734 1593.509 1589.104 1585.719 1580.633 1578.724 1577.242 1575.742 1573.171 1565.087 1562.052 1560.214 1558.139 1555.182 1551.53 1547.037 1545.549 1544.011 1542.439 1540.766 1537.434 1536.625 1536.087 1535.157 1534.109 1533.264 1531.357 1530.305 1529.423 1529.217 1528.584 1527.819 1526.526 1525.356 1524.098 1523.189 1522.914 1522.547 1522.406 1522.433 1522.254 1521.751 1520.929 1511.259 1505.437 1501.063 1499.966 1498.526 1496.55 1494.181 1492.45 1490.604 1489.387 1487.864 1482.357 1479.955 1478.226 1477.426 1477.264 1476.321 1474.123 1473.027 1471.086 1468.838 1466.97 1464.153 1464.397 1464.854 1465.284 1465.439 1465.085 1463.409 1463.448 1464.219 1465.015 1465.858 1468.023 1472.736 1474.221 
1610.55 1608.863 1607.584 1606.485 1605.171 1602.354 1601.469 1598.977 1595.563 1591.067 1584.667 1583.974 1583.604 1582.323 1580.096 1577.284 1570.634 1566.85 1563.5 1560.688 1557.856 1554.018 1548.527 1547.12 1545.63 1544.065 1542.561 1539.479 1538.52 1537.583 1536.349 1535.394 1534.796 1534.797 1534.87 1534.909 1534.662 1532.894 1531.314 1528.527 1527.169 1526.096 1525.502 1525.41 1525.558 1525.505 1525.564 1525.679 1525.676 1520.929 1516.533 1512.834 1509.165 1506.605 1504.221 1501.992 1500.953 1500.33 1498.198 1494.953 1493.088 1488.258 1485.963 1484.69 1484.057 1483.673 1482.797 1479.193 1477.252 1475.076 1472.245 1468.943 1463.808 1463.689 1464.046 1464.393 1464.698 1464.693 1463.848 1463.467 1463.256 1463.304 1463.911 1465.788 1470.188 1471.957 
1608.478 1606.61 1605.169 1603.831 1602.495 1602.354 1600.824 1598.933 1596.82 1594.459 1587.149 1586.786 1587.398 1587.202 1585.009 1581.84 1576.079 1572.823 1568.761 1564.828 1561.451 1554.221 1550.888 1548.638 1547.083 1545.829 1544.672 1541.989 1540.646 1539.22 1537.499 1536.682 1536.923 1537.589 1538.144 1538.286 1537.489 1536.098 1532.975 1531.211 1529.544 1528.337 1527.544 1527.23 1527.186 1526.865 1526.973 1526.849 1525.676 1525.467 1520.726 1516.914 1514.581 1513.179 1510.549 1508.339 1508.106 1506.968 1503.549 1499.623 1497.875 1493.197 1491.701 1491.266 1491.08 1490.689 1489.699 1486.328 1482.972 1479.595 1476.395 1472.627 1465.478 1464.039 1463.759 1463.98 1464.266 1464.42 1463.683 1463.111 1462.903 1462.909 1463.399 1464.449 1467.839 1469.237 
1604.696 1603.428 1602.324 1601.068 1601.24 1599.965 1598.622 1597.091 1595.21 1593.051 1589 1588.287 1588.392 1588.325 1587.454 1585.704 1581.152 1578.021 1574.404 1570.366 1566.238 1558.715 1554.865 1551.532 1549.182 1547.796 1546.893 1544.97 1543.878 1542.901 1541.581 1540.301 1539.686 1539.703 1539.891 1539.674 1538.633 1537.571 1534.521 1533.231 1531.916 1530.487 1529.431 1528.777 1527.781 1527.383 1526.973 1526.849 1526.515 1525.905 1523.333 1520.265 1517.097 1514.977 1514.315 1514.208 1514.13 1512.381 1508.469 1504.696 1502.636 1498.002 1496.949 1496.582 1496.586 1496.327 1494.926 1490.622 1487.873 1483.951 1479.443 1475.557 1467.683 1464.894 1463.618 1463.576 1463.693 1463.882 1463.099 1462.515 1462.401 1462.503 1462.799 1464.731 1465.806 1466.947 
1600.077 1599.737 1599.078 1601.068 1598.542 1597.344 1595.866 1594.076 1592.117 1590.054 1587.475 1587.303 1587.294 1587.254 1587.158 1587.012 1585.488 1582.543 1578.759 1575.273 1571.747 1563.967 1560.53 1557.068 1553.743 1551.128 1549.245 1548.135 1547.945 1547.649 1547.088 1545.852 1542.992 1541.847 1541.149 1540.356 1539.464 1538.375 1535.952 1534.856 1533.632 1532.065 1530.76 1529.665 1527.874 1527.383 1527.1 1526.828 1525.992 1524.277 1523.153 1521.077 1518.701 1517.173 1516.152 1515.374 1514.879 1514.287 1513.052 1510.572 1507.516 1501.656 1500.784 1500.999 1501.091 1500.913 1496.307 1492.882 1489.927 1485.898 1480.71 1476.439 1468.007 1464.896 1463.286 1463.091 1462.903 1462.809 1462.296 1461.823 1461.7 1461.777 1461.881 1463.008 1463.48 1464.5 
1595.285 1595.825 1599.078 1598.083 1595.695 1594.211 1592.519 1590.603 1588.446 1586.676 1584.947 1584.711 1584.432 1584.259 1584.271 1584.932 1585.356 1584.244 1580.828 1577.084 1575.558 1569.727 1566.368 1563.042 1559.876 1556.858 1554.026 1551.365 1551.498 1551.285 1550.558 1549.345 1545.601 1543.615 1542.14 1541.177 1540.293 1539.486 1537.362 1536.192 1534.944 1533.406 1531.414 1529.988 1527.874 1527.269 1526.745 1525.898 1525.056 1523.457 1522.45 1521.124 1519.619 1518.27 1517.223 1515.641 1515.112 1514.656 1514.178 1513.537 1511.778 1505.797 1504.467 1504.448 1503.801 1502.546 1497.001 1493.161 1489.407 1484.895 1479.727 1475.737 1469.184 1466.249 1465.672 1465.579 1463.751 1461.757 1461.538 1461.236 1460.987 1460.881 1461.122 1461.965 1462.568 1463.584 
1589.635 1595.825 1595.517 1594.755 1592.359 1590.873 1589.209 1587.418 1585.653 1584.202 1581.742 1580.759 1580.101 1579.875 1580.035 1580.992 1581.327 1581.239 1579.768 1577.424 1576.959 1574.436 1571.617 1568.255 1564.923 1561.745 1556.994 1555.061 1553.905 1553.041 1551.46 1549.601 1545.875 1544.072 1542.518 1541.275 1540.477 1540.328 1538.174 1536.996 1535.47 1533.45 1531.475 1528.757 1527.682 1526.442 1525.318 1524.738 1524.09 1522.594 1521.786 1520.846 1519.841 1518.817 1517.706 1515.697 1514.469 1513.671 1513.659 1513.476 1511.033 1508.287 1506.641 1505.82 1504.572 1502.366 1496.143 1492.019 1487.958 1484.003 1479.561 1476.013 1472.476 1471.675 1471.292 1470.929 1467.655 1462.699 1461.449 1460.658 1460.347 1460.089 1459.922 1460.932 1461.674 1462.581 
1589.635 1591.449 1591.952 1591.269 1589.26 1587.816 1586.235 1584.662 1583.31 1580.38 1578.583 1576.645 1575.189 1574.908 1575.786 1577.045 1577.497 1577.737 1577.734 1577.595 1577.105 1576.307 1575.217 1572.456 1568.666 1565.152 1560.098 1557.358 1555.213 1553.419 1551.107 1549.308 1545.919 1543.701 1541.843 1540.414 1539.557 1538.937 1538.038 1536.965 1535.491 1533.233 1531.475 1528.265 1527.018 1525.808 1524.767 1523.94 1523.001 1521.801 1521.166 1520.448 1519.654 1518.844 1517.931 1515.25 1513.541 1512.455 1512.189 1511.746 1510.583 1508.958 1507.402 1505.683 1503.628 1501.462 1495.66 1492.247 1488.679 1484.712 1480.103 1476.153 1475.573 1476.446 1477.033 1476.373 1473.065 1465.291 1464.494 1463.122 1460.172 1459.531 1459.124 1459.544 1461.674 1462.581 
1586.397 1588.369 1588.937 1588.402 1586.262 1584.886 1583.398 1581.991 1580.653 1577.447 1575.694 1573.815 1572.311 1571.874 1572.202 1573.454 1574.087 1574.808 1575.459 1575.528 1574.971 1575.141 1575.002 1573.269 1569.717 1565.708 1560.835 1557.856 1554.864 1552.619 1550.893 1549.079 1546.583 1543.48 1539.67 1538.113 1537.543 1537.08 1536.75 1535.889 1534.395 1533.233 1530.524 1527.125 1526.054 1525.105 1524.239 1523.401 1522.661 1521.447 1520.72 1520.021 1519.321 1518.519 1516.654 1515.106 1513.641 1512.854 1512.317 1511.736 1511.288 1510.372 1508.153 1504.615 1501.4 1499.483 1494.872 1492.337 1489.563 1486.511 1483.201 1478.672 1479.663 1480.694 1480.668 1478.732 1475.573 1469.005 1467.43 1466.143 1463.151 1459.628 1458.771 1459.544 1460.108 1460.798 
1585.222 1586.76 1586.755 1584.486 1583.232 1581.855 1580.611 1579.327 1578.121 1575.291 1573.636 1571.858 1570.549 1570.036 1569.203 1570.058 1570.482 1571.318 1572.026 1571.98 1571.412 1571.56 1571.594 1570.986 1568.805 1565.427 1560.583 1558.627 1555.593 1552.272 1550.65 1548.492 1544.315 1541.556 1538.37 1536.8 1536.392 1535.776 1535.34 1534.909 1534.395 1532.204 1528.936 1525.158 1524.613 1524.318 1523.69 1523.117 1522.788 1521.48 1520.52 1519.529 1518.657 1517.75 1516.225 1515.424 1514.534 1513.741 1513.303 1513.189 1512.952 1512.147 1509.989 1506.156 1501.755 1499.432 1495.127 1492.314 1489.325 1487.073 1485.803 1483.469 1484.297 1485.27 1484.669 1481.403 1477.568 1471.792 1469.705 1467.664 1464.949 1462 1458.402 1458.531 1458.881 1459.198 
1583.322 1584.437 1584.154 1582.083 1580.253 1578.597 1577.64 1576.557 1575.746 1573.225 1571.933 1570.521 1568.722 1566.801 1565.292 1566.181 1566.512 1567.01 1567.395 1567.538 1567.02 1566.593 1566.506 1566.54 1566.028 1564.473 1560.055 1558.329 1555.911 1552.437 1549.779 1548.062 1546.365 1543.602 1539.702 1537.788 1536.871 1535.513 1535.34 1534.909 1534.049 1532.179 1530.212 1525.862 1525.07 1524.522 1524.033 1523.675 1522.861 1521.947 1520.489 1518.715 1517.059 1516.328 1515.341 1514.915 1514.516 1514.097 1513.737 1513.602 1513.697 1513.382 1511.51 1507.943 1504.096 1498.868 1497.233 1495.053 1492.041 1489.675 1488.78 1487.937 1488.958 1489.545 1488.736 1485.51 1480.42 1473.593 1471.424 1469.097 1466.51 1462 1457.964 1457.565 1457.365 1457.531 
1578.302 1580.929 1581.198 1578.468 1576.648 1575.369 1574.627 1573.861 1573.033 1571.096 1569.783 1568.221 1566.122 1563.411 1561.85 1562.42 1562.624 1562.608 1562.646 1562.959 1562.908 1561.966 1561.682 1562.63 1563.15 1562.449 1559.541 1559.056 1557.551 1554.467 1551.2 1549.001 1547.578 1545.217 1542.815 1540.528 1538.573 1535.513 1535.141 1534.744 1534.017 1532.582 1530.85 1527.534 1526.467 1525.681 1525.264 1524.824 1523.519 1522.307 1520.622 1518.143 1515.282 1514.006 1513.746 1513.826 1513.816 1513.667 1513.555 1513.524 1514.049 1513.824 1511.752 1508.703 1505.282 1500.411 1499.58 1498.282 1495.748 1493.147 1491.989 1492.12 1492.741 1492.32 1490.796 1488.293 1483.809 1476.029 1473.72 1471.418 1466.51 1463.757 1459.468 1458.208 1457.005 1456.18 
1575.122 1578.031 1578.267 1574.947 1573.345 1572.443 1571.857 1570.995 1569.604 1568.154 1566.955 1565.783 1564.406 1562.896 1559.943 1559.469 1559.492 1559.315 1558.891 1558.779 1558.937 1558.379 1558.205 1559.058 1559.779 1560.174 1561.122 1561.331 1559.728 1556.33 1554.171 1550.885 1549.753 1548.005 1545.79 1543.828 1538.573 1536.985 1536.562 1535.941 1534.88 1533.096 1529.923 1528.786 1527.925 1527.163 1526.479 1525.913 1524.129 1523.122 1521.664 1518.81 1514.875 1512.858 1512.35 1512.397 1512.381 1512.208 1512.494 1512.506 1512.591 1511.986 1510.766 1508.907 1505.673 1501.907 1501.08 1500.339 1498.766 1496.656 1495.846 1495.881 1496.09 1495.154 1492.895 1490.322 1483.161 1479.538 1476.571 1471.418 1468.595 1465.771 1461.641 1459.691 1457.916 1456.674 
1574.776 1576.524 1576.753 1574.77 1572.938 1571.669 1570.12 1567.578 1564.778 1564.7 1564.634 1564.86 1564.403 1563.174 1559.542 1556.91 1555.834 1555.86 1554.884 1554.816 1554.473 1553.71 1553.397 1554.625 1556.454 1559.197 1561.791 1562.591 1561.248 1559.119 1556.916 1552.779 1551.5 1549.711 1548.173 1543.828 1542.589 1539.824 1538.175 1536.75 1535.473 1533.969 1529.94 1528.519 1527.655 1527.005 1526.692 1526.656 1525.547 1524.678 1523.009 1519.711 1515.812 1514.758 1512.646 1511.989 1511.513 1510.569 1509.313 1508.443 1508.42 1507.552 1506.669 1506.392 1505.395 1502.406 1502.319 1501.985 1500.843 1500.054 1499.48 1499.432 1500.103 1499.16 1495.701 1491.049 1486.785 1483.585 1476.571 1474.047 1471.417 1468.437 1463.803 1461.988 1459.809 1457.582 
1574.403 1575.696 1576.302 1575.09 1573.764 1571.887 1568.937 1564.989 1561.36 1561.92 1562.658 1563.528 1563.812 1562.815 1559.494 1557.118 1554.079 1551.177 1550.457 1550.597 1550.338 1549.44 1549.238 1550.889 1552.724 1555.757 1558.414 1559.943 1559.953 1559.36 1556.397 1553.275 1552.157 1550.975 1548.173 1547.878 1548.324 1544.139 1540.963 1538.78 1536.88 1535.194 1529.029 1526.988 1526.456 1526.123 1526.183 1526.129 1525.849 1524.983 1522.89 1519.724 1517.221 1515.404 1514.377 1513.164 1511.294 1507.985 1504.887 1501.867 1502.469 1502.472 1502.083 1502.092 1502.234 1502.376 1502.787 1502.473 1501.957 1502.035 1501.662 1501.96 1502.038 1500.861 1498.285 1495.233 1486.785 1483.585 1480.28 1477.152 1474.49 1471.636 1466.098 1463.905 1461.539 1458.836 
1574.425 1575.931 1576.194 1575.711 1574.547 1571.964 1568.275 1565.036 1560.936 1560.464 1560.969 1562.316 1562.989 1561.79 1557.784 1555.632 1552.792 1550.164 1548.917 1548.14 1547.834 1546.732 1546.487 1547.904 1549.206 1551.618 1553.1 1553.969 1554.538 1555.739 1554.678 1553.115 1552.493 1550.975 1550.169 1550.735 1550.705 1548.466 1545.066 1541.556 1538.632 1535.755 1528.747 1525.475 1524.287 1524.773 1525.347 1525.631 1524.842 1523.734 1521.902 1519.11 1516.204 1514.83 1514.276 1513.647 1511.731 1507.282 1503.654 1500.088 1498.984 1497.836 1497.602 1497.668 1497.953 1499.163 1499.679 1500.303 1500.906 1501.299 1500.881 1500.596 1499.92 1498.4 1496.181 1495.233 1490.213 1487.944 1484.568 1480.53 1477.102 1474.219 1467.461 1465.044 1462.803 1460.21 
1574.383 1576.519 1576.462 1575.918 1574.958 1572.831 1569.37 1566.053 1561.572 1560.506 1560.398 1561.381 1562.116 1560.953 1555.92 1553.568 1551.862 1550.691 1549.189 1545.734 1545.45 1544.247 1543.409 1544.952 1545.799 1547.896 1548.93 1549.839 1550.547 1551.015 1551.963 1552.566 1552.493 1552.036 1551.887 1551.895 1551.692 1550.647 1547.87 1544.016 1540.427 1537.17 1529.245 1525.735 1523.852 1523.21 1523.537 1523.799 1522.903 1521.274 1519.376 1516.877 1514.105 1513.315 1512.967 1512.197 1510.262 1506.867 1503.364 1500.994 1499.31 1496.907 1494.424 1491.419 1492.269 1493.668 1494.661 1495.357 1495.823 1496.092 1495.343 1494.563 1493.486 1492.077 1496.181 1493.839 1491.402 1490.27 1486.979 1481.762 1477.961 1471.224 1468.265 1465.833 1463.508 1461.171 
1574.356 1577.243 1576.474 1576.032 1575.092 1572.925 1569.579 1566.299 1561.57 1559.815 1558.702 1559.327 1560.269 1556.311 1553.421 1551.008 1549.491 1549.058 1547.953 1543.608 1541.294 1539.912 1539.959 1541.468 1542.769 1544.651 1545.353 1545.831 1546.61 1547.77 1552.532 1552.566 1552.194 1552 1552.356 1552.578 1552.021 1551.351 1549.632 1546.286 1542.259 1538.585 1529.365 1525.474 1523.407 1521.591 1520.079 1520.26 1519.665 1518.276 1516.381 1514.26 1512.484 1511.29 1510.806 1509.345 1506.917 1503.722 1501.201 1499.071 1497.051 1494.444 1490.971 1489.047 1487.118 1488.425 1489.581 1489.989 1489.884 1489.817 1488.584 1487.655 1486.332 1492.077 1490.398 1489.133 1488.9 1487.801 1484.747 1480.285 1476.488 1471.975 1469.525 1467.033 1464.77 1462.697 
1574.472 1577.088 1576.321 1575.801 1574.751 1572.509 1569.206 1565.89 1560.963 1558.88 1557.616 1559.008 1560.829 1557.088 1553.087 1550.219 1548.44 1546.867 1545.651 1542.166 1539.709 1537.567 1537.273 1539.054 1540.285 1540.533 1540.723 1540.977 1541.419 1547.77 1548.963 1549.495 1550.346 1551.18 1551.817 1552.37 1552.405 1552.074 1551.11 1548.424 1544.093 1539.977 1529.842 1525.466 1523.505 1521.517 1518.673 1515.53 1515.828 1515.345 1514.108 1512.599 1511.139 1510.188 1509.282 1507.349 1504.593 1502.174 1499.82 1498.217 1495.061 1492.167 1490.343 1488.164 1486.496 1486.292 1486.188 1486.385 1486.139 1484.019 1480.371 1479.446 1486.332 1484.69 1482.751 1481.631 1481.471 1480.247 1478.105 1475.978 1474.358 1471.553 1469.934 1467.858 1465.81 1464.04 
1573.817 1575.895 1576.436 1575.695 1573.951 1571.385 1568.197 1561.755 1560.766 1557.728 1554.572 1557.585 1561.464 1558.049 1554.62 1551.765 1549.061 1546.881 1544.897 1540.811 1539.057 1536.999 1535.928 1537.16 1537.551 1536.714 1536.562 1536.696 1541.419 1542.259 1545.021 1546.459 1547.985 1549.483 1550.585 1551.58 1552.337 1552.551 1551.977 1549.593 1545.706 1536.672 1531.687 1527.391 1524.639 1522.144 1518.928 1512.321 1512.63 1512.657 1512.07 1511.358 1511.163 1510.291 1509.35 1507.559 1505.029 1503.467 1501.805 1500.338 1498.527 1495.596 1492.18 1490.448 1489.331 1488.014 1486.297 1484.837 1482.627 1478.531 1474.084 1479.446 1477.706 1475.454 1474.08 1474.424 1474.116 1473.556 1472.886 1472.345 1471.41 1469.365 1468.272 1467.085 1465.644 1464.103 
1571.433 1573.924 1576.143 1575.458 1573.35 1570.346 1567.083 1561.05 1557 1552.202 1551.374 1556.339 1560.4 1558.066 1553.995 1551.154 1549.736 1547.418 1544.794 1539.513 1537.53 1535.807 1534.472 1534.88 1534.807 1533.812 1533.281 1536.696 1536.509 1536.385 1540.317 1542.873 1544.967 1547.211 1549.027 1550.87 1551.929 1552.133 1551.894 1550.34 1546.976 1538.144 1534.106 1529.861 1526.418 1523.052 1518.089 1512.184 1511.859 1511.82 1512.095 1511.835 1511.904 1511.614 1510.624 1509.501 1508.948 1508.297 1504.222 1501.696 1499.563 1497.107 1495.417 1494.554 1493.666 1492.042 1490.157 1488.934 1487.753 1475.336 1474.084 1473.61 1473.099 1472.875 1473.018 1471.281 1470 1469.454 1468.923 1468.692 1468.096 1467.293 1466.658 1465.659 1464.513 1463.053 
1567.837 1573.769 1575.05 1574.759 1572.872 1569.744 1566.354 1559.114 1553.686 1549.349 1549.412 1553.389 1558.086 1555.56 1553.594 1551.493 1549.724 1548.196 1542.581 1539.719 1537.085 1534.915 1533.148 1532.627 1531.241 1530.748 1533.281 1533.223 1533.212 1534.069 1537.413 1539.291 1541.651 1544.792 1547.645 1551.549 1551.76 1551.309 1550.686 1549.438 1546.814 1539.072 1535.012 1530.359 1526.361 1522.771 1517.912 1512.168 1512.412 1513.525 1514.007 1513.427 1513.807 1513.045 1512.229 1512.619 1513.068 1512.739 1509.156 1503.798 1499.446 1498.287 1498.442 1499.223 1499.265 1497.596 1495.073 1493.088 1487.753 1479.375 1476.298 1474.554 1473.806 1473.62 1473.371 1470.375 1467.58 1465.356 1465.005 1464.895 1464.888 1465.209 1465.001 1464.16 1462.523 1460.187 
1564.322 1571.403 1573.044 1573.046 1571.616 1569.009 1565.564 1557.827 1552.82 1549.26 1548.697 1550.295 1554.136 1553.381 1552.462 1551.875 1551.257 1549.222 1543.195 1540.36 1538.216 1535.758 1532.649 1530.606 1528.21 1530.748 1530.044 1529.454 1529.98 1531.291 1534.356 1535.906 1538.299 1542.1 1547.019 1551.764 1551.588 1550.554 1549.337 1547.26 1544.433 1537.531 1533.199 1528.392 1524.747 1522.291 1518.651 1515.148 1515.885 1516.943 1517.155 1516.946 1516.308 1515.606 1515.112 1515.62 1516.065 1515.09 1511.776 1506.554 1501.611 1499.697 1501.502 1504.175 1503.933 1502.466 1500.467 1493.088 1491.631 1485.492 1481.545 1479.013 1477.978 1476.744 1474.912 1470.757 1467.6 1464.541 1463.546 1463.165 1462.964 1463.113 1463.211 1462.4 1460.431 1457.934 
1562.491 1569.128 1570.642 1570.614 1569.263 1567.216 1564.669 1557.449 1553.004 1549.75 1548.605 1549.294 1552.065 1551.568 1551.005 1551.043 1551.171 1549.572 1543.989 1541.418 1539.084 1536.654 1533.706 1528.808 1528.21 1527.466 1526.484 1525.778 1526.506 1530.65 1532.62 1534.557 1537.531 1542.123 1546.79 1551.22 1550.737 1549.712 1547.982 1544.877 1541.094 1534.088 1529.795 1525.773 1523.497 1522.276 1520.384 1520.173 1520.881 1522.198 1522.098 1521.25 1519.367 1518.981 1519.236 1520.383 1520.794 1519.635 1513.373 1509.537 1505.692 1504.214 1506.466 1509.065 1508.672 1507.055 1500.467 1498.26 1495.92 1490.253 1487.205 1484.755 1482.988 1480.568 1477.771 1474.625 1471.381 1467.614 1465.848 1464.768 1462.429 1462.077 1461.896 1460.988 1459.785 1458.276 
1561.116 1566.655 1567.84 1567.708 1566.633 1565.191 1563.825 1557.657 1553.988 1550.829 1548.911 1548.947 1550.655 1550.334 1550.052 1549.911 1549.658 1548.331 1543.666 1541.399 1539.518 1537.11 1533.706 1528.808 1525.747 1524.843 1523.528 1523.392 1524.16 1529.548 1532.619 1535.424 1538.657 1542.87 1546.894 1551.814 1550.865 1548.468 1545.983 1542.402 1538.316 1532.974 1529.465 1526.223 1525.119 1524.781 1523.168 1523.707 1525.459 1526.775 1526.118 1524.789 1522.112 1521.582 1522.308 1524.131 1525.151 1519.146 1514.586 1511.185 1509.163 1509.676 1512.357 1514.152 1513.572 1507.055 1504.827 1502.63 1500.445 1495.51 1492.561 1490.382 1488.745 1485.432 1478.239 1475.401 1472.823 1470.326 1467.765 1466.036 1463.009 1462.159 1461.627 1461.09 1460.316 1459.476 
1558.803 1563.751 1564.613 1564.547 1563.906 1563.241 1560.415 1557.151 1553.852 1551.056 1548.701 1547.329 1549.694 1549.284 1548.168 1547.415 1547.338 1546.124 1541.633 1539.87 1538.491 1537.11 1533.098 1524.885 1523.439 1521.683 1520.215 1521.432 1523.068 1530.26 1534.345 1537.75 1540.378 1543.477 1546.603 1551.323 1550.834 1548.339 1544.675 1540.619 1535.776 1534.795 1533.464 1531.938 1530.589 1529.549 1525.853 1527.161 1529.34 1530.047 1529.75 1528.186 1524.664 1523.775 1524.193 1526.001 1527.088 1520.062 1514.685 1511.912 1512.161 1514.238 1516.601 1518.134 1513.572 1511.795 1509.465 1507.196 1505.013 1501.147 1499.159 1496.26 1492.914 1489.419 1480.891 1477.364 1474.21 1471.292 1468.482 1465.643 1463.079 1462.835 1462.525 1462.053 1461.662 1461.157 
