NCOLS 44
NROWS 94
XLLCORNER 364845.66
YLLCORNER 3986831.5
CELLSIZE 10
NODATA_VALUE -9999
1492.62 1493.933 1495.238 1496.144 1496.513 1495.904 1495.062 1494.133 1492.982 1491.69 1489.089 1488.129 1487.483 1486.978 1487.034 1489.584 1492.287 1495.27 1497.929 1500.067 1503.301 1505.048 1507.352 1509.865 1512.298 1516.158 1517.992 1520.042 1522.055 1523.835 1527.405 1529.341 1531.124 1532.732 1534.2 1537.057 1538.151 1539.013 1539.451 1539.501 1539.418 1539.772 1540.144 1541.615 
1489.695 1490.958 1492.068 1492.699 1492.929 1492.826 1492.261 1491.457 1490.38 1489.195 1487.279 1486.678 1486.366 1486.723 1487.528 1490.747 1493.474 1496.348 1499.049 1501.152 1504.297 1506.012 1508.39 1510.839 1513.028 1517.003 1519.223 1521.651 1523.835 1525.802 1529.7 1531.868 1533.893 1535.735 1537.524 1541.316 1542.691 1543.518 1543.929 1543.8 1542.523 1542.563 1543.131 1544.576 
1487.082 1488.609 1489.595 1490.245 1490.669 1490.565 1490.007 1489.054 1487.928 1487.014 1485.581 1485.663 1486.374 1487.373 1488.478 1492.018 1494.586 1497.328 1499.912 1501.926 1504.944 1506.864 1509.113 1511.394 1513.514 1517.619 1520.182 1522.822 1525.266 1527.517 1531.876 1534.333 1536.711 1539.219 1542.085 1546.751 1547.832 1548.251 1548.465 1547.999 1545.222 1544.49 1545.024 1546.052 
1483.966 1485.564 1486.918 1487.874 1488.437 1488.26 1487.36 1486.073 1485.012 1484.158 1483.984 1485.245 1486.513 1487.718 1489.226 1493.068 1495.596 1498.131 1500.425 1502.301 1505.368 1507.245 1509.342 1511.395 1513.434 1517.809 1520.491 1523.259 1525.905 1528.442 1533.814 1536.581 1539.828 1543.395 1546.92 1551.117 1551.672 1551.651 1551.333 1550.495 1547.422 1546.186 1545.905 1546.771 
1480.805 1482.24 1483.577 1484.467 1484.77 1483.904 1482.727 1481.471 1480.375 1479.785 1482.93 1485.497 1487.148 1488.41 1489.953 1493.765 1496.131 1498.477 1500.596 1502.399 1505.572 1507.31 1509.253 1511.103 1513.021 1517.598 1520.248 1522.943 1525.779 1528.69 1535.139 1538.635 1542.698 1546.969 1550.325 1553.339 1553.487 1552.842 1551.925 1551.048 1549.061 1548.711 1548.323 1547.953 
1478.227 1479.504 1480.193 1480.534 1480.575 1479.425 1478.23 1477.161 1476.819 1477.423 1482.907 1485.665 1487.609 1489.141 1490.657 1494.2 1496.451 1498.587 1500.549 1502.356 1505.542 1507.163 1508.92 1510.639 1512.378 1517.079 1519.852 1522.504 1525.141 1528.202 1535.688 1539.776 1544.518 1548.947 1552.066 1554.429 1554.097 1552.84 1551.752 1551.043 1549.646 1549.15 1548.523 1548.459 
1475.971 1477.332 1478.238 1478.368 1477.884 1476.091 1475.491 1475.32 1475.723 1477.162 1482.537 1485.198 1487.54 1489.44 1491.082 1494.494 1496.494 1498.495 1500.377 1502.126 1505.292 1507.142 1508.714 1510.18 1511.601 1516.302 1519.709 1522.38 1524.748 1527.932 1535.388 1539.667 1545.259 1549.803 1552.625 1554.693 1553.989 1552.755 1551.881 1551.245 1549.709 1548.881 1547.775 1547.725 
1474.479 1475.583 1476.186 1476.079 1475.62 1474.871 1474.57 1475.403 1476.744 1478.228 1483.114 1485.493 1487.676 1489.567 1491.214 1494.538 1496.413 1498.179 1499.858 1501.555 1505.07 1507.061 1508.793 1510.242 1511.503 1516.447 1520.003 1522.859 1525.533 1528.697 1535.212 1539.48 1545.896 1550.637 1552.927 1554.193 1553.56 1552.667 1551.892 1551.235 1549.803 1548.775 1547.498 1547.089 
1471.719 1473.677 1474.609 1474.656 1474.113 1473.991 1474.956 1475.954 1477.418 1479.349 1483.44 1485.635 1487.663 1489.517 1491.227 1494.662 1496.362 1497.816 1499.226 1500.842 1504.88 1507.267 1509.258 1510.766 1512.294 1517.578 1520.868 1523.807 1526.68 1529.739 1535.833 1540.475 1546.826 1551.501 1553.316 1553.463 1553.039 1552.331 1551.615 1550.981 1549.712 1548.484 1547.498 1547.089 
1469.281 1470.4 1471.66 1472.531 1473.169 1473.988 1474.923 1476.04 1477.809 1481.845 1483.927 1485.693 1487.47 1489.318 1492.96 1494.852 1496.266 1497.586 1498.927 1500.434 1504.957 1507.744 1509.811 1511.405 1513.379 1518.964 1522.069 1525 1527.877 1530.819 1536.847 1542.045 1547.831 1551.734 1553.07 1552.922 1552.486 1551.811 1551.188 1550.648 1549.712 1548.484 1547.187 1546.534 
1467.395 1468.923 1470.408 1471.602 1473.465 1474.465 1475.431 1476.626 1478.464 1482.75 1484.404 1485.856 1487.355 1489.172 1493.242 1495.083 1496.564 1497.81 1498.978 1502.756 1505.711 1508.561 1510.702 1512.484 1517.321 1520.256 1523.161 1526.005 1528.891 1531.807 1538.324 1543.443 1548.61 1551.607 1552.447 1552.275 1551.783 1551.239 1550.703 1550.648 1549.323 1547.993 1546.483 1545.665 
1468.418 1469.984 1471.423 1472.657 1474.808 1475.851 1476.965 1478.417 1480.193 1483.848 1485.21 1486.557 1487.987 1489.73 1494.085 1495.866 1497.24 1498.445 1499.43 1503.739 1507.01 1509.776 1511.993 1513.909 1518.433 1521.281 1523.992 1526.748 1529.653 1535.846 1539.826 1544.696 1549.257 1551.767 1552.308 1551.829 1551.189 1551.239 1550.703 1550.225 1548.63 1547.229 1545.774 1544.686 
1470.167 1471.565 1472.785 1474.032 1476.393 1477.709 1479.2 1480.793 1482.403 1485.219 1486.592 1487.921 1489.467 1491.32 1495.523 1497.036 1498.348 1499.535 1500.728 1505.653 1508.751 1511.467 1513.479 1515.14 1519.446 1521.962 1524.394 1527.152 1530.213 1536.678 1540.92 1545.655 1549.813 1551.888 1551.712 1551.829 1551.189 1550.621 1550.187 1548.936 1547.765 1546.405 1545.111 1543.78 
1471.953 1473.295 1474.532 1475.703 1478.571 1480.11 1481.579 1483.117 1484.549 1487.025 1488.426 1489.962 1491.715 1493.623 1497.181 1498.586 1499.95 1501.225 1502.783 1507.979 1510.774 1513.034 1514.717 1516.064 1520.177 1522.367 1524.518 1527.201 1530.394 1537.015 1541.326 1546.329 1550.241 1551.888 1551.712 1551.13 1550.498 1550.033 1549.5 1547.868 1546.759 1545.506 1544.14 1542.66 
1474.025 1475.253 1476.561 1478.032 1481.08 1482.566 1483.975 1485.384 1486.743 1489.117 1490.576 1492.395 1494.258 1496.077 1499.127 1500.434 1501.751 1503.07 1504.764 1509.9 1512.46 1514.085 1515.435 1516.79 1520.448 1522.538 1524.668 1527.13 1530.148 1536.729 1540.968 1546.329 1550.241 1551.849 1550.835 1550.302 1549.754 1549.13 1548.465 1546.856 1545.826 1544.602 1543.219 1541.736 
1476.281 1477.584 1479.044 1480.595 1483.628 1485.068 1486.505 1487.784 1488.867 1491.449 1492.724 1494.701 1496.807 1498.627 1501.007 1501.857 1502.882 1504.406 1506.407 1511.046 1513.135 1514.546 1515.694 1516.857 1520.275 1522.32 1524.298 1526.534 1529.191 1536.045 1540.968 1545.803 1549.768 1551.392 1550.151 1549.425 1548.608 1547.965 1547.343 1545.763 1544.885 1543.768 1542.391 1540.976 
1478.607 1479.976 1481.501 1483.088 1486.21 1487.522 1488.74 1489.702 1490.46 1493.156 1494.817 1496.824 1499.011 1500.747 1502.383 1502.977 1503.697 1505.189 1507.338 1511.309 1513.067 1514.392 1515.44 1516.431 1519.543 1521.43 1523.202 1525.262 1529.191 1536.045 1539.365 1543.007 1546.89 1549.494 1548.807 1547.846 1547.042 1546.486 1545.943 1544.63 1544.084 1543.026 1541.798 1540.594 
1480.928 1482.367 1483.972 1485.61 1488.392 1489.286 1489.924 1490.513 1491.341 1494.449 1496.616 1498.359 1500.109 1501.574 1503.174 1503.832 1504.375 1505.499 1507.328 1510.737 1512.147 1513.472 1514.526 1515.436 1518.179 1519.956 1523.202 1525.262 1527.698 1533.372 1536.043 1538.807 1541.533 1543.601 1544.871 1544.781 1544.414 1544.148 1544.125 1544.081 1543.745 1543.069 1542.032 1540.806 
1483.172 1484.743 1486.337 1487.789 1489.577 1490.309 1490.94 1491.294 1492.028 1495.359 1497.227 1498.841 1500.288 1501.498 1503.1 1503.776 1504.471 1505.297 1506.539 1509.514 1510.527 1511.723 1512.871 1513.855 1518.179 1519.956 1521.596 1523.391 1525.37 1529.909 1532.154 1534.344 1536.542 1538.419 1540.221 1540.533 1540.92 1541.58 1542.266 1543.07 1543.068 1542.7 1541.827 1540.666 
1485.274 1486.88 1488.213 1489.838 1490.487 1491.184 1491.897 1492.476 1492.983 1495.31 1496.966 1498.418 1499.713 1500.838 1502.359 1503.025 1503.747 1504.391 1505.276 1507.594 1508.482 1509.502 1510.622 1513.855 1516.361 1517.78 1519.147 1520.862 1522.786 1525.896 1527.708 1529.771 1531.989 1534.188 1537.198 1538.061 1538.711 1539.3 1540.096 1542.206 1543.107 1542.626 1541.542 1540.509 
1486.781 1488.198 1489.151 1490.426 1491.042 1491.52 1491.948 1492.387 1493.174 1494.411 1495.905 1497.223 1498.348 1500.53 1501.343 1501.849 1502.365 1502.993 1504.522 1505.22 1505.992 1509.502 1510.622 1511.757 1513.75 1514.863 1516.204 1518.063 1520.117 1523.103 1524.327 1525.31 1527.1 1530.12 1534.901 1536.065 1537.268 1538.125 1538.907 1542.471 1542.983 1542.354 1541.41 1540.469 
1487.292 1488.366 1489.179 1490.154 1490.518 1490.807 1491.01 1491.194 1492.088 1492.837 1494.138 1495.403 1496.486 1498.587 1499.493 1500.103 1500.703 1501.225 1501.9 1505.22 1505.992 1507.073 1508.255 1510.521 1511.254 1512.231 1513.376 1515.083 1519.716 1521.416 1522.618 1523.659 1525.043 1527.574 1533.68 1534.916 1536.031 1537.209 1538.499 1541.671 1542.179 1542.156 1541.641 1540.636 
1486.704 1487.751 1488.496 1489.272 1489.418 1489.537 1489.683 1489.872 1490.612 1491.336 1492.386 1493.51 1494.566 1496.456 1497.293 1497.972 1498.626 1501.225 1501.9 1502.524 1503.427 1504.532 1505.742 1508.5 1509.312 1510.495 1511.695 1513.29 1518.315 1521.029 1522.541 1523.842 1525.528 1530.12 1532.765 1534.437 1535.836 1537.078 1539.353 1540.659 1541.522 1541.835 1541.464 1540.594 
1485.537 1486.47 1487.152 1487.71 1487.816 1487.886 1488.003 1488.184 1488.934 1489.564 1490.512 1491.534 1492.568 1494.378 1495.191 1497.972 1498.626 1499.176 1499.744 1500.275 1501.017 1501.991 1503.212 1506.514 1508.38 1509.763 1511.086 1512.793 1518.101 1520.857 1522.889 1524.693 1526.524 1530.459 1532.389 1534.175 1535.851 1537.186 1539.338 1540.477 1541.091 1541.152 1540.879 1539.598 
1484.296 1484.877 1485.255 1485.557 1485.613 1485.713 1485.884 1486.125 1487.029 1487.734 1488.707 1489.661 1490.602 1492.467 1495.191 1495.874 1496.5 1497.168 1497.959 1498.735 1499.38 1500.063 1501.144 1504.854 1507.406 1509.484 1511.07 1512.954 1518.531 1521.458 1523.712 1525.598 1527.449 1530.932 1532.681 1534.367 1536.163 1537.523 1539.5 1540.413 1540.831 1540.747 1540.43 1539.283 
1482.787 1483.145 1483.435 1483.276 1483.202 1483.333 1483.567 1483.896 1485.163 1485.791 1486.771 1487.851 1490.602 1492.467 1493.229 1493.819 1494.484 1495.434 1496.506 1497.582 1498.242 1499.053 1500.042 1503.949 1506.98 1509.577 1511.505 1513.58 1519.368 1522.237 1524.723 1526.623 1528.254 1531.615 1533.286 1534.971 1536.708 1537.998 1539.599 1540.465 1540.522 1540.531 1540.215 1538.83 
1481.198 1481.442 1481.567 1480.795 1480.56 1480.494 1480.746 1481.318 1482.843 1483.699 1486.771 1487.851 1488.856 1490.53 1491.197 1491.815 1492.528 1493.42 1495.885 1496.647 1497.644 1498.774 1499.725 1504.011 1507.361 1509.797 1511.947 1514.461 1520.37 1523.485 1525.77 1527.324 1528.856 1532.29 1533.887 1535.726 1537.285 1538.404 1539.763 1540.111 1540.074 1539.825 1539.391 1537.969 
1479.7 1479.749 1479.657 1478.502 1477.818 1477.442 1477.741 1478.676 1482.843 1483.699 1484.704 1485.728 1486.776 1488.544 1489.11 1489.709 1490.461 1491.495 1494.915 1496.805 1497.917 1498.95 1500.193 1504.613 1507.574 1510.323 1512.872 1515.422 1521.238 1524.282 1526.331 1527.849 1529.363 1532.751 1534.446 1536.38 1537.752 1538.649 1539.923 1539.897 1539.489 1539.012 1538.45 1536.45 
1478.188 1477.99 1477.62 1476.336 1475.815 1475.587 1475.852 1478.676 1480.599 1481.346 1482.243 1483.692 1484.921 1486.666 1487.423 1488.027 1488.741 1489.94 1494.271 1496.619 1498.292 1499.576 1501.088 1505.512 1508.254 1510.985 1513.56 1516.059 1521.883 1524.867 1526.693 1528.095 1529.579 1533.001 1534.778 1536.654 1537.964 1538.728 1539.787 1539.507 1538.934 1538.203 1537.257 1533.699 
1476.75 1476.383 1475.644 1474.554 1474.098 1475.587 1475.852 1476.646 1478.243 1478.789 1479.617 1480.936 1482.632 1485.3 1486.253 1487.143 1487.915 1489.282 1493.992 1496.588 1498.581 1500.13 1501.886 1506.117 1508.734 1511.38 1513.915 1516.412 1522.191 1525.023 1526.762 1528.08 1529.503 1532.998 1534.783 1536.665 1537.964 1538.594 1538.927 1538.24 1537.395 1536.161 1534.456 1530.744 
1473.927 1473.681 1472.632 1474.554 1474.098 1474.009 1474.692 1475.87 1476.18 1476.339 1477.286 1478.863 1480.943 1485.057 1486.186 1487.276 1488.427 1489.858 1494.21 1496.44 1498.44 1500.221 1502.102 1506.47 1508.934 1511.522 1514.027 1516.398 1521.792 1524.524 1526.335 1527.698 1529.113 1532.491 1534.36 1536.223 1537.474 1538.03 1537.403 1536.356 1534.77 1532.92 1531.088 1527.539 
1470.3 1473.681 1472.632 1472.638 1472.437 1473.134 1473.852 1474.634 1475.296 1475.944 1477.02 1478.72 1483.929 1485.47 1486.678 1487.892 1489.231 1492.28 1494.302 1496.579 1498.377 1499.901 1501.795 1506.42 1508.97 1511.45 1513.856 1516.22 1521.224 1523.744 1525.606 1526.992 1528.374 1531.726 1533.69 1535.321 1536.3 1536.521 1534.86 1533.253 1531.471 1529.576 1527.768 1524.797 
1470.3 1470.021 1470.042 1470.59 1471.969 1472.934 1473.423 1475.017 1476.029 1477.158 1478.341 1479.754 1483.445 1485.275 1487.27 1488.828 1490.113 1492.972 1494.877 1496.527 1498.232 1499.761 1503.821 1506.332 1508.842 1511.298 1513.619 1518.194 1520.573 1522.735 1524.674 1526.286 1527.678 1531.02 1532.778 1534.307 1535.339 1535.132 1531.732 1530.008 1528.22 1526.469 1525.022 1523.073 
1466.969 1466.853 1468.036 1469.719 1470.941 1472.396 1473.549 1475.431 1476.254 1477.664 1479.316 1480.918 1484.152 1485.923 1487.498 1489.059 1490.57 1493.533 1495.199 1496.821 1498.214 1499.543 1503.573 1506.076 1508.586 1511.029 1513.366 1517.633 1519.912 1521.87 1523.702 1525.367 1528.452 1530.473 1532.166 1533.139 1533.539 1530.552 1528.636 1527.057 1525.503 1524.282 1523.353 1521.368 
1464.049 1464.378 1467.17 1469.193 1471.268 1473.065 1474.065 1475.385 1476.121 1477.982 1480.06 1481.944 1485.102 1486.378 1487.768 1489.324 1490.888 1494.016 1495.599 1497.052 1498.283 1499.44 1503.351 1505.921 1508.385 1510.662 1512.889 1517.185 1519.324 1521.214 1522.966 1524.607 1527.817 1529.494 1530.778 1531.363 1531.164 1527.889 1526.772 1525.218 1523.943 1522.951 1520.75 1519.702 
1463.269 1464.151 1467.615 1470.546 1472.727 1473.911 1474.771 1476.327 1477.756 1479.617 1481.661 1483.576 1486.525 1487.882 1488.955 1490.081 1491.464 1494.589 1495.932 1497.111 1498.318 1499.545 1503.427 1505.856 1508.28 1510.435 1512.491 1516.873 1519.07 1520.969 1522.671 1524.284 1527.112 1528.589 1529.7 1529.867 1529.054 1526.485 1525.453 1524.204 1522.883 1521.69 1519.242 1518.057 
1464.074 1465.433 1469.113 1470.963 1472.699 1474.489 1475.85 1478.365 1479.989 1481.854 1483.73 1485.439 1488.424 1489.392 1490.299 1491.259 1492.413 1495.096 1496.341 1497.519 1498.687 1499.774 1503.754 1506.282 1508.512 1510.408 1512.292 1516.825 1519.205 1521.102 1522.776 1524.448 1527.049 1528.224 1529.165 1528.943 1527.786 1525.697 1524.536 1523.152 1521.799 1520.54 1517.679 1516.39 
1465.495 1467.064 1470.831 1472.636 1474.419 1475.891 1477.226 1480.319 1482.087 1484.073 1485.93 1487.581 1489.675 1490.493 1491.397 1492.436 1493.536 1495.891 1496.916 1497.962 1499.082 1500.28 1504.494 1506.955 1509.041 1510.903 1512.788 1517.236 1519.636 1521.629 1523.425 1524.949 1527.122 1528.183 1528.79 1528.349 1527.22 1525.264 1523.848 1522.272 1520.855 1519.398 1516.099 1514.772 
1467.064 1468.629 1472.501 1474.464 1476.162 1477.535 1478.773 1482.031 1484.146 1486.228 1488.065 1489.301 1490.855 1491.539 1492.388 1493.374 1494.474 1496.632 1497.722 1498.752 1499.747 1501.109 1505.584 1508.027 1510.106 1511.962 1513.827 1518.046 1520.324 1522.369 1524.26 1525.707 1527.516 1528.48 1528.592 1527.937 1526.941 1524.923 1523.329 1521.714 1520.088 1518.251 1514.684 1513.245 
1469.088 1470.424 1473.477 1475.323 1476.988 1478.438 1479.839 1483.611 1485.842 1487.905 1489.255 1490.057 1491.734 1492.364 1493.173 1494.216 1495.383 1497.563 1498.652 1499.671 1500.751 1502.326 1507.01 1509.384 1511.609 1513.477 1515.105 1518.895 1521.213 1523.423 1525.099 1526.255 1527.997 1528.792 1528.623 1527.765 1526.76 1524.644 1523.066 1521.384 1519.397 1517.203 1513.422 1512.151 
1471.046 1471.857 1473.88 1475.192 1476.93 1478.878 1480.798 1484.802 1486.781 1488.483 1489.676 1490.557 1492.218 1493.141 1493.931 1494.972 1496.271 1498.572 1499.67 1500.709 1502.053 1503.766 1508.321 1510.699 1512.923 1514.649 1516.018 1519.826 1522.068 1524.313 1525.837 1526.753 1528.318 1529.016 1528.71 1527.774 1526.761 1524.496 1522.891 1521.116 1518.935 1516.501 1512.556 1511.328 
1473.212 1474.353 1474.842 1475.892 1477.481 1479.333 1483.422 1485.462 1487.37 1488.788 1489.81 1490.706 1492.449 1493.368 1494.395 1495.621 1496.942 1499.492 1500.665 1501.972 1503.327 1504.837 1509.296 1511.642 1513.603 1515.212 1516.605 1520.417 1522.633 1524.731 1526.159 1527.013 1528.416 1529.12 1528.765 1527.897 1526.987 1524.737 1522.973 1521.1 1518.804 1516.224 1512.224 1510.923 
1475.347 1476.388 1476.706 1477.448 1478.675 1480.245 1484.23 1485.844 1487.497 1488.762 1489.72 1491.458 1492.408 1493.482 1494.833 1496.15 1498.639 1499.93 1501.361 1502.781 1504.048 1507.602 1509.802 1512.104 1513.89 1515.321 1516.76 1520.484 1522.615 1524.615 1525.953 1526.737 1528.335 1529.105 1529.046 1528.305 1527.317 1525.253 1523.446 1521.297 1518.921 1516.427 1512.263 1510.918 
1477.298 1478.871 1479.54 1480.166 1480.957 1482.019 1484.573 1485.689 1486.902 1488.119 1489.161 1491.261 1492.472 1493.665 1494.968 1496.182 1498.694 1499.833 1501.155 1502.629 1504.144 1507.684 1509.7 1511.712 1513.442 1514.991 1518.317 1520.106 1522.026 1523.83 1525.178 1527.065 1528.034 1528.858 1529.118 1528.678 1527.788 1525.736 1524.038 1521.787 1519.322 1516.825 1512.48 1510.915 
1479.358 1481.226 1482.147 1483.054 1483.874 1484.535 1485.287 1485.52 1486.436 1487.68 1488.817 1491.172 1492.519 1493.747 1495.276 1496.401 1498.238 1499.498 1500.679 1502.089 1503.844 1507.433 1509.302 1511.089 1512.781 1514.456 1517.964 1519.642 1521.352 1522.91 1524.387 1526.569 1527.56 1528.379 1528.797 1528.828 1527.282 1526.243 1524.788 1522.522 1519.945 1514.883 1512.72 1511.116 
1481.252 1483.844 1484.874 1485.658 1486.323 1486.721 1486.736 1486.804 1486.987 1487.709 1488.789 1491.13 1492.404 1493.49 1494.637 1495.916 1498.233 1499.185 1500.163 1501.65 1503.516 1507.143 1508.866 1510.47 1512.058 1513.779 1517.509 1519.346 1520.962 1522.401 1523.989 1526.299 1527.294 1528.109 1528.666 1528.863 1527.692 1526.686 1525.408 1523.245 1520.579 1515.524 1513.197 1511.116 
1483.37 1486.155 1487.265 1488.255 1489.009 1489.247 1488.874 1488.57 1488.451 1488.705 1489.25 1491.001 1492.093 1493.3 1494.796 1496.187 1498.347 1499.188 1500.066 1501.441 1503.205 1506.976 1508.581 1510.067 1511.537 1513.248 1517.207 1519.106 1520.807 1522.433 1524.126 1526.361 1527.251 1528.146 1528.622 1528.63 1527.584 1526.766 1525.771 1523.723 1520.921 1515.524 1513.197 1511.547 
1485.396 1488.481 1489.811 1491.048 1492.012 1492.439 1492.134 1491.746 1491.331 1491.086 1490.812 1491.395 1492.396 1493.904 1495.393 1496.653 1498.607 1499.281 1500.111 1501.43 1503.079 1506.648 1508.471 1510.078 1511.642 1513.341 1517.124 1518.892 1520.748 1522.645 1524.401 1526.566 1527.415 1528.037 1528.244 1528.039 1526.82 1526.114 1525.009 1523.193 1520.921 1515.983 1513.898 1512.073 
1487.314 1491.021 1492.818 1494.269 1495.298 1495.89 1495.86 1495.526 1494.815 1494.318 1493.573 1493.739 1494.157 1494.401 1495.333 1496.685 1498.461 1499.228 1500.162 1501.403 1503.008 1506.332 1508.332 1510.313 1512.148 1513.843 1517.133 1518.684 1520.656 1522.828 1524.731 1526.765 1527.395 1527.833 1527.638 1527.021 1525.945 1524.856 1525.009 1523.193 1520.876 1516.381 1514.505 1512.67 
1489.686 1493.943 1496.004 1497.764 1499.095 1499.72 1499.523 1499.138 1498.597 1498.041 1497.298 1497.48 1497.191 1495.985 1495.491 1496.21 1497.856 1498.709 1499.921 1501.261 1502.73 1505.907 1508.115 1510.463 1512.519 1514.189 1516.807 1517.878 1519.896 1522.217 1524.267 1526.876 1527.331 1527.197 1526.658 1526.081 1525.945 1524.856 1523.466 1521.951 1520.087 1516.421 1514.65 1512.867 
1492.609 1497.25 1499.199 1500.681 1501.66 1502.067 1501.859 1501.778 1501.569 1500.835 1500.396 1499.43 1498.214 1497.038 1495.789 1495.207 1496.823 1497.737 1499.182 1500.757 1502.224 1505.26 1507.457 1509.892 1512.182 1513.859 1515.709 1516.556 1518.243 1520.552 1523.002 1526.337 1526.52 1526.122 1526.658 1526.081 1524.323 1523.038 1521.741 1520.287 1518.721 1515.952 1514.489 1512.828 
1498.065 1500.102 1501.377 1502.303 1503.037 1503.426 1503.514 1503.435 1502.953 1502.079 1501.256 1500.167 1498.722 1496.747 1495.432 1494.866 1495.643 1496.573 1498.187 1499.991 1501.497 1504.419 1506.091 1508.238 1510.387 1511.996 1513.89 1514.658 1516.11 1518.19 1520.591 1524.853 1526.52 1526.122 1525.448 1524.56 1522.09 1520.863 1519.589 1518.272 1517.14 1515.12 1513.854 1512.438 
1500.556 1501.788 1502.849 1503.786 1504.455 1504.824 1505.369 1504.675 1503.638 1502.658 1500.536 1499.621 1498.206 1495.438 1493.533 1493.421 1494.226 1495.251 1496.835 1498.582 1500.17 1502.978 1504.436 1505.94 1507.572 1509.138 1511.36 1512.355 1513.748 1515.607 1517.87 1524.853 1525.046 1524.38 1523.453 1522.429 1519.511 1518.252 1517.158 1516.104 1515.246 1513.877 1512.718 1511.442 
1501.707 1503.024 1504.21 1505.184 1505.878 1506.088 1505.775 1504.656 1503.688 1502.789 1500.115 1498.194 1496.573 1494.535 1492.437 1492.068 1492.853 1493.515 1494.782 1496.476 1499.594 1500.957 1502.28 1503.483 1504.848 1506.247 1508.793 1510.024 1511.457 1515.607 1517.87 1522.252 1523.094 1522.638 1521.498 1520.133 1516.927 1515.582 1514.526 1513.696 1513.069 1511.832 1510.89 1509.808 
1502.873 1504.186 1505.523 1506.583 1507.042 1506.881 1505.587 1504.661 1503.685 1502.506 1499.316 1497.201 1495.083 1493.516 1491.879 1490.501 1491.04 1491.474 1492.571 1494.184 1497.228 1498.568 1499.798 1501.026 1502.213 1504.593 1505.986 1510.024 1511.457 1513.312 1517.342 1518.919 1520.742 1521.138 1519.793 1517.754 1514.395 1513.194 1512.262 1511.515 1510.823 1509.306 1508.531 1507.469 
1503.729 1505.252 1506.662 1507.59 1507.586 1506.154 1505.359 1504.313 1503.12 1501.901 1498.016 1495.818 1493.666 1491.802 1490.391 1488.685 1488.774 1489.344 1490.449 1491.884 1494.756 1496.069 1497.315 1498.507 1499.611 1504.593 1505.986 1507.749 1509.544 1511.611 1515.326 1516.881 1518.345 1518.943 1517.797 1514.074 1512.708 1511.645 1510.644 1509.746 1507.762 1506.663 1505.683 1504.8 
1504.583 1506.23 1507.478 1507.912 1507.55 1505.768 1504.666 1503.486 1502.352 1500.947 1496.41 1494.011 1491.865 1490.008 1488.51 1486.808 1486.832 1487.383 1488.427 1489.696 1492.405 1493.669 1494.852 1495.997 1499.611 1501.695 1503.267 1505.128 1507.295 1509.705 1514.082 1515.589 1516.714 1517.153 1516.194 1513.162 1511.914 1510.735 1509.646 1508.538 1505.376 1503.998 1502.816 1502.114 
1505.927 1507.427 1508.226 1508.134 1507.419 1505.066 1503.87 1502.681 1501.389 1499.482 1494.351 1491.883 1489.738 1487.926 1486.582 1485.026 1484.916 1485.427 1486.37 1487.561 1490.133 1491.311 1494.852 1495.997 1497.131 1499.245 1500.664 1502.457 1504.731 1507.37 1512.79 1514.415 1515.578 1516.127 1515.494 1513.004 1511.616 1510.27 1508.942 1507.281 1503.596 1501.984 1500.756 1500.079 
1507.738 1508.823 1509.031 1508.439 1507.312 1504.325 1502.984 1501.786 1500.023 1497.561 1492.301 1489.757 1487.706 1485.902 1484.303 1482.474 1482.308 1483.026 1484.172 1485.383 1490.133 1491.311 1492.398 1493.499 1494.675 1497.152 1498.433 1500.04 1502.207 1504.917 1510.84 1513.321 1514.74 1515.261 1515.102 1513.231 1511.83 1510.291 1508.596 1506.434 1502.274 1500.675 1499.604 1498.967 
1509.62 1510.079 1509.772 1508.678 1506.999 1503.576 1502.086 1500.468 1498.269 1495.594 1490.229 1487.867 1485.804 1483.773 1481.825 1479.341 1479.545 1480.498 1484.172 1485.383 1487.835 1488.849 1489.886 1491.015 1492.164 1494.749 1496.317 1498.043 1499.821 1502.263 1508.743 1511.868 1513.812 1514.917 1515.12 1513.556 1512.182 1510.527 1508.352 1505.77 1501.138 1499.919 1498.822 1497.923 
1511.213 1510.881 1509.907 1508.37 1506.393 1502.84 1501.34 1499.175 1496.542 1493.737 1488.349 1486.135 1484.001 1481.837 1479.667 1476.584 1479.545 1480.498 1481.793 1483.143 1485.639 1486.698 1487.633 1488.534 1489.538 1492.176 1493.821 1495.883 1498.037 1500.468 1506.698 1510.018 1512.877 1514.555 1514.967 1513.808 1512.606 1510.639 1508.269 1505.707 1500.718 1499.53 1498.402 1497.384 
1512.274 1511.267 1509.7 1507.705 1505.636 1502.176 1500.393 1497.962 1495.128 1492.194 1486.905 1484.663 1482.356 1479.994 1477.775 1476.584 1476.81 1478.059 1479.602 1480.982 1483.449 1484.527 1485.515 1486.376 1487.24 1489.264 1491.35 1493.79 1496.236 1498.689 1504.657 1508.052 1511.584 1513.882 1514.848 1514.16 1513.029 1511.054 1508.415 1505.677 1500.861 1499.434 1498.169 1497.115 
1512.495 1511.119 1509.272 1507.165 1505.113 1501.507 1499.36 1496.794 1493.96 1491.027 1485.829 1483.475 1480.922 1479.994 1477.775 1475.13 1475.382 1476.319 1477.704 1479.169 1481.364 1482.503 1483.476 1484.318 1485.273 1487.523 1489.038 1491.474 1494.386 1497.139 1502.561 1505.979 1509.501 1512.38 1514.264 1514.37 1513.345 1511.179 1508.594 1506.073 1501.05 1499.591 1498.227 1496.862 
1511.931 1510.377 1508.483 1506.477 1502.579 1500.78 1498.426 1495.763 1493.015 1487.498 1485.019 1483.475 1480.922 1478.241 1476.079 1474.116 1474.252 1475.07 1476.183 1477.356 1479.481 1480.401 1481.335 1482.381 1483.533 1486.028 1487.518 1489.731 1492.57 1495.539 1500.87 1504.171 1507.508 1510.598 1513.019 1514.113 1513.163 1511.215 1508.827 1506.339 1501.599 1499.913 1498.471 1497.041 
1511.04 1509.412 1507.592 1505.68 1501.88 1499.959 1497.469 1494.802 1492.167 1487.498 1485.019 1482.423 1479.715 1477.165 1473.906 1473.04 1472.872 1473.574 1474.591 1476.53 1477.352 1478.218 1479.156 1480.169 1481.498 1484.744 1486.423 1488.316 1490.99 1494.189 1499.866 1502.802 1505.797 1508.674 1511.286 1513.494 1512.929 1511.324 1509.177 1506.839 1502.108 1500.303 1498.769 1497.268 
1510.091 1508.503 1506.753 1504.916 1501.343 1499.128 1496.606 1493.999 1492.167 1486.828 1484.258 1481.591 1478.859 1476.409 1472.992 1471.808 1471.044 1471.835 1472.865 1474.284 1475.154 1476.032 1476.945 1478.078 1481.558 1483.519 1485.492 1487.601 1490.188 1496.24 1498.901 1501.609 1504.261 1506.933 1510.901 1511.837 1511.823 1510.966 1509.314 1506.823 1502.322 1500.756 1499.246 1497.553 
1509.027 1507.503 1505.896 1504.188 1500.733 1498.368 1496.606 1493.999 1491.376 1486.155 1483.572 1480.906 1478.165 1475.717 1472.064 1470.244 1468.816 1468.888 1469.829 1471.932 1473.033 1473.944 1474.883 1476.15 1480.021 1482.568 1484.958 1487.244 1489.771 1495.363 1498.023 1500.617 1503.01 1505.177 1509.245 1510.443 1510.741 1510.283 1508.727 1504.278 1502.812 1501.323 1499.666 1498.091 
1507.965 1506.562 1505.054 1503.508 1500.733 1498.368 1495.83 1493.227 1490.628 1485.481 1482.894 1480.222 1477.59 1475.224 1470.944 1468.487 1466.631 1466.282 1467.076 1469.461 1470.978 1472.105 1473.267 1474.672 1478.747 1481.555 1484.364 1486.886 1489.359 1494.503 1497.152 1499.759 1502.06 1503.895 1507.095 1508.644 1509.128 1508.849 1507.832 1503.965 1502.95 1501.764 1500.233 1498.671 
1506.985 1505.658 1505.054 1503.508 1499.989 1497.522 1494.947 1492.453 1489.962 1484.893 1482.312 1479.622 1477.07 1474.698 1470.036 1467.439 1464.973 1464.07 1464.697 1467.321 1468.868 1470.651 1472.255 1473.794 1478.095 1480.894 1483.683 1486.4 1488.997 1493.835 1496.373 1498.805 1500.83 1502.522 1504.297 1506.462 1506.883 1507.208 1507.093 1504.349 1503.238 1502.061 1500.773 1499.279 
1506.985 1505.658 1504.245 1502.799 1499.155 1496.712 1494.223 1491.721 1489.218 1484.319 1481.733 1479.172 1476.701 1474.325 1469.446 1466.914 1464.543 1463.257 1463.282 1465.519 1467.063 1469.033 1471.151 1473.225 1477.828 1480.387 1483.245 1486.06 1488.624 1493.057 1495.299 1497.376 1499.406 1501.169 1503.649 1504.747 1504.718 1505.65 1506.33 1504.589 1503.587 1502.451 1501.32 1499.828 
1505.912 1504.735 1503.433 1502.046 1498.207 1495.824 1493.436 1491 1488.567 1483.753 1481.317 1478.814 1476.333 1473.955 1469.07 1466.618 1464.439 1462.933 1462.542 1463.979 1465.63 1467.931 1470.347 1472.728 1477.573 1480.047 1482.712 1485.557 1488.224 1492.26 1494.088 1495.954 1497.847 1499.706 1502.612 1503.679 1504.204 1505.03 1505.795 1504.672 1503.759 1502.713 1501.681 1500.31 
1504.921 1503.842 1502.625 1501.189 1497.22 1494.936 1492.628 1490.27 1487.926 1483.274 1480.855 1478.404 1476.024 1473.657 1468.794 1466.348 1464.306 1462.855 1462.136 1463.23 1464.725 1467.004 1469.681 1472.358 1477.229 1479.6 1482.073 1484.75 1487.354 1491.205 1492.83 1494.565 1496.37 1498.359 1501.88 1503.05 1503.95 1504.801 1505.425 1504.791 1503.756 1502.784 1501.858 1500.584 
1503.67 1502.713 1501.755 1500.384 1496.236 1493.881 1491.721 1489.557 1487.291 1482.714 1480.353 1478.074 1475.719 1473.315 1468.53 1466.072 1464.151 1462.861 1462.03 1462.89 1464.162 1466.402 1469.103 1471.777 1476.926 1479.095 1481.144 1483.476 1485.831 1489.633 1491.277 1492.885 1494.741 1496.824 1501.141 1502.582 1503.942 1504.927 1505.212 1504.601 1503.795 1502.846 1501.945 1500.758 
1502.26 1501.432 1500.354 1497.031 1495.084 1492.929 1490.842 1488.715 1486.548 1482.045 1479.911 1477.715 1475.402 1473.022 1468.253 1465.803 1464 1462.792 1461.902 1462.666 1463.87 1465.862 1468.297 1470.917 1476.206 1478.292 1480.097 1481.881 1483.834 1487.717 1489.306 1490.977 1492.898 1495.109 1500.235 1501.961 1503.427 1504.786 1505.17 1504.255 1503.591 1502.835 1502.015 1500.901 
1500.757 1499.877 1498.62 1495.459 1493.59 1491.752 1489.89 1487.927 1483.71 1481.545 1479.433 1477.37 1475.106 1470.23 1467.885 1465.583 1463.905 1462.617 1461.621 1462.435 1463.57 1465.323 1467.527 1469.944 1475.068 1476.979 1478.638 1480.177 1481.864 1485.408 1487.041 1488.776 1490.658 1492.942 1498.673 1501.141 1502.869 1504.457 1505.213 1503.662 1503.115 1502.519 1501.836 1500.823 
1498.812 1497.815 1496.644 1493.678 1492.124 1490.427 1488.703 1486.928 1482.936 1480.854 1478.896 1477.024 1474.804 1469.852 1467.514 1465.268 1463.662 1462.441 1461.23 1462.09 1463.232 1464.738 1466.676 1471.058 1473.244 1475.193 1476.89 1478.47 1479.978 1483.09 1484.73 1486.422 1488.185 1490.375 1496.886 1500.17 1502.25 1503.815 1504.736 1503.04 1502.511 1501.963 1501.215 1500.148 
1496.827 1495.708 1494.544 1491.96 1490.587 1488.988 1487.338 1485.663 1481.876 1480.119 1478.313 1476.308 1474.074 1469.292 1467.112 1464.837 1463.201 1462.201 1460.833 1461.531 1462.768 1464.118 1465.815 1469.425 1471.442 1473.285 1474.893 1476.351 1479.118 1480.615 1482.248 1484.129 1485.983 1490.861 1494.728 1498.625 1501.298 1503.085 1504.089 1502.776 1501.969 1501.366 1500.447 1499.16 
1495.032 1493.781 1492.459 1490.119 1488.839 1487.467 1485.984 1484.382 1480.977 1479.314 1477.604 1475.574 1473.264 1468.703 1466.605 1464.58 1462.94 1461.644 1459.922 1460.651 1462.234 1463.416 1464.705 1468.126 1469.655 1471.165 1472.66 1473.967 1476.558 1477.87 1479.497 1481.664 1484.031 1488.918 1492.758 1496.803 1500.199 1502.366 1503.348 1502.528 1501.6 1500.7 1499.566 1497.087 
1492.941 1491.636 1490.528 1488.171 1486.962 1485.768 1484.419 1482.931 1479.876 1478.371 1476.827 1474.747 1472.318 1467.974 1465.901 1464.004 1462.422 1460.89 1458.625 1459.045 1461.012 1462.413 1463.558 1466.671 1467.927 1468.957 1470.103 1471.326 1473.964 1475.233 1476.755 1478.973 1482.056 1488.11 1491.568 1495.319 1498.89 1501.384 1502.809 1502.257 1501.456 1500.315 1498.957 1496.399 
1491.247 1489.933 1488.718 1486.504 1485.336 1484.073 1482.783 1481.487 1478.76 1477.175 1475.349 1473.27 1471.025 1466.956 1465.053 1463.265 1461.477 1459.708 1456.731 1456.957 1458.464 1460.345 1462.157 1464.932 1465.932 1466.732 1467.434 1468.329 1471.396 1473.17 1474.761 1477.002 1480.526 1487.622 1490.837 1494.133 1497.323 1500.028 1502.358 1502.01 1501.358 1500.209 1498.752 1495.704 
1489.956 1488.47 1487.199 1484.976 1483.748 1482.516 1481.313 1480.091 1477.528 1475.856 1473.808 1471.667 1469.606 1465.81 1464.01 1462.23 1460.399 1458.477 1454.723 1454.903 1456.042 1457.875 1459.931 1462.863 1463.67 1464.323 1464.803 1465.183 1468.868 1471.761 1473.955 1476.448 1479.897 1487.083 1490.164 1493.039 1495.943 1498.619 1501.614 1501.722 1501.342 1500.055 1498.284 1494.864 
1488.965 1487.571 1486.212 1483.713 1482.361 1481.03 1479.725 1478.475 1476.009 1474.125 1472.101 1470.09 1468.127 1464.413 1462.814 1461.059 1459.139 1457.184 1453.473 1452.863 1453.922 1455.743 1457.596 1460.563 1461.584 1462.201 1462.574 1462.949 1467.294 1470.87 1473.87 1476.773 1479.975 1486.553 1489.576 1492.179 1494.791 1497.17 1500.125 1500.527 1500.432 1499.409 1497.732 1493.948 
1488.528 1487.177 1485.625 1482.721 1480.955 1479.411 1478.085 1476.812 1473.875 1472.039 1470.179 1468.335 1466.528 1463.133 1461.548 1459.834 1457.976 1456.056 1452.247 1451.445 1452.205 1453.851 1455.585 1458.512 1459.605 1460.476 1461.222 1462.176 1466.836 1470.391 1473.996 1477.242 1480.178 1486.121 1489.043 1491.475 1493.55 1495.501 1498.266 1498.932 1499.008 1498.454 1497.122 1493.387 
1488.242 1486.841 1485.165 1481.564 1479.596 1477.829 1476.319 1474.926 1471.871 1470.023 1468.194 1466.43 1464.718 1461.861 1460.437 1458.662 1456.878 1455.135 1451.766 1450.938 1451.314 1452.623 1454.209 1456.862 1457.961 1459.161 1460.386 1461.749 1466.377 1469.934 1474.123 1477.548 1480.033 1485.575 1488.549 1490.736 1492.467 1494.077 1496.696 1497.573 1497.805 1497.354 1497.122 1493.387 
1488.042 1486.642 1482.784 1480.367 1478.296 1476.463 1474.788 1473.25 1469.954 1468.034 1466.174 1464.538 1463.137 1460.476 1459.13 1457.473 1455.866 1454.373 1451.531 1450.582 1450.881 1451.825 1453.004 1455.642 1456.605 1457.906 1459.479 1461.158 1465.519 1468.846 1473.003 1476.602 1479.201 1484.469 1487.49 1489.741 1491.359 1492.792 1494.997 1495.744 1496.296 1497.354 1496.136 1492.575 
1487.973 1486.581 1482.227 1479.585 1477.161 1475.33 1473.732 1470.206 1468.031 1466.032 1464.383 1463.088 1460.635 1459.18 1457.714 1456.237 1454.9 1453.598 1451.089 1450.302 1450.35 1451.038 1452.018 1454.1 1455.13 1456.473 1458.277 1460.257 1464.109 1467.058 1470.764 1474.63 1477.748 1482.624 1485.663 1488.412 1490.226 1491.488 1493.649 1495.744 1496.296 1495.93 1494.836 1492.076 
1487.918 1486.536 1481.792 1479.103 1476.576 1474.627 1473.068 1468.982 1466.564 1464.375 1463.098 1462.118 1459.513 1457.947 1456.331 1454.802 1453.532 1451.479 1450.517 1449.877 1449.705 1450.167 1451.59 1452.283 1453.397 1454.991 1456.946 1458.976 1462.652 1464.836 1468.04 1471.787 1475.127 1480.329 1483.169 1486.057 1488.492 1491.488 1493.649 1494.083 1494.702 1494.606 1493.591 1491.557 
1487.833 1486.482 1481.498 1478.869 1476.455 1474.534 1472.818 1468.187 1465.811 1463.925 1462.513 1461.367 1458.681 1456.981 1455.135 1453.344 1451.988 1450.524 1449.658 1449.049 1448.869 1449.057 1450.255 1451.034 1452.023 1453.699 1455.724 1459.505 1461.307 1463.09 1465.611 1468.788 1474.972 1477.698 1480.417 1486.057 1488.492 1490.211 1492.764 1493.269 1493.497 1493.407 1492.909 1491.163 
1487.663 1486.297 1481.362 1478.785 1476.461 1474.451 1472.758 1467.951 1465.389 1463.623 1462.249 1460.98 1458.288 1456.428 1454.506 1452.598 1451.13 1449.51 1448.65 1448.059 1447.776 1447.857 1449.039 1450.044 1451.168 1452.696 1454.499 1458.001 1459.875 1461.703 1463.578 1466.044 1471.86 1477.698 1480.417 1483.195 1486.124 1490.179 1491.472 1492.193 1492.23 1492.177 1491.735 1490.869 
1487.298 1485.897 1481.257 1478.96 1476.774 1474.816 1472.935 1468.054 1465.416 1463.594 1462.228 1461.075 1458.577 1456.468 1454.54 1452.659 1451.048 1448.932 1447.951 1447.287 1446.533 1446.376 1448.021 1448.865 1450.143 1451.625 1453.22 1456.572 1458.358 1460.128 1461.857 1463.645 1471.86 1474.718 1477.51 1480.296 1483.157 1488.319 1489.872 1490.795 1491.409 1491.347 1491.061 1490.388 
1486.97 1485.435 1481.289 1479.307 1477.314 1475.39 1473.514 1468.773 1466.193 1464.318 1462.937 1461.839 1459.153 1457.117 1455.284 1453.336 1451.593 1449.119 1447.793 1446.667 1445.355 1444.741 1446.371 1447.544 1448.842 1450.308 1451.847 1455.065 1456.733 1458.456 1461.857 1463.645 1468.788 1471.681 1474.569 1477.341 1480.064 1485.413 1487.635 1489.167 1490.138 1490.43 1490.279 1489.857 
1486.363 1484.804 1481.369 1479.654 1477.941 1476.176 1474.282 1469.931 1467.9 1466.075 1464.595 1463.342 1460.255 1458.504 1456.672 1454.702 1452.834 1449.604 1447.76 1445.736 1444.135 1443.299 1444.241 1445.644 1447.128 1448.701 1450.286 1453.409 1456.733 1458.456 1460.155 1461.78 1465.705 1468.607 1471.481 1474.326 1477.102 1482.151 1484.466 1486.54 1488.346 1489.343 1489.522 1489.177 
1485.585 1484.127 1481.087 1479.781 1478.354 1476.766 1474.944 1471.221 1469.522 1467.718 1466.052 1464.765 1462.038 1460.358 1458.147 1455.916 1453.903 1449.832 1447.448 1444.799 1442.948 1442.06 1442.421 1443.634 1445.129 1446.832 1450.286 1453.409 1455.057 1456.786 1458.478 1460.119 1463.466 1465.638 1468.36 1471.277 1474.148 1479.269 1481.432 1483.465 1485.192 1486.551 1487.646 1487.536 
1484.494 1483.113 1480.483 1479.547 1478.394 1476.906 1475.255 1472.07 1470.214 1468.387 1466.976 1466.003 1463.978 1462.111 1459.514 1456.88 1454.5 1449.916 1447.36 1444.436 1442.123 1440.772 1440.295 1441.561 1443.28 1446.832 1448.602 1451.823 1453.399 1455.046 1456.707 1458.354 1461.63 1463.302 1465.52 1468.234 1471.101 1476.45 1478.531 1480.283 1482.128 1483.773 1485.498 1485.83 
