NCOLS 92
NROWS 90
XLLCORNER 452078.49
YLLCORNER 3782565.4
CELLSIZE 10
NODATA_VALUE -9999
1062.666 1056.298 1050.758 1039.386 1033.438 1026.914 1019.991 1013.071 999.7679 991.9728 987.2931 987.4357 990.6797 995.5126 1008.894 1015.787 1021.825 1026.367 1029.284 1032.084 1038.484 1042.113 1045.324 1047.761 1049.141 1049.904 1051.563 1051.805 1052.551 1055.122 1059.486 1064.448 1075.53 1082.045 1087.808 1092.135 1095.137 1096.875 1098.231 1098.854 1099.445 1100.103 1100.837 1102.124 1102.703 1104.06 1106.254 1108.979 1112.463 1121.875 1128.081 1134.569 1140.742 1148.922 1159.68 1167.378 1171.363 1177.603 1184.599 1190.022 1195.13 1202.908 1206.442 1211.115 1216.413 1221.362 1227.445 1238.205 1242.938 1246.974 1249.971 1251.827 1251.092 1249.534 1247.733 1245.445 1242.962 1240.985 1237.628 1235.619 1231.657 1225.292 1217.68 1210.216 1197.371 1192.964 1191.655 1192.515 1193.883 1194.759 1196.067 1196.81 
1067.518 1059.408 1053.96 1042.481 1035.981 1028.485 1020.589 1013.072 1000.515 993.4572 987.8873 985.7513 987.3836 991.928 1003.882 1010.399 1016.453 1020.846 1023.382 1025.458 1030.918 1033.294 1035.762 1038.283 1039.928 1040.55 1041.744 1041.785 1042.305 1045.61 1052.046 1058.89 1070.721 1076.999 1082.484 1086.497 1089.218 1091.498 1091.9 1092.189 1092.476 1092.826 1093.185 1094.097 1095.473 1098.073 1100.997 1103.974 1108.232 1121.083 1128.221 1134.956 1141.101 1148.975 1159.86 1168.718 1173.736 1179.893 1185.925 1191.06 1195.876 1203.21 1206.745 1211.081 1215.789 1220.712 1227.423 1238.035 1242.389 1245.848 1248.053 1249.198 1248.153 1246.948 1244.5 1241.163 1238.242 1236.557 1234.801 1232.642 1228.392 1222.904 1216.901 1210.279 1195.671 1188.559 1184.724 1184.187 1184.479 1184.62 1186.507 1188.161 
1072.059 1062.73 1056.512 1044.099 1037.196 1029.666 1021.598 1013.914 1001.313 995.4139 989.8183 985.3963 984.5173 987.8694 997.7826 1003.011 1008.201 1011.816 1013.631 1015.585 1020.419 1023.039 1025.825 1028.043 1029.374 1030.147 1031.248 1031.912 1034.611 1040.242 1047.312 1054.099 1065.65 1071.868 1077.018 1080.574 1082.91 1084.748 1084.869 1084.743 1084.568 1084.42 1084.425 1085.538 1087.501 1091.831 1096.646 1101.193 1107.508 1121.898 1129.086 1135.849 1142.487 1150.569 1160.514 1170.693 1175.921 1181.605 1187.155 1192.228 1196.836 1203.753 1207.396 1211.601 1215.991 1220.967 1227.886 1237.882 1241.524 1244.613 1246.504 1246.822 1245.012 1242.882 1239.377 1235.443 1232.533 1231.17 1229.642 1227.561 1224.019 1219.832 1215.435 1210.345 1194.291 1185.321 1180.689 1179.708 1178.735 1177.574 1174.55 1176.637 
1071.03 1065.403 1059.427 1045.959 1038.654 1031.019 1023.638 1016.818 1004.281 999.6537 994.3947 988.4881 984.0746 982.9703 990.981 994.9475 998.8875 1002.322 1004.802 1006.482 1010.683 1013.121 1015.602 1017.74 1019.305 1020.474 1022.586 1024.777 1029.396 1035.895 1042.491 1049.089 1059.77 1065.172 1070.294 1073.863 1075.369 1076.733 1076.509 1076.182 1075.885 1075.512 1075.497 1079.993 1084.065 1089.641 1095.607 1101.54 1108.849 1123.636 1130.568 1137.276 1144.512 1152.857 1161.428 1172.566 1177.757 1183.03 1188.386 1193.419 1197.673 1204.453 1208.035 1212.14 1216.45 1221.516 1234.021 1237.671 1240.465 1242.422 1243.231 1242.892 1239.319 1236.575 1233.193 1229.506 1226.208 1224.196 1223.016 1222.335 1219.983 1216.408 1213.321 1209.744 1192.511 1183.228 1177.664 1175.383 1174.447 1172.708 1168.843 1172.882 
1063.18 1062.974 1060.125 1048.177 1040.938 1033.386 1026.88 1020.726 1009.722 1005.233 1000.657 994.7575 987.3835 981.4922 984.416 987.596 990.5972 993.8345 996.8203 999.3286 1003.857 1005.642 1007.266 1008.857 1010.404 1011.78 1015.172 1019.715 1025.74 1031.463 1036.966 1042.781 1053.9 1058.484 1062.699 1065.718 1067.197 1068.652 1068.311 1067.27 1066.225 1066.812 1069.564 1078.914 1085.257 1091.233 1097.234 1103.737 1111.106 1126.237 1133.036 1139.433 1146.51 1154.759 1162.472 1174.026 1179.138 1184.333 1189.705 1194.73 1198.569 1205.154 1208.746 1212.817 1216.991 1222.092 1234.418 1236.974 1238.124 1238.573 1238.34 1237.262 1233.786 1230.775 1227.253 1223.591 1220.022 1217.539 1215.912 1215.258 1214.106 1212.525 1210.458 1206.598 1189.193 1178.618 1172.178 1169.651 1167.127 1164.436 1168.431 1175.339 
1052.984 1054.02 1053.287 1050.203 1043.68 1036.237 1030.241 1024.351 1013.992 1009.327 1004.964 999.4795 992.2538 985.0143 978.5373 980.2158 983.0098 986.1526 988.9608 991.4026 996.2704 998.5305 1000.192 1001.184 1001.91 1002.766 1009.982 1016.483 1022.564 1027.894 1032.515 1037.107 1048.211 1052.399 1055.308 1057.495 1058.965 1060.635 1060.73 1060.035 1059.843 1062.559 1068.162 1080.556 1087.324 1093.355 1099.521 1106.375 1113.751 1128.914 1135.521 1141.537 1148.293 1156.246 1163.461 1175.374 1180.337 1185.582 1191.059 1196.033 1199.507 1206.074 1209.632 1213.512 1217.474 1222.411 1233.93 1235.469 1235.366 1234.701 1233.398 1231.172 1226.487 1224.086 1221.526 1218.173 1214.103 1210.755 1208.34 1207.76 1207.091 1206.09 1203.906 1199.701 1185.429 1175.571 1167.069 1162.146 1158.989 1157.717 1169.706 1178.202 
1042.007 1042.468 1046.401 1046.871 1043.48 1038.348 1033.028 1027.227 1017.458 1012.666 1007.889 1002.979 996.7662 988.6544 976.3445 975.1392 976.8748 979.3757 981.9726 984.3095 988.6274 990.7742 992.6477 994.0773 995.2443 996.7404 1006.472 1013.37 1019.012 1024.134 1028.612 1032.593 1042.016 1045.742 1048.427 1050.319 1051.032 1051.901 1051.923 1054.044 1058.138 1063.12 1069.382 1082.957 1089.508 1095.589 1101.891 1108.863 1116.569 1130.957 1137.256 1143.275 1149.994 1157.5 1164.279 1176.221 1181.522 1186.896 1192.25 1197.025 1200.345 1207.085 1210.533 1214.131 1217.874 1222.111 1230.87 1230.925 1229.333 1227.34 1224.902 1222.547 1219.21 1217.411 1215.025 1211.871 1208.058 1203.983 1199.033 1198.044 1197.124 1196.219 1194.471 1190.936 1179.67 1172.14 1163.971 1157.974 1154.925 1154.101 1169.122 1177.855 
1031.71 1031.752 1035.372 1037.445 1038.1 1037.233 1033.83 1028.649 1020.057 1015.345 1010.767 1006.258 1000.824 993.2033 978.4938 974.6773 973.5662 974.381 976.453 978.5158 982.3734 984.0764 985.9141 987.7587 989.6823 992.6405 1002.636 1008.615 1014.025 1018.985 1023.794 1032.285 1036.142 1039.505 1041.773 1042.943 1043.701 1045.84 1047.708 1052.4 1058.838 1064.913 1071.397 1085.279 1091.607 1097.817 1104.231 1111.13 1118.883 1132.47 1138.709 1144.949 1151.619 1158.561 1164.886 1176.98 1182.618 1188.008 1193.121 1197.611 1201.068 1208.028 1211.197 1214.541 1218.207 1221.52 1223.362 1222.132 1220.407 1218.728 1217.21 1215.839 1213.177 1211.677 1209.139 1205.361 1201.015 1196.64 1189.731 1187.974 1186.52 1185.07 1183.866 1182.356 1175.097 1168.477 1161.371 1155.191 1150.601 1150.81 1168.134 1175.102 
1022.689 1023.035 1025.86 1028.52 1030.713 1031.971 1031.518 1029.073 1021.855 1017.52 1013.452 1009.223 1004.393 998.4116 982.8916 976.9939 973.2532 971.8638 972.1794 973.8615 976.918 977.9722 979.1957 981.4787 984.7305 988.3986 997.8564 1002.789 1007.811 1012.846 1017.84 1027.564 1030.721 1033.112 1034.774 1035.827 1036.912 1041.135 1046.801 1053.509 1060.176 1066.759 1073.513 1087.393 1093.32 1099.582 1106.417 1113.351 1120.462 1133.77 1140.004 1146.27 1152.851 1159.443 1165.476 1177.293 1182.956 1188.433 1193.569 1197.976 1205.486 1208.734 1211.41 1214.377 1217.5 1219.068 1216.296 1214.248 1212.465 1211.195 1210.232 1209.356 1207.434 1205.307 1202.09 1198.142 1193.974 1189.694 1181.161 1179.074 1177.964 1176.905 1175.927 1174.929 1169.326 1162.944 1156.578 1150.967 1146.37 1146.717 1162.724 1170.473 
1015.484 1015.782 1016.232 1019.032 1022.491 1025.478 1027.691 1028.122 1023.171 1019.293 1015.688 1012.248 1008.189 1002.818 987.8359 980.9771 975.9081 972.3729 970.0972 969.6227 972.0769 972.863 973.9938 976.3455 979.9707 983.8794 992.7479 997.0219 1001.672 1006.611 1011.52 1021.271 1024.673 1027.045 1027.912 1027.527 1028.697 1039.461 1047.157 1054.901 1061.82 1068.796 1075.882 1089.292 1094.752 1101.18 1108.365 1115.127 1121.639 1135.007 1141.134 1147.224 1153.746 1160.239 1165.883 1177.266 1182.731 1188.341 1193.637 1198.133 1206.014 1209.155 1211.272 1212.924 1213.903 1213.409 1209.207 1207.046 1205.546 1204.496 1203.629 1202.757 1200.552 1198.533 1195.327 1191.359 1187.293 1182.482 1172.162 1170.49 1169.695 1168.966 1168.489 1167.845 1161.961 1157.064 1152.052 1146.942 1142.991 1143.067 1156.627 1165.531 
1007.734 1008.444 1007.663 1008.786 1012.787 1017.451 1020.657 1022.812 1022.314 1019.786 1017.32 1015.165 1012.201 1007.501 993.6541 986.3875 980.3829 975.5788 971.8386 968.7706 966.9425 967.7476 968.8212 971.1083 974.8074 979.0098 987.0279 991.1168 995.5066 1000.325 1005.172 1014.905 1018.019 1019.193 1020.074 1021.605 1024.621 1039.958 1048.433 1056.452 1063.833 1071.099 1078.431 1091.006 1096.169 1102.613 1109.658 1116.115 1122.685 1136.14 1142.156 1148.031 1154.061 1160.163 1165.634 1176.869 1182.478 1188.084 1193.363 1197.952 1206.453 1209.286 1210.628 1211.018 1210.497 1208.947 1203.158 1200.492 1198.795 1197.805 1196.994 1196.284 1193.847 1191.641 1188.805 1184.96 1179.66 1173.464 1163.671 1160.48 1159.497 1160.225 1161.262 1161.657 1156.903 1152.481 1147.756 1142.449 1138.452 1145.066 1152.114 1159.552 
1000.156 1001.409 1000.086 999.7747 1002.312 1006.932 1011.336 1014.724 1017.481 1016.925 1016.19 1015.837 1015.042 1012.102 1000.268 993.2712 986.2946 980.3807 975.2516 971.6094 964.8753 963.6588 964.0501 965.029 966.9159 970.9736 981.1185 984.8524 988.9968 993.5109 998.5142 1007.032 1009.419 1010.75 1013.162 1018.161 1024.716 1041.255 1049.732 1057.789 1065.537 1073.133 1080.469 1092.368 1097.486 1103.884 1110.481 1116.188 1122.419 1135.854 1142.01 1147.882 1153.697 1159.49 1165.021 1176.344 1182.078 1187.656 1192.947 1197.535 1205.419 1208.058 1208.671 1208.199 1206.71 1203.459 1196.423 1193.921 1192.298 1191.055 1190.074 1189.174 1186.2 1184.26 1181.416 1176.551 1170.536 1165.549 1156.329 1153.18 1152.151 1152.589 1153.323 1153.763 1150.473 1146.906 1141.578 1136.084 1132.938 1139.914 1147.703 1154.272 
992.9379 993.9919 991.8132 991.0828 993.0629 997.3157 1001.904 1005.807 1010.523 1011.29 1011.564 1011.902 1012.296 1011.905 1004.547 999.3319 993.0919 986.5483 980.3868 974.8972 967.769 964.6655 962.326 961.3741 962.4312 965.757 971.5301 977.9739 982.671 986.6234 991.104 998.83 1000.151 1004.616 1011.782 1018.66 1026.07 1042.641 1050.955 1058.793 1066.372 1073.78 1080.858 1092.727 1098.079 1103.714 1109.514 1115.171 1120.802 1134.41 1141.192 1147.328 1153.001 1158.651 1163.973 1175.642 1181.601 1187.236 1192.444 1197.134 1201.992 1202.968 1202.815 1201.836 1200.239 1197.679 1191.325 1188.403 1185.392 1183.442 1182.929 1182.039 1177.65 1175 1172.129 1168.079 1162.856 1157.776 1147.404 1145.097 1144.785 1145.039 1145.285 1145.58 1143.349 1138.905 1133.995 1130.333 1128.445 1135.115 1143.435 1151.07 
984.2093 984.5608 982.8805 982.8316 985.183 988.9974 992.9255 996.9702 1002.791 1003.958 1004.55 1004.669 1004.205 1004.401 1005.719 1003.641 998.7075 992.6429 986.7399 980.4499 971.3409 968.247 965.3266 962.3555 960.1162 961.7126 963.6496 968.2233 974.5533 980.091 984.1786 992.1102 996.3618 1003.078 1011.099 1018.631 1026.254 1043.402 1051.167 1059.123 1067.123 1074.125 1079.893 1091.155 1096.29 1101.893 1107.823 1113.615 1118.952 1132.687 1139.61 1145.808 1151.446 1156.684 1162.228 1174.216 1180.638 1186.262 1190.77 1194.965 1198.037 1197.578 1196.781 1195.801 1194.531 1192.334 1186.192 1183.174 1180.229 1177.511 1175.17 1173.159 1168.991 1166.865 1163.894 1159.787 1154.863 1149.619 1141.132 1138.96 1138.21 1138.207 1138.19 1138.097 1135.423 1131.222 1126.508 1123.505 1122.514 1131.847 1140.056 1147.501 
975.1561 974.5089 974.2053 975.1648 977.7344 981.0039 984.2804 988.0696 994.137 995.4915 996.0539 996.0484 995.3126 995.228 1001.219 1002.475 1000.572 996.3027 991.487 987.0015 974.9848 971.5874 968.6816 966.0619 962.7586 959.3045 960.9449 962.5778 965.8929 971.2571 977.0085 987.4067 994.7015 1002.491 1010.225 1017.815 1025.34 1040.851 1048.321 1056.609 1064.606 1071.06 1077.192 1088.493 1093.881 1099.435 1105.02 1110.488 1116.239 1130.506 1137.362 1143.714 1149.618 1154.723 1166.094 1172.259 1178.818 1184.308 1187.622 1189.869 1191.96 1191.207 1190.209 1189.265 1188.216 1186.801 1181.238 1178.326 1175.287 1171.834 1168.392 1165.831 1161.798 1160.184 1157.042 1152.261 1147.37 1142.663 1134.017 1131.363 1130.262 1129.972 1129.782 1129.378 1123.998 1120.859 1118.922 1117.491 1117.415 1130.617 1138.778 1145.636 
966.1039 965.4094 965.5178 967.3093 970.4611 973.546 975.8961 978.4043 983.5966 985.0152 985.8984 986.3149 986.0762 986.1612 991.3257 993.9459 995.3814 995.4641 993.672 989.6058 978.8747 974.8246 971.4612 968.5119 965.5753 957.6294 958.3126 960.356 961.8207 964.938 970.7036 984.0371 992.6671 1000.99 1009.05 1016.597 1023.391 1037.985 1044.943 1052.318 1059.94 1067.014 1074.013 1084.946 1090.347 1095.948 1101.512 1106.869 1112.643 1126.636 1134.034 1141.273 1147.638 1152.814 1163.828 1170.126 1175.743 1180.281 1182.816 1183 1183.519 1183.5 1183.271 1182.945 1182.623 1181.83 1176.495 1173.639 1170.229 1166.267 1162.076 1158.234 1154.772 1152.609 1149.476 1145.344 1140.765 1136.191 1127.116 1122.932 1120.74 1120.371 1119.745 1117.503 1115.446 1113.579 1111.985 1111.557 1114.358 1129.877 1138.052 1145.202 
961.0362 958.546 959.7104 961.6178 964.4156 967.1097 969.0761 970.9761 974.1595 974.8676 975.4216 975.9493 976.3194 976.9679 982.3463 985.5794 988.6064 990.9567 991.8671 990.7245 981.3708 976.8356 973.2997 970.1613 967.4027 957.7271 956.6348 958.3956 960.2579 963.3914 968.3329 981.7235 989.604 997.8945 1006.047 1013.268 1019.763 1033.759 1040.775 1047.615 1054.562 1061.68 1069.055 1080.836 1085.899 1091.667 1097.637 1103.198 1108.699 1122.108 1130.216 1138.284 1145.188 1151.049 1161.443 1167.775 1172.974 1176.135 1177.802 1178.402 1178.601 1178.552 1178.253 1177.692 1176.86 1175.637 1172.096 1168.747 1164.661 1160.422 1155.9 1151.841 1147.973 1145.708 1142.44 1138.497 1134.046 1129.264 1119.984 1116.284 1113.889 1112.424 1111.122 1108.033 1107.088 1106.602 1106.383 1107.731 1112.806 1129.889 1137.609 1144.795 
955.3641 952.0412 954.9355 956.692 958.846 961.0408 962.9663 964.7123 966.8739 967.5955 967.9686 968.0463 968.0879 968.3273 972.8965 976.8276 980.433 983.5986 986.5791 986.5598 981.8763 977.7177 974.6076 971.3702 968.4866 958.9034 954.0755 954.0869 957.4277 961.3482 965.9709 979.9639 986.7853 994.0542 1001.532 1008.695 1015.794 1029.218 1036.095 1042.766 1049.33 1055.957 1062.802 1076.301 1081.416 1086.813 1093.026 1099.408 1104.908 1117.51 1125.578 1134.28 1142.858 1149.88 1158.943 1164.771 1169.97 1172.692 1173.499 1173.836 1173.795 1173.567 1173.36 1172.818 1171.68 1170.091 1165.79 1162.767 1158.676 1153.572 1148.069 1143.573 1138.864 1136.747 1134.003 1130.135 1125.783 1121.644 1111.37 1107.419 1104.609 1102.027 1100.028 1097.509 1098.537 1100.371 1103.612 1108.51 1114.296 1130.447 1137.67 1144.549 
949.2318 944.9778 946.4774 950.3129 953.2415 955.2664 956.9679 958.4389 960.55 961.0684 961.2195 961.0117 960.6063 960.4045 962.5637 965.9252 970.3781 974.7183 978.2006 981.6442 980.696 978.5095 975.4905 971.7411 968.426 959.8817 953.3468 951.2166 954.2711 959.2768 964.4524 979.1092 985.3528 991.9832 998.0914 1003.777 1011.552 1025.018 1031.647 1038.235 1044.832 1051.554 1058.136 1071.368 1077.347 1082.625 1088.626 1095.233 1101.347 1114.218 1121.933 1130.629 1140.417 1149.183 1157.233 1161.402 1165.05 1167.171 1167.965 1168.467 1168.194 1167.617 1167.015 1166.19 1164.896 1163.155 1159.535 1156.511 1151.847 1146.591 1141.349 1135.978 1129.001 1125.602 1122.051 1119.305 1116.851 1113.632 1103.186 1097.962 1093.868 1090.801 1088.761 1090.443 1094.488 1099.32 1103.612 1108.51 1114.296 1130.447 1137.67 1144.549 
943.0858 939.2289 938.6266 941.3832 944.8571 948.1132 950.6264 952.6759 954.5671 954.7415 954.4747 953.7452 952.9824 952.5538 952.9166 955.1118 959.5383 964.5667 968.7886 976.1924 977.1424 976.6047 974.494 970.7831 967.4733 958.7696 953.1409 950.6387 952.545 958.4438 966.1177 980.9967 987.4316 992.9577 997.1877 1001.74 1009.013 1021.208 1028.22 1034.878 1042.081 1049.96 1056.83 1068.701 1074.598 1080.18 1085.975 1092.271 1105.778 1112.834 1120.487 1129.656 1140.17 1148.787 1155.153 1158.086 1159.957 1160.643 1161.013 1161.362 1160.939 1160.071 1159.092 1158.201 1157.419 1156.383 1152.706 1149.45 1145.321 1140.725 1135.564 1129.896 1120.688 1117.374 1114.336 1111.482 1108.785 1105.884 1095.744 1089.744 1084.582 1090.801 1088.761 1090.443 1094.488 1099.32 1104.502 1109.826 1116.291 1130.983 1137.801 1144.315 
937.6388 933.7531 932.0759 934.3058 937.1572 940.3026 942.8909 944.7003 947.4603 947.9703 947.812 947.3309 946.9319 946.7075 947.1295 948.356 950.1785 953.2523 958.2672 967.2175 969.659 970.7271 970.0648 968.0602 965.2325 956.0988 951.7358 950.0662 952.795 959.7712 968.1005 983.9587 990.596 995.6512 1000.246 1004.906 1009.989 1021.153 1028.079 1034.974 1042.49 1050.87 1058.221 1070.525 1075.965 1080.91 1086.138 1092.003 1105.994 1113.893 1121.417 1129.85 1139.565 1147.713 1151.945 1153.325 1153.953 1153.992 1153.972 1153.955 1153.156 1152.332 1151.552 1150.79 1150.1 1149.404 1146.835 1143.88 1140.01 1135.696 1130.489 1124.346 1114.831 1111.197 1107.98 1105.023 1108.785 1105.884 1095.744 1089.744 1084.582 1081.984 1081.672 1087.022 1094.1 1100.645 1105.91 1111.464 1117.65 1131.382 1137.934 1144.073 
931.5348 928.1732 926.5259 927.5052 928.8109 930.7728 933.3019 935.7734 940.3851 940.9615 940.7027 940.5942 940.5013 940.4256 940.153 941.7103 944.5455 947.358 950.5322 959.1705 963.1698 965.0078 964.7176 963.6798 961.9316 953.1226 950.1618 949.8022 954.068 962.2451 970.1977 986.6008 992.9905 998.4521 1003.585 1007.853 1012.871 1025.359 1031.745 1038.907 1046.594 1053.976 1060.93 1073.482 1078.618 1083.385 1088.809 1095.507 1110.361 1117.287 1123.945 1130.888 1137.87 1143.43 1147.289 1147.428 1147.167 1146.755 1146.258 1145.659 1144.502 1143.859 1143.179 1142.467 1141.798 1141.174 1138.708 1137.079 1134.56 1130.686 1130.489 1124.346 1114.831 1111.197 1107.98 1105.023 1102.175 1095.163 1090.984 1084.65 1078.3 1075.989 1078.133 1087.146 1094.839 1101.764 1107.35 1113.037 1118.318 1131.644 1138.144 1143.905 
926.3992 924.6467 922.6987 923.1224 923.8362 924.611 925.5265 926.6508 929.8551 931.4611 932.6908 933.6886 934.5286 935.3021 936.6494 937.7602 939.4419 941.9385 945.4059 952.2267 955.5741 958.2023 959.0775 958.2262 956.585 950.5153 948.8965 950.397 956.1068 964.6461 972.3617 988.0575 994.566 1000.105 1005.236 1010.174 1015.712 1028.836 1035.658 1043.098 1050.514 1057.129 1063.838 1076.392 1081.071 1086.396 1092.634 1099.709 1113.947 1119.442 1124.902 1129.963 1133.942 1136.25 1137.976 1138.389 1138.141 1137.439 1136.72 1136.08 1134.648 1133.943 1133.266 1132.718 1132.229 1141.174 1138.708 1137.079 1134.56 1130.686 1126.105 1120.82 1110.017 1106.385 1103.038 1099.343 1096.341 1090.358 1086.642 1078.753 1072.038 1071.819 1075.656 1087.204 1093.582 1100.696 1107.749 1113.685 1118.43 1131.707 1138.062 1143.598 
920.9045 919.6256 918.4117 918.9099 919.3073 919.5423 919.8245 920.2686 922.3902 924.2405 925.9895 927.2106 928.1247 930.4221 932.2075 934.598 936.7064 938.3956 940.7386 947.2927 950.6141 952.6074 953.4291 953.8245 952.9786 947.5891 947.9294 951.9633 958.6512 966.7869 974.5635 989.3094 995.8497 1001.573 1006.631 1011.922 1018.327 1031.643 1038.851 1046.612 1053.711 1059.964 1066.724 1078.815 1083.528 1089.567 1096.578 1103.287 1115.146 1120.229 1124.187 1126.42 1127.794 1128.599 1129.297 1129.421 1129.171 1128.619 1128.051 1127.514 1134.648 1133.943 1133.266 1132.718 1132.229 1131.612 1130.565 1130.104 1128.369 1125.171 1121.472 1117.049 1107.125 1103.251 1099.169 1094.981 1091.266 1084.376 1077.978 1071.214 1068.157 1069.915 1074.919 1087.004 1092.711 1099.143 1106.418 1112.949 1117.786 1130.672 1137.066 1143.022 
915.8668 914.9434 914.0733 914.6464 914.8353 914.6896 914.6573 914.7137 915.0981 916.8328 920.2023 923.3358 924.9502 926.6259 928.3557 931.4454 934.4093 936.3101 937.9508 942.462 944.9495 946.8796 948.2279 948.8234 948.386 945.0059 947.8087 953.828 961.065 968.9186 976.624 990.3916 996.8615 1002.709 1007.802 1013.47 1020.989 1034.23 1041.542 1049.226 1056.152 1062.677 1069.201 1080.528 1086.032 1092.874 1099.698 1105.161 1114.554 1117.975 1120.464 1121.323 1121.262 1121.424 1129.297 1129.421 1129.171 1128.619 1128.051 1127.514 1126.368 1125.851 1125.284 1124.708 1124.209 1123.737 1122.732 1122.154 1121.782 1120.305 1116.734 1112.754 1103.762 1099.9 1096.034 1091.728 1086.87 1074.48 1068.362 1063.818 1063.318 1067.538 1073.935 1086.269 1091.741 1097.541 1104.719 1111.813 1116.846 1128.503 1134.967 1141.439 
911.509 910.7191 909.1379 908.8907 909.1565 909.9238 911.31 912.8398 914.5095 915.3734 917.5251 920.1807 922.1671 925.6815 927.7422 930.0786 932.4064 934.3998 935.8795 938.6814 940.1482 941.4058 942.3074 942.9886 943.2596 945.8678 949.8019 955.7238 963.3192 970.8666 978.3422 991.5157 997.9351 1003.812 1009.187 1015.44 1023.323 1036.73 1044.352 1051.76 1058.362 1065.099 1077.224 1082.351 1088.453 1095.307 1101.15 1105.577 1112.506 1117.975 1120.464 1121.323 1121.262 1121.424 1121.999 1121.685 1121.169 1120.753 1120.344 1119.838 1118.647 1117.979 1117.397 1117.079 1117.002 1116.947 1116.841 1116.654 1115.917 1114.412 1112.09 1108.712 1099.906 1096.003 1092.381 1088.348 1082.483 1065.556 1060.389 1058.534 1059.667 1064.41 1071.883 1084.473 1090.223 1095.857 1102.818 1110.319 1115.803 1126.961 1132.901 1138.794 
906.6043 906.4284 907.9969 911.1931 913.8609 916.0256 917.2236 917.8122 918.4715 918.6806 918.1954 918.2593 920.3376 925.1846 927.5377 929.1889 930.5807 932.0363 933.4868 936.2394 937.2879 938.1494 938.7982 939.5147 941.0187 947.5399 951.8468 957.9373 965.1888 972.3071 979.3931 992.6469 998.9465 1004.881 1010.758 1017.562 1025.291 1039.247 1046.882 1053.855 1060.133 1066.921 1079.105 1084.307 1088.453 1095.307 1101.15 1105.577 1112.506 1114.208 1115.312 1115.982 1116.231 1116.229 1116.149 1115.909 1115.486 1114.911 1114.211 1113.42 1111.744 1110.804 1110.094 1110.064 1110.558 1110.918 1111.47 1111.653 1111.028 1109.448 1107.199 1099.76 1095.896 1092.388 1088.798 1083.441 1074.929 1059.233 1056.296 1055.821 1057.725 1062.549 1069.557 1082.526 1088.476 1094.155 1100.945 1108.619 1114.71 1125.521 1130.971 1136.516 
902.9448 905.0237 913.5165 916.4619 918.7735 920.5678 921.8928 922.6745 923.4332 923.342 922.8151 921.7388 920.8248 923.4583 925.6017 927.4261 928.6603 929.5669 930.8908 933.8409 935.1683 936.3867 937.5718 939.6161 942.9241 949.0598 953.7666 960.0807 966.8784 973.4883 980.2933 993.7447 1000.041 1006.038 1012.333 1019.611 1026.99 1041.156 1048.594 1053.855 1060.133 1066.921 1079.105 1084.307 1090.863 1097.29 1101.9 1105.282 1108.921 1109.706 1110.414 1110.908 1110.92 1110.786 1110.376 1110.192 1109.672 1108.8 1107.826 1106.8 1105.467 1105.348 1105.411 1105.67 1106.143 1106.484 1106.858 1106.862 1106.256 1104.645 1102.221 1095.768 1092.296 1088.842 1083.918 1075.816 1065.736 1054.338 1051.717 1052.441 1056.123 1061.059 1067.416 1080.539 1086.596 1092.565 1099.302 1106.839 1113.47 1124.002 1129.205 1134.493 
903.5542 909.6382 919.6599 922.4974 924.8284 926.3459 927.1865 928.0899 928.1823 928.1862 927.5095 926.3049 925.3629 923.1562 924.2217 925.8151 926.6575 927.3898 928.8602 932.2724 934.0833 936.2943 938.5255 941.1135 944.3662 950.285 955.4765 961.9695 968.3054 974.5966 981.3002 994.8049 1001.186 1006.038 1012.333 1019.611 1026.99 1041.156 1048.594 1055.317 1061.673 1068.613 1080.676 1086.335 1092.853 1098.551 1102.219 1104.317 1104.452 1104.456 1104.511 1104.527 1104.575 1104.745 1104.94 1104.513 1103.683 1102.329 1100.466 1098.726 1098.699 1099.736 1100.82 1101.664 1102.36 1102.827 1102.965 1102.402 1101.53 1100.233 1098.115 1092.23 1089.039 1084.159 1076.025 1066.014 1057.875 1049.178 1047.073 1048.872 1053.662 1059.302 1065.301 1078.554 1084.633 1090.862 1097.681 1105.13 1112.206 1122.401 1127.508 1132.596 
905.5163 915.4462 925.5335 928.4695 929.5526 930.4821 931.245 932.4267 932.8865 933.0634 932.8175 932.285 931.5731 929.1022 928.1405 927.9399 927.9821 928.7916 931.3993 935.5366 937.2227 938.7827 940.9608 943.7874 946.2972 951.7605 957.2213 963.6512 968.3054 974.5966 981.3002 994.8049 1001.186 1007.378 1014.043 1021.486 1028.401 1042.26 1049.417 1056.337 1063.027 1069.602 1081.616 1087.44 1094.244 1099.668 1101.841 1101.903 1099.05 1098.211 1097.402 1096.89 1097.089 1098.016 1099.653 1098.618 1096.844 1094.491 1091.524 1088.992 1090.986 1093.503 1095.599 1097.097 1098.231 1099.049 1098.992 1098.274 1097.108 1095.561 1093.461 1088.562 1084.084 1075.727 1065.294 1057.509 1053.346 1043.718 1043.089 1046.388 1051.836 1057.766 1063.657 1076.872 1083.132 1089.583 1096.401 1103.699 1111.046 1120.882 1125.847 1130.748 
909.14 915.4772 927.8449 931.1081 932.8585 934.3195 935.3964 936.7482 937.4409 938.092 938.891 939.7567 939.9002 937.5708 936.5345 935.7079 935.279 935.5327 936.623 939.8851 941.4166 943.2325 945.6436 943.7874 946.2972 951.7605 957.2213 963.6512 969.511 975.4854 982.3758 995.8165 1002.202 1008.753 1015.664 1022.657 1034.917 1042.257 1049.731 1056.794 1063.656 1070.144 1082.407 1087.959 1094.058 1097.973 1097.799 1095.964 1090.785 1089.703 1089.425 1089.366 1089.656 1090.511 1092.075 1090.67 1088.091 1085.081 1082.276 1080.687 1083.207 1085.888 1088.69 1091.175 1092.84 1093.729 1093.804 1092.946 1091.563 1090.047 1088.165 1081.65 1073.489 1064.272 1057.833 1053.415 1047.878 1037.911 1038.896 1044.144 1050.727 1056.608 1062.621 1075.701 1082.233 1088.791 1095.449 1102.537 1109.688 1119.48 1124.308 1129.241 
910.4617 915.0306 926.9045 931.9177 935.73 938.4067 939.8013 941.7502 943.0364 944.333 945.483 946.3824 946.8611 945.5928 944.3588 942.968 941.7675 941.4186 936.623 939.8851 941.4166 943.2325 945.6436 948.0856 949.6072 953.8104 958.7407 964.6173 970.2965 976.3906 983.436 996.3589 1002.619 1009.432 1016.204 1022.369 1034.372 1041.398 1048.814 1056.256 1063.672 1070.459 1082.727 1087.747 1090.514 1090.639 1088.78 1085.96 1080.637 1079.878 1080.405 1081.368 1082.198 1082.768 1083.512 1082.978 1081.458 1079.191 1076.391 1074.109 1076.535 1078.859 1081.225 1083.552 1085.326 1086.231 1085.702 1084.081 1082.553 1081.162 1079.216 1069.176 1061.601 1056.365 1052.846 1047.601 1040.781 1033.979 1035.792 1041.951 1049.512 1055.697 1061.724 1074.704 1081.277 1087.94 1094.67 1101.513 1108.209 1118.238 1122.879 1128.034 
909.1019 912.884 924.8652 931.4406 937.3883 941.8593 944.614 948.7051 950.3109 951.6182 952.6716 953.6338 946.8611 945.5928 944.3588 942.968 941.7675 941.4186 942.3795 945.9267 947.5825 949.446 951.2017 952.6207 953.9158 957.34 960.5081 965.2265 970.9711 977.2391 984.5154 996.6324 1002.621 1008.893 1015.297 1021.921 1034.149 1040.867 1047.82 1055.582 1063.709 1070.47 1081.052 1083.925 1084.115 1081.989 1079.256 1077.064 1072.979 1071.141 1070.52 1072.084 1074.99 1077.124 1078.752 1078.34 1076.759 1073.982 1070.372 1067.129 1068.152 1069.871 1070.915 1071.799 1073.029 1074.327 1072.995 1070.851 1068.86 1067.435 1065.941 1057.672 1053.492 1050.018 1045.72 1040.156 1035.031 1030.766 1033.722 1040.91 1048.575 1054.952 1060.862 1073.679 1080.367 1087.12 1093.876 1100.676 1107.218 1117.193 1121.372 1126.689 
904.8245 909.7223 921.7403 928.6953 936.104 942.7453 947.6017 948.7051 950.3109 951.6182 952.6716 953.6338 954.3848 954.0754 952.9813 951.7678 950.7097 950.3411 951.0052 952.4328 953.7234 955.2279 956.5096 957.7092 958.8627 961.1058 962.4526 966.1978 971.9777 978.3054 986.1194 997.0818 1002.945 1009.169 1015.579 1022.598 1035.185 1041.55 1047.953 1055.484 1063.251 1069.071 1074.987 1075.255 1074.561 1072.801 1070.997 1069.866 1066.928 1064.124 1061.589 1062.154 1065.976 1069.672 1073.275 1073.109 1071.249 1068.155 1064.062 1058.868 1055.351 1056.892 1058.475 1059.499 1060.055 1060.306 1060.029 1059.213 1058.198 1057.102 1055.227 1048.51 1045.107 1041.926 1037.993 1033.533 1029.938 1027.782 1032.645 1040.298 1047.908 1054.346 1060.065 1072.615 1079.362 1086.254 1093.091 1099.928 1106.506 1116.415 1120.261 1125.571 
902.3826 911.8512 921.7403 928.6953 936.104 942.7453 947.6017 954.6171 956.7053 958.7833 960.3362 961.342 962.04 962.2775 961.6915 960.6882 959.5155 958.7078 958.6122 959.2758 960.1075 961.0903 962.0742 963.0789 964.1054 965.8513 966.9165 969.7368 974.274 980.2987 988.5566 998.3636 1004.739 1011.827 1018.461 1025.213 1037.25 1042.852 1048.371 1054.691 1060.716 1064.467 1067.591 1067.488 1066.866 1066.007 1065.227 1064.56 1061.362 1057.69 1054.171 1053.095 1055.237 1059.099 1064.773 1065.317 1063.899 1060.881 1056.764 1050.646 1043.021 1044.258 1046.969 1049.018 1050.071 1050.588 1050.587 1050.449 1050.194 1048.723 1045.283 1039.24 1036.977 1034.479 1031.271 1027.732 1024.911 1025.809 1031.819 1039.64 1047.282 1053.763 1059.326 1071.564 1078.364 1085.439 1092.328 1099.152 1105.754 1115.884 1119.761 1124.981 
902.3826 911.8512 918.6833 925.5859 933.4804 941.0107 946.6094 958.0068 962.2569 965.2153 967.3354 968.9221 970.1812 970.9817 970.545 969.5127 968.3517 967.2955 966.4397 966.2972 966.5923 967.1184 967.8643 968.668 969.691 972.2754 973.8419 975.5397 978.4978 983.9686 995.6444 1000.733 1007.688 1014.777 1020.834 1027.162 1038.541 1043.539 1048.204 1052.113 1054.863 1056.639 1058.533 1058.332 1058.189 1058.375 1058.491 1058.364 1055.046 1051.142 1046.535 1043.955 1045.43 1049.456 1055.711 1056.747 1055.938 1052.987 1048.526 1043.538 1035.454 1034.863 1036.63 1038.989 1040.818 1041.941 1042.451 1041.913 1040.585 1038.75 1036.131 1032.416 1030.894 1028.654 1025.823 1023.283 1021.651 1024.405 1030.944 1038.755 1046.171 1052.717 1058.51 1071.306 1078.113 1084.897 1091.676 1098.472 1105.06 1115.512 1119.526 1124.495 
901.6 909.0003 915.8188 922.941 930.855 938.5419 945.0298 958.5621 964.8585 968.8349 972.0296 975.5703 978.0336 979.8248 979.491 978.3539 977.0168 975.6317 974.6268 973.9019 973.7689 973.7256 973.9493 974.5679 975.4132 978.161 979.543 981.0688 983.6801 987.9563 997.4922 1003.279 1010.129 1016.611 1022.339 1028.302 1039.188 1042.854 1045.309 1046.619 1047.194 1047.491 1047.411 1047.714 1048.743 1050.261 1051.457 1051.6 1047.708 1043.461 1038.765 1035.87 1036.72 1040.618 1047.386 1048.112 1047.091 1044.465 1040.526 1036.917 1028.922 1026.629 1026.758 1028.514 1030.526 1033.529 1034.314 1033.727 1032.283 1031.036 1029.972 1027.168 1025.367 1022.952 1020.166 1018.241 1018.172 1023.471 1030.174 1037.998 1045.258 1051.876 1058.049 1071.554 1078.255 1084.535 1091.274 1098.236 1104.573 1115.074 1119.229 1123.992 
901.3005 907.5769 913.9172 920.9182 928.493 936.22 943.5987 957.8774 964.6584 970.3627 975.1353 979.3224 983.2809 987.2314 987.4395 987.1991 986.374 985.0387 983.7629 982.205 981.4926 980.8911 980.7849 981.165 981.6057 983.6464 984.7593 986.0032 988.1617 991.8217 1000.393 1005.909 1012.094 1018.017 1023.453 1028.864 1038.521 1039.736 1039.688 1039.343 1039.008 1038.569 1037.774 1038.947 1040.96 1042.957 1044.518 1044.837 1039.676 1034.979 1029.82 1026.747 1028.177 1032.236 1038.148 1038.875 1038.218 1036.084 1033.268 1027.453 1023.747 1020.628 1019.446 1020.339 1022.01 1025.682 1026.318 1026.233 1025.69 1024.825 1023.889 1020.741 1018.527 1016.1 1014.055 1013.414 1015.079 1023.067 1029.744 1038.156 1045.977 1052.683 1058.536 1072.071 1078.395 1084.228 1090.9 1098.077 1104.158 1114.638 1118.895 1123.488 
901.1825 907.0002 912.7098 919.1766 926.3193 934.174 942.4676 957.5344 964.5319 970.7908 976.338 981.7166 987.1957 992.115 993.5501 994.7142 994.6968 993.5769 992.4586 990.4055 989.4419 988.7452 988.3653 988.0303 987.9455 989.1891 990.0737 991.2126 993.3519 996.7879 1004.45 1008.865 1013.979 1019.493 1024.506 1028.831 1034.23 1033.171 1031.476 1030.11 1029.565 1029.346 1029.052 1029.736 1031.491 1033.852 1035.951 1036.627 1030.588 1026.713 1020.648 1016.05 1017.594 1021.89 1029.107 1029.52 1029.358 1028.167 1026.788 1023.1 1019.748 1015.892 1013.661 1014.082 1015.621 1018.565 1019.174 1019.037 1018.479 1017.703 1016.878 1014.212 1012.511 1011.162 1010.387 1011.114 1014.551 1025.194 1032.283 1040.528 1048.017 1054.304 1059.813 1072.874 1078.702 1084.072 1090.583 1098.026 1103.74 1114.05 1118.455 1122.989 
901.0685 906.7581 912.0476 918.0154 924.41 931.9006 941.085 957.18 964.3322 970.6844 976.4389 982.0192 987.295 994.2233 997.6329 1000.596 1001.318 999.9301 998.6463 996.1857 995.3694 994.72 994.1981 993.7946 993.5729 994.4205 995.4365 996.7756 998.7828 1001.682 1008.093 1011.858 1016.429 1021.447 1025.879 1028.725 1028.094 1025.951 1023.667 1022.13 1021.781 1021.87 1022.157 1022.294 1023.079 1024.596 1026.207 1026.703 1022.184 1019.546 1014.004 1008.846 1009.151 1012.253 1020.404 1022.029 1022.565 1022.168 1021.855 1019.634 1016.938 1013.136 1009.949 1008.742 1009.066 1012.123 1012.805 1012.496 1011.79 1011.062 1010.318 1008.624 1007.711 1007.26 1008.156 1010.992 1015.515 1029.243 1036.202 1043.568 1050.403 1056.171 1062.089 1074.335 1079.654 1084.912 1091.237 1098.013 1108.557 1112.953 1117.774 1122.641 
900.9691 906.7626 911.955 917.5802 923.2187 930.1169 939.7783 956.8152 964.0457 970.4131 976.2054 981.8714 987.2285 995.3419 999.3978 1002.793 1004.949 1005.972 1005.654 1003.247 1002.115 1001.037 1000.056 999.3781 999.0657 999.6231 1000.934 1002.301 1003.987 1006.438 1012.182 1015.77 1020.092 1024.112 1026.995 1028.388 1023.964 1021.007 1018.466 1016.94 1016.381 1016.506 1017.178 1016.76 1017.265 1018.357 1018.661 1018.597 1016.296 1012.997 1008.266 1003.759 1002.182 1005.389 1013.303 1016.478 1018.896 1021.043 1020.702 1016.485 1014.892 1011.413 1006.854 1003.33 1001.886 1005.812 1006.849 1006.701 1006.02 1005.252 1004.273 1002.31 1003.124 1005.562 1008.362 1011.456 1016.515 1031.515 1037.957 1044.395 1050.681 1056.723 1063.465 1075.567 1080.784 1086.202 1092.275 1098.117 1107.092 1111.359 1116.401 1121.089 
901.2783 907.4518 912.7647 918.0262 922.9324 929.4547 939.5742 956.4319 963.7864 970.2138 976.0047 981.7462 987.2422 995.6573 999.7173 1003.882 1008.112 1011.467 1012.565 1011.339 1010.223 1009.128 1007.993 1007.028 1006.284 1006.61 1007.408 1008.596 1010.01 1011.518 1016.96 1020.743 1024.145 1026.736 1028.24 1027.947 1021.243 1016.878 1013.091 1009.434 1006.968 1007.95 1009.838 1008.299 1009.45 1011.99 1011.885 1011.188 1006.074 1002.657 999.942 996.6605 993.3454 994.8415 1006.115 1011.54 1019.278 1025.547 1022.757 1012.29 1009.231 1006.454 1003.569 999.8488 997.2839 1000.569 1001.694 1001.05 999.582 998.313 997.7202 998.6965 1001.848 1006.272 1010.127 1013.697 1018.461 1030.518 1036.515 1042.299 1048.413 1054.383 1062.607 1075.821 1081.683 1087.57 1093.552 1099.013 1106.719 1110.617 1114.194 1117.38 
902.0248 909.2894 914.3423 919.1071 923.1318 929.4334 940.4587 956.0838 963.5259 970.0763 975.9395 981.6934 987.2788 996.0054 1000.353 1005.626 1010.916 1014.408 1016.188 1016.825 1016.446 1015.904 1015.293 1014.701 1014.253 1014.182 1014.232 1014.91 1016.139 1017.487 1022.118 1024.803 1026.961 1028.637 1029.06 1027.028 1018.737 1013.557 1008.541 1003.314 999.4177 999.3785 1001.025 999.8676 1000.64 1002.494 1002.773 1002.425 996.7435 993.4044 991.324 989.3867 986.5995 986.9496 999.4938 1007.647 1017.256 1022.694 1018.364 1006.807 1002.112 1000.328 999.3313 995.453 991.3663 993.138 993.9882 992.6357 990.7669 989.5582 990.0137 998.9877 1003.64 1008.187 1012.712 1017.184 1021.847 1033.502 1039.174 1044.149 1049.567 1055.656 1062.28 1076.049 1082.761 1089.035 1094.594 1099.583 1106.53 1110.26 1112.754 1113.87 
903.734 911.9656 916.1733 920.2752 923.8334 929.924 941.0983 956.3036 963.5972 970.2401 976.2325 981.816 987.2506 996.3386 1001.102 1006.928 1012.515 1016.241 1018.954 1020.469 1020.339 1020.345 1020.368 1020.324 1020.267 1020.408 1020.76 1021.308 1022.251 1023.973 1028.193 1029.109 1029.8 1029.833 1028.599 1026.117 1016.588 1010.718 1004.717 998.7963 993.9112 992.5829 993.4146 993.2493 992.6677 991.5095 991.9345 994.0768 991.1063 987.4726 984.1403 980.8841 978.1686 987.316 995.7498 1003.82 1010.588 1013.497 1011.043 1002.028 997.7535 993.5596 990.8922 989.2137 986.5341 986.0804 986.4037 985.3469 984.4646 985.6087 989.4626 1000.702 1006.033 1010.936 1015.765 1020.857 1026.499 1038.742 1043.79 1049.007 1054.721 1060.736 1065.65 1077.402 1084.195 1090.098 1095.091 1099.549 1103.772 1104.422 1104.478 1103.949 
906.7087 915.0532 918.7255 922.0869 925.853 932.2608 941.9778 957.3145 964.3998 970.9042 976.7737 982.0878 987.2905 996.7388 1001.804 1007.691 1013.487 1018.214 1022.351 1028.181 1028.802 1027.115 1025.416 1025.14 1025.09 1025.293 1025.836 1026.796 1028.765 1032.128 1035.432 1033.235 1030.485 1028.301 1026.161 1023.013 1014.61 1007.795 1000.403 993.858 988.7748 987.7676 987.8876 987.6478 986.8802 985.1595 985.368 987.842 985.3871 981.6558 977.8969 974.8231 974.2123 984.3436 992.2391 1000.154 1004.685 1004.481 1002.706 997.548 994.225 989.764 985.3137 982.2912 980.252 978.6742 978.0344 977.9653 980.4744 984.8563 990.03 1002.066 1007.706 1013.195 1018.413 1024.041 1030.791 1042.587 1047.507 1053.369 1059.478 1064.65 1068.987 1079.889 1085.772 1090.777 1095.344 1099.212 1099.052 1096.19 1093.813 1092.575 
910.0048 917.8665 921.4143 924.7673 929.654 936.8184 944.0162 958.5607 965.5091 971.6484 977.2909 982.3623 987.2814 997.2122 1002.503 1008.22 1014.364 1020.532 1025.692 1036.963 1037.796 1034.091 1029.654 1028.262 1028.757 1028.942 1029.139 1030.41 1033.226 1036.627 1036.974 1031.797 1027.186 1023.807 1020.066 1016.415 1010.167 1004.278 996.9048 990.1736 985.8557 984.1252 983.5994 982.9941 981.6917 979.4509 977.9133 979.8115 979.3943 975.6609 970.6218 967.2482 969.8378 981.9719 987.44 993.8538 998.0585 998.1621 996.6949 992.8536 990.2073 985.5705 979.8531 975.6231 973.6638 973.2217 973.0826 974.713 979.0942 984.104 989.226 1002.664 1008.465 1014.41 1020.661 1027.14 1033.84 1044.702 1049.822 1055.768 1061.676 1066.554 1076.339 1081.424 1086.275 1090.302 1093.472 1094.879 1088.774 1084.636 1082.166 1081.102 
913.21 920.6624 923.9913 928.2853 934.355 941.0963 946.9742 960.0779 966.5833 972.3503 977.8377 982.8622 987.7922 997.9109 1003.253 1008.826 1015.093 1022.276 1033.718 1036.63 1036.192 1033.15 1029.849 1028.643 1027.883 1028.062 1028.319 1028.948 1030.514 1032.437 1030.214 1025.627 1021.746 1018.214 1013.736 1009.311 1004.428 999.8371 993.796 987.5619 981.9197 978.7849 980.0062 979.9043 977.9728 975.2987 973.5395 974.6667 973.6163 969.1001 964.7701 962.9017 966.1942 977.7624 982.8406 988.2667 991.8093 992.3359 991.5956 987.5851 983.9293 979.1592 973.1876 967.6671 965.0075 967.4423 970.7136 973.9167 978.1284 983.3489 987.9431 1002.501 1008.896 1015.294 1022.057 1028.987 1035.411 1045.507 1050.484 1056.26 1061.866 1066.498 1076.143 1080.518 1085.107 1088.572 1089.741 1088.339 1079.905 1074.724 1071.453 1070.279 
916.6827 923.4512 927.3703 933.0071 939.3782 945.0211 950.4508 961.6589 967.5707 973.0712 978.3783 983.8059 989.0847 999.8284 1004.759 1009.634 1015.692 1023.193 1029.403 1029.118 1027.987 1026.418 1024.76 1023.232 1021.141 1021.393 1022.393 1023.49 1024.364 1025.268 1022.283 1018.193 1014.883 1011.694 1007.474 1002.485 995.71 992.0252 987.8604 982.6856 977.1149 974.4838 977.4454 977.2427 974.0534 969.2404 966.172 968.26 967.6344 963.646 959.6573 958.998 962.5298 972.9424 979.0084 983.8699 986.2167 986.1063 985.1592 981.5132 977.978 972.7665 967.0969 963.2006 962.293 967.397 971.8168 975.239 979.4946 984.365 987.7208 1001.229 1007.743 1014.706 1021.852 1029.33 1036.588 1045.63 1050.286 1055.28 1060.146 1064.476 1073.381 1077.714 1082.121 1085.027 1084.678 1081.225 1071.714 1067.127 1063.334 1061.535 
920.476 926.7849 931.8556 938.0536 944.0573 949.4343 954.3466 963.9424 969.4075 974.6921 979.7421 985.2302 990.9396 1002.557 1006.641 1010.604 1016.439 1023.875 1024.945 1022.892 1020.776 1018.461 1016.145 1013.915 1011.827 1012.214 1014.027 1016.628 1018.246 1018.38 1014.065 1009.75 1005.738 1002.938 1000.371 996.3659 987.2437 983.0589 979.8577 975.8891 970.4349 967.255 971.7042 971.2067 968.047 964.0474 962.1531 963.4545 961.7066 957.3179 952.9155 953.1096 958.2452 971.5126 977.7853 979.7986 979.3771 978.6324 977.5861 975.0708 971.7114 966.8691 962.8425 960.7744 960.5707 970.0983 975.2108 979.427 983.7938 988.0848 992.0065 1000.956 1006.93 1013.903 1020.905 1028.656 1036.683 1045.623 1049.909 1054.274 1058.294 1061.932 1070.416 1074.282 1077.805 1079.163 1077.307 1073.488 1063.841 1059.825 1056.534 1053.286 
924.3016 932.1662 937.3722 943.0139 948.5167 953.5834 958.1533 967.4743 972.6227 977.696 982.4507 987.6625 994.2432 1005.082 1008.896 1012.433 1017.066 1022.417 1020.633 1018.175 1015.167 1011.421 1007.456 1004.148 1001.999 1002.7 1005.52 1009.001 1010.895 1010.648 1003.844 1000.386 997.1423 994.054 991.472 989.0876 980.3873 974.4824 969.5428 966.1535 963.3126 961.4628 966.4163 965.7675 963.5073 960.5508 958.4297 956.5427 955.0251 952.4239 950.2918 951.6986 957.5553 970.7848 974.6083 974.7767 973.5507 972.529 971.3903 968.3671 965.3503 962.1202 959.2715 958.0507 961.0593 974.3887 979.4 983.4214 988.1782 992.6688 996.8157 1005.734 1010.178 1015.412 1021.109 1027.49 1036.521 1045.827 1049.844 1053.611 1056.948 1059.932 1067.587 1071.577 1074.776 1074.667 1070.762 1065.71 1057.028 1053.576 1049.924 1046.222 
929.3123 938.5392 943.5987 948.6481 953.1797 957.3879 961.7595 971.2829 976.1947 981.0124 985.8654 991.6053 998.5863 1007.44 1011.157 1014.341 1017.308 1019.646 1016.527 1012.971 1008.244 1003.514 999.4133 995.9535 991.3511 991.722 995.272 999.006 1000.587 1000.053 995.626 993.1777 990.2252 986.3889 983.0961 981.404 974.5806 968.1462 962.6439 957.8771 953.4667 953.3786 956.3145 958.0773 958.5415 957.0491 954.5344 951.0229 950.4518 949.1162 949.1915 952.6613 958.7304 968.0889 968.9517 968.7707 968.0599 966.7256 965.3636 962.6018 959.6128 956.0507 954.3389 956.4243 962.1385 976.2477 981.6359 986.3418 991.2223 996.2861 1001.332 1010.119 1014.861 1019.497 1024.776 1030.772 1041.949 1046.385 1050.278 1053.093 1055.308 1057.875 1064.765 1068.146 1069.932 1068.428 1064.056 1059.192 1050.601 1046.383 1040.964 1036.209 
936.2339 945.0875 949.7579 953.8681 957.3552 961.021 965.3859 974.7738 979.5386 984.1169 989.3413 995.8645 1001.867 1010.258 1013.256 1015.68 1017.431 1017.061 1010.961 1005.549 999.6429 993.894 989.7367 988.0386 983.7965 983.7726 985.7861 988.3812 990.1724 989.8885 988.1807 986.2598 982.5571 978.162 975.1525 973.8898 969.875 965.5278 960.1085 954.4849 950.1922 948.7438 949.6122 952.4508 954.5746 954.0468 951.6084 945.1043 943.5168 943.9205 947.8195 953.9958 959.752 965.0428 964.6263 963.9962 963.064 962.0509 960.8781 957.0595 953.8052 951.3397 952.2191 956.6044 962.5565 977.3752 982.7825 987.7232 992.7333 997.7013 1002.614 1012.126 1017.736 1023.304 1028.581 1034.035 1042.504 1046.172 1049.338 1051.123 1052.126 1054.042 1061.539 1064.371 1064.718 1062.356 1058.183 1053.25 1044.151 1039.196 1032.9 1026.613 
942.7707 950.9638 954.8271 958.2541 961.4833 965.1374 969.5422 978.3635 982.7005 987.4951 993.4901 999.9858 1009.232 1012.701 1015.27 1016.381 1015.729 1013.422 1003.694 998.0415 992.0363 986.8627 983.6746 981.743 976.399 976.0172 978.5662 980.6412 980.7759 981.1621 981.6898 980.3343 976.9327 972.0186 967.4106 965.2573 964.6786 962.5173 958.7661 954.5856 949.9714 944.0042 941.8497 945.7712 948.7744 948.7994 946.0453 939.8434 938.5386 941.4716 948.2601 954.7141 958.5559 960.9903 960.532 959.9783 959.2426 958.2938 957.1247 953.1962 950.1887 948.3804 950.6996 956.6722 962.7486 977.6271 983.267 988.3558 993.303 998.1927 1003.228 1013.568 1019.417 1025.279 1030.684 1035.706 1041.786 1043.556 1044.485 1045.319 1046.91 1049.108 1056.739 1060.282 1060.544 1057.08 1051.873 1047.264 1038.607 1032.538 1025.824 1021.196 
948.2554 955.8992 959.4113 962.7609 966.181 969.9812 974.1368 982.941 986.8345 991.6489 997.6822 1003.359 1012.252 1014.979 1016.451 1015.415 1011.703 1007.163 996.8156 991.6143 986.2072 980.9871 977.3347 975.0978 966.723 966.5533 969.7628 972.1146 972.3393 973.014 975.7419 975.6238 972.8149 967.972 963.0987 959.5068 957.055 956.6129 955.4484 953.4561 949.7046 943.7089 938.2635 939.4665 940.9615 941.6299 941.3568 937.2628 937.5202 941.9911 949.0696 954.3527 955.9249 956.6393 956.2453 955.8289 955.3422 954.7911 954.0799 948.6239 944.7266 945.6983 951.1336 957.0647 963.0209 977.6451 983.1617 988.1844 993.2672 998.4866 1003.71 1014.582 1020.581 1026.18 1031.25 1036.424 1039.023 1037.815 1036.487 1037.126 1040.151 1042.973 1049.005 1051.345 1051.89 1049.904 1045.927 1041.745 1031.643 1025.368 1018.911 1013.534 
953.1866 960.7071 964.0931 967.3157 970.7542 974.6455 979.2058 988.088 991.8333 996.2347 1001.365 1006.777 1014.793 1016.825 1016.476 1012.848 1006.974 1000.237 989.5886 985.8488 980.7687 975.3366 971.0372 966.9722 960.8777 960.5198 962.3748 964.0151 963.7811 964.0405 969.3911 969.7234 968.0607 964.621 959.2197 953.0897 950.8273 951.2662 951.2879 950.0998 947.4123 939.3632 935.3763 933.6727 934.3072 935.6609 936.2731 935.376 937.6457 942.887 949.1997 952.6959 952.8481 952.4483 952.1533 951.9492 951.6821 951.0033 949.4596 940.8207 939.6545 944.7689 951.8962 957.5489 963.261 977.1901 982.576 987.5269 992.8196 998.3454 1003.546 1014.203 1020.342 1025.916 1030.688 1035.012 1033.019 1028.383 1026.37 1028.266 1032.478 1036.421 1040.129 1042.677 1044.37 1043.448 1040.158 1035.51 1022.695 1016.989 1010.907 1006.709 
957.7266 965.1375 968.1804 971.4498 975.0912 979.828 985.6822 992.0571 996.0979 1000.288 1004.266 1009.458 1015.599 1016.42 1014.936 1009.777 1001.958 993.6569 983.9152 980.7827 976.7515 971.6411 965.9459 960.9614 954.0355 954.4465 956.1072 956.2278 955.5672 957.2427 964.288 965.5256 964.4637 961.1573 956.1881 950.9186 944.7765 944.4932 944.8167 944.5051 943.6284 939.2565 933.1606 928.4025 927.9418 929.5861 929.8896 934.5719 938.6258 943.017 947.3455 949.3145 949.004 948.4786 948.2974 948.1005 947.7146 946.6005 944.19 937.5135 938.262 944.7904 952.6411 957.9083 963.3953 976.4416 981.7994 986.7515 992.0929 997.7981 1003.165 1013.497 1019.348 1024.559 1028.719 1031.261 1025.148 1020.209 1017.429 1018.936 1022.921 1026.551 1031.82 1033.947 1037.126 1037.782 1034.217 1028.902 1015.058 1008.848 1001.858 997.8817 
962.2 968.2738 972.0198 975.496 978.4707 982.7802 988.5654 991.2108 994.3425 998.957 1003.006 1006.43 1013.602 1014.954 1012.397 1006.557 999.1968 991.2251 978.779 974.8791 971.4054 966.9948 961.9438 956.5088 949.1702 949.1824 950.3495 950.0087 948.8338 950.4523 956.7512 958.1359 958.5294 957.4169 954.1317 948.843 938.524 938.3998 939.2239 940.0065 940.3571 938.6841 933.2769 927.8389 925.8224 926.1149 926.5674 934.3956 939.1744 942.5111 944.5989 945.3113 944.5101 943.4723 943.6777 944.2839 944.2928 942.9828 940.7014 933.5088 937.2026 945.4244 952.4297 957.913 963.5534 975.5936 980.8595 985.7881 991.116 996.8038 1007.549 1012.638 1018.263 1023.701 1027 1026.418 1015.934 1009.873 1007.462 1011.019 1016.929 1020.323 1023.707 1026.654 1030.733 1031.289 1028.276 1023.766 1009.454 1008.848 1001.858 997.8817 
961.7772 968.1857 972.1281 975.9175 977.6537 978.8284 982.4846 984.8701 987.553 991.0769 995.4905 999.6562 1007.091 1010.243 1008.983 1003.838 997.432 990.1896 978.263 969.5728 963.8145 959.551 953.8784 951.0162 944.0449 943.9088 943.6129 941.5219 939.4813 941.2223 949.0956 950.8358 952.6254 953.4586 951.5522 947.4013 936.963 932.0781 928.7672 928.7734 930.78 932.5457 930.733 928.0847 925.5493 924.3511 925.9121 935.4538 939.9968 941.7468 941.7683 941.2408 940.0734 939.0521 940.0916 941.3345 941.7827 940.5132 936.8707 932.329 938.0866 945.7894 952.0685 957.3829 962.7612 974.7463 979.8759 984.2419 989.1525 995.078 1006.584 1011.891 1016.938 1021.147 1022.151 1018.053 1006.976 1000.82 997.968 1003.041 1010.397 1011.959 1017.254 1026.654 1030.733 1031.289 1028.276 1023.766 1009.454 1003.68 998.0708 994.1078 
956.3065 964.5685 967.8481 970.0465 970.8416 971.0927 972.8814 975.4551 978.4043 982.3963 986.9877 990.4276 998.9207 1002.621 1003.946 1001.746 996.0427 989.3118 978.3644 969.9404 961.7391 955.0883 948.5958 943.3156 938.3063 938.5213 937.9839 935.9621 934.1703 935.6216 940.5552 942.3076 945.8548 948.5509 948.4103 946.2516 936.6771 930.2885 925.6537 924.1473 924.1124 926.5005 926.9548 924.4113 922.2802 923.5598 926.3018 936.3287 939.577 939.79 938.7172 937.6338 936.9188 936.4799 937.2217 938.3334 938.7863 936.4885 930.6885 931.3937 938.9942 945.9084 951.611 956.7083 961.8565 973.4027 978.3881 982.2744 987.0037 992.9191 1005.019 1010.762 1014.912 1015.354 1012.677 1009.021 1000.177 994.4721 997.968 1003.041 1010.397 1011.959 1017.254 1021.137 1023.564 1023.742 1021.789 1017.714 1005.621 999.765 993.3479 987.0344 
949.2239 957.7158 961.3334 962.8207 962.3562 961.8171 962.47 966.6655 971.2043 974.9385 978.7708 982.496 989.451 994.459 997.9355 997.5652 993.7715 988.5468 978.5038 970.5114 962.1357 955.4778 949.0511 942.6984 933.1282 931.2679 931.0055 929.8079 927.3234 926.9291 934.2162 937.2656 940.2061 942.0245 942.5823 941.8782 937.4263 931.5983 925.6378 920.8756 918.5819 918.8739 918.441 918.0294 919.5169 923.2807 927.4388 934.2953 935.1048 934.4415 933.7446 933.3543 933.4217 934.0516 934.3068 933.9761 932.4837 929.7394 926.5407 932.0737 939.7939 946.0209 951.3044 955.775 959.9717 968.913 974.1997 979.2365 984.3597 990.3395 1001.678 1006.493 1010.487 1015.354 1012.677 1009.021 1000.177 994.4721 992.4711 995.6503 999.6697 1001.245 1009.938 1014.359 1016.717 1016.823 1015.007 1010.942 999.0468 994.0212 989.3055 984.2664 
942.6358 951.2606 953.1685 953.3834 952.9374 951.0362 952.8542 959.6836 965.7722 969.3507 972.4136 976.0283 983.5616 988.1168 991.8109 992.9537 991.0743 986.9807 976.8348 969.9516 962.6797 956.4056 950.0615 943.1582 930.2112 926.5129 925.7881 925.176 923.8566 923.9796 930.1991 933.0894 935.2417 937.2083 939.6746 941.841 937.9297 931.9719 925.0221 918.4854 914.6221 914.2874 913.9828 914.7404 918.5441 924.171 928.2425 929.4203 928.2233 927.576 927.6602 928.4189 929.6237 931.4139 931.3232 930.3754 928.6935 926.4829 924.8713 933.4405 940.2921 945.5928 950.3461 954.2538 957.4873 964.3186 969.4756 979.2365 984.3597 990.3395 1001.678 1006.493 1010.487 1010.419 1006.44 1002.512 991.7186 985.9767 984.5355 987.3953 991.136 993.4954 1000.827 1006.379 1010.116 1010.627 1008.532 1003.467 992.5284 987.9507 983.3798 977.993 
937.0998 942.024 942.8542 942.3332 940.2314 939.6053 948.231 953.6846 958.735 962.5297 965.746 970.003 977.356 981.8908 986.2386 988.8133 988.5751 985.1793 974.4207 968.9952 962.9286 956.66 950.52 943.4769 930.8817 926.082 922.5821 919.8629 918.2129 918.7999 925.9552 928.0193 929.9274 934.1755 940.0125 941.0427 936.6929 931.2892 924.5762 917.5525 913.0272 911.6936 912.4259 914.7214 919.3169 924.6564 927.9505 926.5988 925.489 924.9464 924.9989 925.6688 927.0763 929.4729 929.5444 928.5944 926.5503 923.9604 922.8304 933.5252 939.2838 943.5162 950.3461 954.2538 960.9896 964.3186 969.4756 974.9976 980.4863 987.4029 997.1371 1001.558 1004.673 1003.987 999.6649 994.3599 982.9966 978.2888 978.2288 981.7028 984.4365 986.626 993.6337 997.4522 1002.11 1004.242 1001.75 997.3267 986.7329 981.4878 976.8366 971.9264 
928.1307 931.2126 933.6465 933.3602 931.491 931.6191 943.3162 946.8504 950.1821 954.7608 960.2892 965.0167 971.6526 975.3647 979.4978 982.9119 984.1647 982.7192 973.6774 967.2575 961.2104 955.7719 949.7704 942.9861 931.4175 926.5284 921.5385 916.8137 914.1017 914.3674 920.9695 923.3723 925.8986 931.4942 939.0085 939.1684 934.5159 929.254 923.3679 917.2601 912.612 908.6182 911.4632 915.3244 918.8301 922.3932 924.5738 923.5518 922.9249 922.589 922.7587 923.4681 924.5101 926.627 927.152 926.0154 923.2655 923.9604 922.8304 933.5252 939.2838 943.5162 947.4356 951.608 959.2 962.5292 967.0191 971.6713 976.5036 983.4382 991.9849 996.6088 1000.433 999.0884 992.7675 986.4263 975.353 970.2858 970.591 975.1558 979.2715 982.1022 986.8068 990.1047 995.6117 998.8177 996.0998 991.5914 982.0247 976.3456 971.6459 967.5705 
922.5815 925.4183 926.834 925.9933 924.8876 926.1975 936.2947 939.568 944.1057 950.0613 954.3694 957.0566 965.5969 970.6038 975.1486 978.4205 980.1617 980.2732 972.463 965.1925 959.505 954.8461 948.9029 941.8176 931.4302 926.6627 921.6073 916.8548 913.6108 912.7983 917.2049 920.1978 923.6837 928.3611 934.0872 936.213 931.7896 927.1328 922.1798 916.8457 911.2133 904.4238 908.826 913.9459 916.5767 917.4207 917.8422 918.7587 919.3655 919.9925 920.5101 923.4681 924.5101 926.627 927.152 926.0154 923.2655 921.3337 922.5715 931.6201 936.3086 939.7452 944.0571 949.9711 958.9286 963.3362 966.7304 970.1581 974.3339 978.5437 985.7637 989.9962 994.2012 993.5723 987.5239 981.6955 968.735 961.2078 960.3195 966.6078 972.7565 975.3391 978.9261 982.0812 987.3686 990.6076 988.3803 984.8123 976.9326 971.393 966.3571 961.8804 
917.8925 919.5431 919.4344 918.4962 918.2961 920.7523 927.7217 933.387 939.7548 943.525 945.3759 948.0909 961.518 967.404 970.3945 973.5589 976.123 976.9637 970.1123 963.6662 958.5754 953.9379 947.8805 940.5555 930.9302 926.2928 921.4132 916.7843 912.9934 911.1625 913.4778 916.5433 920.2901 924.6169 928.9805 932.2313 929.1566 925.136 921.0276 916.2131 909.8027 902.0235 905.0153 909.4216 912.4991 913.5175 917.8422 918.7587 919.3655 919.9925 920.5101 920.8696 921.3108 921.9531 921.6526 920.751 919.3566 919.5387 923.4035 930.7388 935.1262 938.7715 944.2306 951.47 958.4187 962.1362 965.1168 967.3718 969.6266 972.3979 980.7534 986.1857 990.5338 990.3387 985.1569 978.3897 962.855 954.0536 952.6349 957.7219 961.7728 964.5452 969.757 973.3803 979.3458 983.0629 980.7972 977.5014 971.1428 965.6149 959.0862 953.174 
914.8885 914.9283 913.8066 913.0255 913.1616 914.9326 923.4243 929.2297 933.7922 936.0327 937.4567 941.9828 958.8201 962.7283 963.2811 962.1364 963.0628 968.1423 967.5865 962.401 957.2098 952.0215 945.8611 939.1602 929.8726 925.4486 920.9545 916.6017 912.0568 905.4833 908.0016 912.087 916.2512 921.0178 926.0239 929.2405 926.982 923.3414 919.5773 915.1241 908.5817 902.0235 905.0153 909.4216 912.4991 913.5175 914.0377 915.2834 916.53 917.6649 918.2102 918.1661 917.9725 917.2365 916.3397 916.085 917.8885 921.658 925.4686 932.772 937.0995 941.2119 946.0654 951.4581 956.7529 959.0073 960.7408 961.9171 963.2223 966.0977 977.1244 983.7225 988.8948 988.6771 983.2685 975.9079 955.8852 947.9464 945.5928 947.9042 951.6047 954.3622 960.0417 965.0958 970.1589 972.5391 971.6991 969.6159 964.5285 960.4786 954.0173 946.3534 
909.486 908.9186 907.2407 906.7343 908.5862 911.5203 920.1049 925.5038 927.0711 928.266 933.5171 940.9586 953.6596 954.9203 953.8704 952.2443 953.6342 960.6432 964.993 960.1912 954.5224 948.7053 942.1349 937.0558 928.1186 923.757 919.7138 915.6643 910.916 902.0121 903.3894 908.0704 912.8967 917.4291 922.3884 926.1602 926.982 923.3414 919.5773 915.1241 908.5817 901.3781 902.4376 904.4848 907.1267 909.4547 910.7437 912.4718 914.0191 915.1456 915.2166 914.8535 914.5739 913.7692 913.4493 914.9225 919.1131 924.358 930.7855 934.7006 938.9634 942.3653 945.6669 949.6898 954.2632 954.8243 954.4918 955.4664 958.8026 963.4656 976.4396 981.7497 985.0905 984.2931 979.5551 972.7634 952.0728 942.8616 938.2251 939.4717 943.8192 946.2656 951.0315 955.6563 959.9055 961.8082 961.8405 961.1083 957.1724 954.0802 948.9869 941.3135 
905.5632 904.0812 902.1339 902.2223 905.2147 908.8361 916.4879 919.4405 922.0046 925.8958 932.2677 940.0682 948.5549 947.563 944.9833 944.267 946.8093 951.8973 959.3171 956.1648 951.1032 945.0844 938.8573 934.812 926.2808 921.8197 917.5776 913.3181 908.5847 901.1716 903.3894 908.0704 912.8967 917.4291 922.3884 926.1602 924.1032 921.0966 917.9883 913.9203 907.8337 900.9073 901.0317 902.0668 903.7585 905.9241 907.8757 909.7168 910.2817 910.0377 909.2518 909.0495 909.5685 910.8467 912.6352 916.7139 922.5999 927.3471 931.5918 934.8904 938.4767 941.1004 942.8771 944.9489 949.0018 949.5983 949.8189 952.0963 957.665 964.189 976.646 980.1572 980.3135 978.4388 975.3018 969.2581 950.1099 940.5411 933.7188 932.6053 936.6329 939.2443 942.2971 945.2017 948.9576 952.4229 953.996 952.0784 946.0711 942.5765 937.7515 932.3361 
901.2137 898.4241 897.8473 900.7322 903.9049 904.7589 910.6514 914.3004 918.5462 924.7164 931.8897 939.4019 941.6263 939.353 936.6539 936.1827 940.3265 946.2111 952.3398 950.9401 946.9174 942.2792 937.9221 933.1793 924.2058 921.8197 917.5776 913.3181 908.5847 901.1716 901.9531 905.9286 910.8284 915.2518 919.147 921.4367 920.4781 918.4507 915.5356 911.7242 907.0191 900.4069 899.2614 899.7977 901.8497 904.3888 906.2822 906.7356 905.5486 903.6918 902.4304 903.1957 905.908 912.348 916.0158 920.5912 925.7061 928.5772 930.7894 932.4773 935.0009 937.1355 938.2426 939.1785 940.9503 945.2042 949.4803 953.6324 959.5746 966.0995 977.3726 978.6891 977.0085 973.8127 969.7592 964.5078 947.2661 938.4901 929.7541 926.041 929.5543 932.4183 934.4148 937.152 941.0283 944.4846 945.5439 942.5261 933.647 930.0788 927.3343 924.6248 
891.8829 890.3108 892.315 896.1725 899.021 900.4661 906.2145 911.397 917.6426 924.851 931.5964 937.2729 935.5546 931.8547 927.6972 927.9899 935.5596 941.8639 944.8148 943.2062 946.9174 942.2792 937.9221 933.1793 924.2058 919.4801 915.0865 910.7629 906.301 900.0939 901.2591 904.8904 909.2737 913.4535 916.2941 916.6795 916.4643 915.2305 912.9269 909.9661 906.2988 898.0842 895.7314 896.3156 899.3553 902.9225 904.8624 904.0554 902.1223 900.5695 900.9825 903.5558 907.1959 915.9259 917.5446 920.0511 923.349 925.5637 927.7333 928.7455 929.845 931.0515 933.1206 936.0267 939.5723 945.2806 950.9084 955.8149 961.8571 968.3666 978.1913 976.6083 972.3165 967.7272 962.6566 956.2853 944.89 937.8922 930.0344 925.0698 924.8857 926.1755 927.6612 930.1362 933.3909 936.1539 936.9935 931.9454 927.1179 923.4312 921.0784 919.0886 
887.2156 887.3217 888.9706 890.884 893.6009 897.915 906.9592 912.2596 918.7466 925.4695 930.3469 932.6282 927.2039 924.3342 927.6972 927.9899 935.5596 941.8639 944.8148 943.2062 940.6221 937.7823 934.5418 926.7788 921.8097 916.8665 912.5899 908.5099 904.3107 898.1713 899.6866 903.5041 907.2522 910.3565 912.2238 912.3467 912.3618 911.6091 909.9852 907.8206 904.8262 894.873 891.4352 892.7125 897.0123 900.9441 903.1592 900.2726 897.7374 898.3416 901.8726 905.0408 908.2958 915.6331 916.0524 916.3064 917.0278 919.6345 924.951 925.8972 926.2828 927.1124 930.2822 935.6196 943.427 948.0148 953.1818 958.5782 964.1588 970.7325 977.4761 972.8787 966.9138 960.9814 954.7242 949.8442 942.7819 937.1486 930.5936 924.7499 920.9294 919.1067 920.6598 923.0291 925.9825 929.0897 931.3179 927.069 922.2017 918.3445 915.371 914.1055 
881.1424 883.2375 886.3932 889.1607 892.9237 897.9481 907.8475 913.289 919.8143 925.4695 930.3469 932.6282 927.2039 924.3342 922.7339 924.4393 930.5211 936.6037 937.6678 936.502 935.0897 933.2161 930.6722 923.7276 918.7789 914.3645 910.4606 906.4377 902.304 893.8034 895.6728 900.9329 904.7687 906.1666 906.5416 907.4021 907.4838 907.2661 906.7154 905.4068 902.6266 892.2681 890.3579 891.5642 894.5665 897.6034 898.5197 894.5102 894.9219 899.0977 903.5469 905.5028 906.7859 910.6196 912.3297 913.6807 914.8467 917.3698 923.905 925.1458 925.8937 927.9631 932.2964 937.6899 947.2217 952.065 957.1974 962.1035 966.9486 972.8088 975.5928 970.149 964.1924 957.7724 951.3262 948.3456 941.2368 936.1937 930.6373 924.9282 919.1181 914.5782 913.8444 916.0178 919.0398 922.4386 925.8337 921.3177 915.4966 911.1875 908.9852 910.2881 
877.8586 880.9011 885.1168 889.2019 892.9237 897.9481 907.8475 913.289 919.8143 926.3734 929.8328 928.6333 921.0039 917.5612 916.2087 919.9017 927.1083 931.177 932.4574 931.4977 930.3359 928.8801 927.1187 920.6817 916.1021 912.3087 908.6772 904.563 899.9645 890.1637 891.3779 896.8545 901.2581 902.0598 901.6417 902.3047 902.7858 903.0149 903.0051 902.1328 898.8121 890.1966 889.9994 891.4739 893.1286 893.7728 892.7197 890.373 894.0217 900.3135 904.2521 904.4592 903.6517 906.3305 910.6547 914.2492 916.6133 919.2332 924.8117 926.621 928.4934 931.8557 936.5594 941.2709 951.4543 956.4274 961.3727 965.5376 969.2147 973.2705 973.6873 969.933 965.7223 960.063 953.3368 948.8144 940.8839 935.7448 930.1621 924.7816 919.402 914.1636 905.8707 906.8707 910.3019 914.1576 917.7615 914.4125 908.178 903.5458 903.5702 908.5291 
877.8586 880.9011 885.1168 889.2019 893.3513 897.7176 908.0208 913.9435 920.0343 925.4673 927.7821 925.0969 914.6787 911.9438 911.4938 915.103 922.5267 927.7267 927.7783 927.0954 926.2712 925.5922 924.603 918.9164 915.3635 911.6793 907.5313 903.0564 898.1646 889.3484 889.5128 892.431 895.0851 895.9075 896.0659 896.7916 897.4435 897.9308 898.0256 897.3398 895.006 888.5815 889.4022 891.5832 892.6738 892.1892 890.5246 889.3531 893.46 898.5618 901.5839 901.5132 902.9285 906.8948 911.8646 915.863 918.8945 921.7552 927.1219 929.6232 932.7441 936.4936 940.8098 945.765 955.7311 960.743 964.8239 967.6907 970.1022 972.0983 971.7358 969.722 967.1136 962.393 955.6879 950.1875 940.5236 935.0751 929.4131 924.291 919.934 915.0994 901.3519 900.2455 902.4362 905.8647 909.0038 907.1231 901.6483 899.1299 902.2111 908.6452 
877.3798 880.7319 884.7773 888.8629 892.9083 897.3301 907.7715 913.786 919.038 922.5823 923.1957 920.3364 910.0013 905.7582 906.6027 912.1711 918.113 922.7601 924.7066 924.6801 924.4058 923.8553 922.8364 918.4537 915.5346 911.5938 907.1768 902.7302 897.5507 888.9019 888.5306 889.337 889.8806 890.0483 890.3664 891.2303 891.9168 892.6161 893.1255 893.0651 891.8243 887.685 888.8476 891.3467 891.8121 890.0481 887.5161 889.8198 893.5356 896.169 898.3083 899.9503 905.1041 909.3904 913.8317 917.6537 921.0129 924.2173 930.2233 933.3526 936.6928 940.64 945.4312 950.3596 959.3168 963.8434 966.4047 967.7152 969.0991 970.1013 969.3129 967.9043 966.2392 962.5363 956.7747 951.8958 940.9185 934.8392 928.7339 923.8445 920.1122 907.6943 900.9548 896.1926 895.0482 897.8574 900.5435 898.0217 895.2471 896.8246 902.1561 908.6864 
876.9232 880.4831 884.4427 888.0192 891.8146 896.9469 907.5955 913.6914 917.9821 919.4871 918.4825 915.5529 905.4486 901.7386 903.592 909.8412 915.6312 920.9853 921.9875 922.3832 922.4926 922.1821 921.0797 917.5529 914.9133 911.2645 907.197 902.9175 897.6729 888.6636 886.5132 885.0745 884.7161 885.0736 885.4369 886.5652 887.36 888.1495 888.835 888.8791 887.5886 884.7333 886.2108 888.4353 888.4081 885.8664 883.7823 891.176 893.6652 895.5188 897.9725 900.793 907.3491 911.7847 915.8848 919.6129 923.3876 926.9557 933.2288 936.7601 940.0803 944.2506 949.4936 953.5248 959.4923 962.7165 964.7249 965.8417 966.6716 967.5316 966.622 964.7122 962.5577 959.4358 955.5253 951.5757 941.5243 934.8741 927.9297 923.1072 919.0903 907.4786 900.0336 893.0338 889.7755 891.4297 893.3329 889.895 891.5062 896.0338 901.0352 907.2168 
876.8511 880.6759 884.7216 888.4378 892.3857 897.2179 907.5481 913.7149 917.3962 917.2438 914.3796 910.2833 901.2012 899.9125 902.3131 907.6294 913.4454 918.1389 918.9776 919.5408 920.2751 920.7095 919.7045 916.8806 914.3845 910.8692 907.13 903.377 898.7451 889.933 886.1003 881.8483 879.5578 879.9323 880.418 882.1551 883.3087 884.0993 884.4091 883.9211 882.3497 880.1372 881.7693 883.0861 882.2804 880.7747 881.59 890.0118 891.7805 894.2673 897.9268 901.2911 908.9214 913.5377 917.4468 921.135 925.2455 928.9968 935.7455 939.3033 942.585 946.5637 950.8524 953.1188 955.6215 957.9716 960.2362 961.9144 963.2123 964.629 962.3056 957.8759 955.0555 953.5125 951.4235 948.2427 939.681 933.182 926.7786 922.2262 917.611 906.4308 899.0899 892.0384 887.4532 885.7563 885.1057 885.0157 890.4163 896.5474 901.4229 907.2319 
877.4943 881.6034 885.7899 889.834 893.8 897.9839 907.7767 913.9319 916.6311 914.475 909.9333 905.1069 896.8112 895.7421 899.2546 904.9501 909.7515 915.1207 916.1478 916.8386 917.7796 918.7993 918.5801 915.7018 913.3148 910.2227 907.1829 904.2211 900.3047 891.5565 887.3263 882.3247 878.67 877.5691 877.0739 878.2917 879.4603 880.3484 880.7504 880.2693 878.6298 878.0484 879.6947 879.6302 878.1229 877.7199 884.2689 888.098 890.8496 894.1166 898.0394 901.5015 909.4844 914.0684 917.9998 921.8022 925.9267 929.7901 937.5421 940.7227 943.377 946.3481 948.8366 949.4406 950.9199 953.0758 955.2429 956.9133 958.4498 959.3968 955.525 950.5192 946.8735 945.6313 945.2317 943.6819 935.653 930.5168 925.5828 921.3714 917.0902 905.5851 898.6191 892.1025 885.9095 880.8503 878.7012 881.6146 888.9366 897.045 902.7816 906.4376 
878.3376 882.6313 887.0349 891.2481 894.9194 898.6419 907.5929 913.2589 915.4565 912.3053 906.6199 901.4015 892.2883 890.5645 894.2377 900.8477 905.8185 911.4514 913.1851 914.4773 915.8187 917.064 917.3951 914.0021 911.4472 908.8861 906.6244 904.3156 900.9352 892.978 889.2242 884.644 880.858 878.431 876.249 875.2951 876.0161 876.8212 876.9225 876.0273 874.684 876.9563 877.972 876.3887 875.4333 877.0289 883.6742 888.4372 891.9937 894.9953 898.1284 901.3161 909.355 913.8865 917.9592 921.9001 925.8915 929.8926 938.5758 941.3974 943.4034 944.6918 944.7777 944.2841 945.0348 947.6026 949.9604 951.8706 953.563 954.2863 949.0303 943.4644 939.3691 938.0225 938.4089 938.1789 930.5107 926.7102 923.206 919.8544 916.6275 904.9493 898.4499 892.1601 885.0999 878.7076 875.5146 878.0294 885.9467 892.9355 897.6639 901.7256 
878.7921 883.1454 887.8571 892.1847 895.3534 899.0753 906.4213 910.0594 911.7215 909.5766 904.9041 899.7461 890.0403 887.8275 889.4352 895.4824 902.2103 908.2864 910.3447 912.2145 914.2912 916.0961 916.3724 912.1415 909.4018 907.0457 904.9866 902.63 899.5132 893.146 888.9949 883.6771 879.7331 877.0891 873.3716 871.3934 872.4328 872.4688 871.2083 869.5411 869.1167 872.6418 872.7592 872.7997 874.9464 878.1756 884.787 888.6603 892.1004 895.379 898.4515 901.2108 909.3465 913.6219 917.601 921.7286 925.7078 929.6531 938.9371 941.4471 942.4659 942.4114 941.2078 939.8456 939.5674 941.8359 944.3176 946.3731 947.669 947.9423 943.1844 936.6298 931.1499 929.8815 930.9389 929.2623 926.2498 923.1037 919.9701 916.9909 913.7092 903.7836 897.9183 892.1909 885.0474 876.7862 870.7119 873.9689 881.6414 887.0988 891.1279 894.7015 
877.6204 882.4317 887.814 892.3289 895.1588 898.5381 904.571 906.3809 907.9763 907.473 903.7642 898.7524 889.0137 886.7793 887.4431 891.836 898.0309 905.9059 908.3335 910.5518 912.7015 914.5359 914.6744 909.7447 907.0591 904.7042 902.2211 899.2418 896.3885 891.1969 885.8688 880.1926 876.275 873.1047 869.0882 868.3379 869.7994 869.1651 867.2518 865.7842 865.7729 868.0768 869.757 872.862 876.7568 880.172 886.0483 888.8102 892.189 896.1824 899.6396 902.4101 910.2995 914.04 917.7526 921.7773 925.5998 929.0764 936.8017 939.2236 939.2664 937.4694 934.7197 932.5332 935.2623 937.3374 939.5138 941.0417 941.5977 941.8944 937.7034 931.5957 926.3744 924.7889 924.8594 924.4521 922.2414 919.4413 916.4533 913.3784 910.2065 901.7519 895.3484 889.3708 883.0472 874.5292 866.5167 869.3988 877.3486 881.8615 883.9257 888.3351 
875.8972 880.9404 886.9532 891.85 894.1047 895.8044 901.6558 904.3028 906.082 906.172 903.0234 892.3522 888.0778 885.3478 885.7286 889.4537 894.4794 904.0747 906.6765 908.85 910.8638 912.055 911.7615 907.0515 904.3613 901.4331 898.0071 894.6309 892.0132 886.7216 881.9125 877.1452 873.3919 870.0355 866.7829 867.5936 868.4839 867.426 865.5762 864.3474 864.1364 867.733 871.1505 874.9318 878.5416 881.8575 887.5516 890.2538 893.9792 898.1869 901.7708 905.0803 912.7624 915.7916 918.6948 922.0849 925.6287 928.84 933.3395 933.9132 933.1462 930.8635 928.0653 927.0583 931.1568 933.3891 935.1464 936.2424 936.5179 936.3301 932.4816 928.1124 921.558 917.2167 918.4071 919.9529 918.5357 915.861 912.6434 909.5923 906.8231 898.67 892.5014 886.6927 880.556 873.0016 865.632 865.9171 871.0302 874.6014 876.7676 879.9164 
874.9326 879.4098 883.4483 886.5476 888.301 889.2787 895.8073 901.1931 905.2651 905.6959 902.3566 891.7929 886.511 881.8271 881.4444 885.9838 891.5255 901.8383 904.9389 907.2457 909.1917 909.8746 908.96 904.8507 901.8474 897.7861 893.3386 889.5717 886.7107 881.3474 877.8138 874.0436 870.6247 867.4727 865.1412 867.2157 867.6636 865.6017 862.7737 861.7794 863.4943 869.8757 873.3105 876.7234 880.1768 883.5499 889.5136 892.9833 897.039 900.9113 904.0418 907.064 915.3094 917.595 919.4581 921.9968 925.0684 927.7575 929.9234 929.6815 928.3154 926.1759 924.7676 924.5776 927.5464 929.8618 931.4091 931.9933 931.7217 931.0506 927.9631 924.47 918.8145 914.1917 913.8871 915.4088 913.7184 910.3585 907.4288 905.3351 902.5031 894.4053 890.3291 885.4266 879.4687 872.6503 865.5509 861.8109 865.6885 867.8168 868.6068 872.4526 
872.652 875.3043 876.1085 876.2198 877.8081 880.3519 890.5333 898.8729 904.8317 905.012 901.3319 890.5218 884.5958 879.1057 877.7413 881.8848 888.3659 899.0635 903.0802 905.831 907.4665 907.9398 907.0232 903.1003 899.5921 895.3278 890.77 885.6897 880.6649 874.8192 871.8885 869.8785 867.7384 864.871 862.7981 864.8643 864.1249 860.9387 859.3767 861.4894 868.3831 871.9408 875.3929 878.8452 882.3146 885.7002 892.3823 896.252 900.3525 903.7074 906.1946 909.1451 914.9962 916.5449 918.011 919.8033 921.9919 924.0091 925.5448 925.1662 923.9123 921.9084 920.0691 919.3339 923.9127 926.5948 928.1654 928.2612 927.557 926.9158 924.5439 921.3414 917.1158 912.6221 908.691 907.7011 905.6769 903.1082 901.4027 899.6073 897.0218 890.4711 887.7834 884.3836 880.2056 874.2091 865.986 858.2361 858.494 860.5775 862.3331 865.4488 
869.0062 868.909 867.951 868.1458 871.4082 875.9826 889.143 898.1635 904.1583 904.3109 900.0076 888.5787 882.7874 877.8507 876.0317 878.6547 884.6691 896.3937 900.822 904.1817 905.9836 906.3753 905.4316 901.0876 897.3906 893.6618 889.1848 883.3794 877.8234 868.6713 865.8245 864.8836 862.9084 859.8495 858.2834 858.6907 857.2648 856.9794 859.3588 862.7677 870.0757 873.9708 877.6794 881.2829 884.7961 888.1993 895.6489 899.8632 903.1298 905.3109 907.4919 910.1069 912.9868 913.9608 915.1581 916.3359 917.5579 918.8448 920.0665 920.0342 919.5449 917.9294 915.6488 915.0371 920.1323 922.5255 924.1821 925.0084 924.9728 924.3887 922.2568 919.6547 916.2783 911.0618 904.4266 901.4143 900.2758 898.1824 896.0211 893.8539 891.4572 887.3937 885.2535 883.1232 881.0602 876.9798 869.8351 859.3248 855.2017 853.7601 855.2156 858.4462 
862.7979 862.4684 863.3368 866.1302 870.5007 875.8297 888.992 897.2781 903.4477 903.7163 898.3109 886.7195 881.1243 875.7565 872.9301 874.7703 880.6713 893.8021 898.5037 902.6259 904.9286 904.9225 903.7834 898.5797 894.9776 891.2976 886.9604 881.8491 877.0776 868.3908 864.7698 861.4833 857.8195 854.8112 854.4025 853.8111 853.6382 856.4315 860.4772 864.0406 872.1612 876.3755 880.1805 883.8155 887.4017 890.9583 899.1689 902.7538 905.0502 906.5429 907.8079 908.7928 909.714 910.1467 910.8994 911.7535 912.7123 913.83 915.152 915.5467 915.6152 914.7394 913.2924 913.0125 917.0657 918.8388 919.984 920.9664 921.6389 921.109 919.8419 918.3713 915.5854 910.3108 904.1938 897.2678 895.1624 893.1794 890.7796 888.1759 885.6239 882.7152 881.946 881.1251 880.4786 878.4308 873.3539 863.0327 856.5151 852.2026 851.9135 853.5562 
855.6536 857.4244 861.8954 866.9423 871.0913 881.1924 888.5982 896.0419 901.3347 901.4871 896.029 885.0117 879.3757 872.1552 867.4273 869.6556 876.655 891.1801 896.269 900.7211 903.4462 903.0299 901.2426 896.1861 892.924 889.1948 885.0103 880.5995 876.4528 869.9799 866.5038 860.704 854.8484 852.3185 851.4958 850.9364 853.282 857.4942 861.5037 865.4021 874.5967 878.8428 882.7609 886.6601 890.3139 893.7426 902.1678 904.8322 905.969 906.3665 906.4165 906.2095 905.5011 905.6943 906.1846 906.6744 907.1996 907.8814 909.5462 910.159 910.3676 909.9688 909.6122 910.6519 914.1382 915.5225 916.501 917.3113 918.1833 919.4656 918.598 917.2438 914.4084 909.6639 904.4236 893.4471 890.4388 888.7562 885.4507 881.353 878.9417 878.1409 877.9802 877.7666 877.5605 876.602 873.6004 867.2562 861.5903 854.0624 849.7852 849.7326 
853.0676 855.9762 861.4547 866.8302 871.0006 880.0154 887.9933 894.8317 897.6021 896.5054 892.7612 883.2335 877.1671 869.615 864.3921 865.7774 872.5485 888.233 893.8635 897.7656 900.0981 900.0461 898.2398 894.3574 891.5931 887.7949 883.4974 879.5016 875.7508 869.7836 865.5139 858.6345 852.5607 850.0988 848.3321 849.8304 854.5781 858.9919 862.8864 866.8683 877.4316 881.4778 885.2769 889.1107 892.4968 895.7028 903.4458 905.0175 905.1204 904.7169 904.1522 903.2611 901.0969 900.8009 900.8272 900.8367 900.9223 901.4557 904.6032 905.6292 905.4789 904.3552 904.2935 906.963 911.4179 912.7997 913.8431 914.9485 916.3644 918.455 917.7338 916.1234 913.0942 908.8406 904.4808 893.4381 889.7853 886.888 882.252 878.0084 876.8428 875.2252 874.2151 872.7042 872.0147 872.2692 871.6561 868.6461 864.6116 858.4691 851.54 846.666 
853.9673 857.4315 861.8192 866.2213 870.8848 880.3386 888.0952 893.6641 894.4717 892.4683 889.4539 881.5932 875.1266 868.1486 863.7175 863.6365 868.5334 884.4669 891.0089 895.2068 896.5547 895.8248 894.8992 891.9868 889.5066 886.1337 882.3507 878.5835 874.718 868.1729 862.5076 855.3711 849.6499 845.4719 846.297 851.83 856.7673 860.8066 865.0453 869.9162 880.1003 883.9358 887.7878 891.17 893.9495 897.132 902.9113 903.5282 902.7617 901.4645 900.147 898.6898 896.1514 895.1735 894.3098 893.6131 892.837 892.463 898.4771 900.5405 900.8726 900.8201 902.5421 905.2582 908.9806 910.691 912.1648 913.7255 915.6523 917.118 916.3599 914.439 911.3775 907.8096 904.0323 895.6281 892.6806 889.1979 884.4898 880.5165 878.316 873.3641 869.8552 867.1136 866.5423 867.5363 868.3779 868.7526 866.0266 860.8768 855.1033 849.2073 
856.1428 860.1553 863.9904 867.7922 872.2239 881.4127 887.8415 892.0056 891.6475 888.3206 884.5349 877.7952 871.4366 865.9048 862.4544 861.603 865.7655 880.2855 888.4048 893.3746 894.0284 892.9669 891.8889 888.4824 886.1807 883.5991 880.9636 877.5974 872.8551 864.723 858.8354 851.8368 845.3724 841.3226 847.4979 853.7371 858.7731 863.1257 867.7911 873.1957 882.559 886.2443 889.7798 892.6216 895.144 898.1249 900.591 900.0081 898.8326 897.2966 895.5013 893.5696 890.8663 889.4013 888.095 887.313 887.2089 888.106 891.9606 894.0053 896.2215 898.7087 901.1879 903.2867 906.3355 908.5195 910.8303 913.0445 915.1799 915.8809 914.0969 911.6013 909.0242 906.34 903.2177 895.3948 892.8843 889.3802 884.7084 881.1544 879.3011 872.5083 869.118 866.0327 863.2736 862.3326 863.2424 865.6296 864.4988 860.8154 856.0455 851.1169 
