NCOLS 82
NROWS 113
XLLCORNER 616413.99
YLLCORNER 4621855.4
CELLSIZE 10
NODATA_VALUE -9999
1446.117 1445.906 1445.696 1445.39 1445.291 1445.157 1444.803 1444.583 1444.345 1443.784 1443.484 1443.154 1442.779 1441.991 1441.601 1441.213 1440.268 1439.838 1439.487 1439.4 1439.463 1439.412 1439.386 1439.323 1439.264 1439.317 1439.591 1439.82 1440.236 1440.769 1440.967 1440.729 1440.151 1437.429 1435.421 1433.236 1429.359 1428.161 1427.28 1426.619 1426.088 1425.969 1426.004 1425.789 1425.696 1425.445 1425.003 1424.775 1424.626 1424.381 1423.875 1423.635 1423.367 1422.84 1422.61 1422.355 1421.851 1421.635 1421.43 1421.197 1420.798 1420.591 1420.388 1420 1419.854 1419.692 1419.379 1419.228 1419.023 1418.877 1418.501 1418.322 1418.16 1417.995 1417.96 1417.911 1417.751 1417.65 1417.553 1417.48 1417.324 1417.242 
1446.791 1446.565 1446.352 1446.003 1445.846 1445.664 1445.264 1445.036 1444.769 1444.501 1443.88 1443.528 1443.159 1442.385 1442.007 1441.705 1440.724 1440.208 1439.872 1439.903 1439.628 1439.453 1439.375 1439.343 1439.339 1439.341 1439.591 1439.82 1440.781 1441.24 1441.308 1440.927 1440.101 1436.958 1434.76 1432.432 1428.761 1427.626 1426.894 1426.512 1426.185 1426.117 1426.013 1425.818 1425.699 1425.487 1425.203 1425.053 1424.955 1424.806 1424.394 1424.218 1424.017 1423.596 1423.418 1423.147 1422.716 1422.464 1422.22 1421.982 1421.556 1421.34 1421.144 1420.736 1420.56 1420.34 1419.96 1419.789 1419.584 1419.421 1419.096 1418.938 1418.79 1418.623 1418.565 1418.525 1418.446 1418.172 1418.054 1417.967 1417.726 1417.56 
1447.504 1447.313 1447.068 1446.65 1446.431 1446.187 1445.834 1445.578 1445.287 1444.982 1444.324 1443.965 1443.627 1442.854 1442.484 1442.144 1441.315 1440.885 1440.437 1440.094 1439.415 1439.329 1439.301 1439.287 1439.284 1439.281 1439.621 1440.159 1440.781 1441.232 1441.265 1440.813 1439.908 1436.441 1434.162 1431.804 1428.398 1427.331 1426.732 1426.485 1426.251 1426.174 1425.993 1425.859 1425.736 1425.639 1425.524 1425.453 1425.372 1425.328 1425.016 1424.908 1424.744 1424.385 1424.22 1423.986 1423.78 1423.271 1423.008 1422.732 1422.255 1422.031 1421.795 1421.366 1421.151 1420.908 1420.667 1420.275 1420.074 1419.891 1419.559 1419.418 1419.29 1419.083 1418.998 1418.933 1418.851 1418.555 1418.431 1418.319 1418.178 1418.048 
1448.242 1448.069 1447.812 1447.323 1447.063 1446.819 1446.438 1446.169 1445.872 1445.525 1444.83 1444.474 1444.101 1443.308 1442.921 1442.539 1441.74 1441.317 1440.863 1440.286 1439.38 1439.338 1439.339 1439.323 1439.315 1439.315 1439.686 1440.276 1440.887 1441.232 1441.265 1440.42 1439.555 1435.875 1433.641 1431.376 1428.312 1427.354 1426.798 1426.567 1426.289 1426.147 1425.98 1425.925 1425.838 1425.854 1425.88 1425.974 1425.923 1425.903 1425.748 1425.698 1425.531 1425.235 1425.038 1424.857 1424.595 1424.071 1423.808 1423.478 1422.887 1422.668 1422.406 1421.912 1421.671 1421.423 1421.164 1420.709 1420.5 1420.326 1419.917 1419.777 1419.67 1419.421 1419.322 1419.217 1419.111 1418.847 1418.725 1418.619 1418.633 1418.709 
1449.016 1448.833 1448.559 1448.046 1447.753 1447.526 1447.096 1446.822 1446.494 1446.172 1445.413 1445.055 1444.638 1443.773 1443.339 1442.915 1442.004 1441.503 1441.048 1440.451 1439.56 1439.524 1439.504 1439.481 1439.465 1439.468 1439.516 1440.208 1440.713 1440.899 1440.866 1440.42 1439.555 1435.173 1433.148 1430.888 1429.156 1427.274 1426.794 1426.623 1426.34 1426.193 1426.038 1425.999 1426.046 1426.165 1426.283 1426.524 1426.575 1426.621 1426.569 1426.534 1426.429 1426.147 1425.947 1425.686 1425.424 1424.887 1424.564 1424.232 1423.549 1423.312 1423.065 1422.448 1422.172 1421.913 1421.674 1421.14 1420.925 1420.752 1420.327 1420.184 1420.055 1419.771 1419.645 1419.487 1419.378 1419.231 1419.142 1419.072 1419.054 1419.117 
1449.895 1449.614 1449.327 1448.809 1448.533 1448.312 1447.849 1447.584 1447.271 1446.95 1446.267 1445.889 1445.394 1444.505 1444.009 1443.48 1442.949 1441.783 1441.244 1440.555 1439.646 1439.635 1439.62 1439.602 1439.591 1439.621 1439.906 1440.109 1440.353 1440.487 1440.293 1439.822 1439.057 1435.173 1433.148 1430.599 1428.907 1427.192 1426.967 1426.805 1426.555 1426.568 1426.552 1426.491 1426.649 1426.786 1426.923 1427.19 1427.304 1427.349 1427.26 1427.154 1427.043 1426.826 1426.69 1426.492 1426.244 1425.499 1425.161 1424.772 1424.146 1423.902 1423.611 1423.05 1422.731 1422.454 1422.222 1421.644 1421.425 1421.222 1420.763 1420.576 1420.432 1420.187 1420.021 1419.849 1419.74 1419.589 1419.469 1419.48 1419.408 1419.359 
1450.677 1450.338 1449.975 1449.481 1449.19 1448.977 1448.805 1448.349 1448.094 1447.873 1447.329 1446.912 1446.394 1445.393 1444.799 1444.134 1443.488 1442.212 1441.628 1440.825 1439.672 1439.717 1439.715 1439.706 1439.722 1439.824 1440.062 1440.094 1440.099 1440.115 1439.921 1439.411 1437.89 1434.205 1432.261 1430.599 1428.821 1427.289 1427.186 1427.107 1427.016 1427.065 1427.043 1427.296 1427.39 1427.445 1427.563 1427.788 1427.833 1427.877 1427.779 1427.684 1427.651 1427.454 1427.294 1427.034 1426.777 1426.216 1425.881 1425.55 1424.925 1424.59 1424.21 1423.699 1423.341 1422.979 1422.759 1422.188 1421.951 1421.67 1421.288 1421.033 1420.778 1420.638 1420.377 1420.176 1420.085 1419.832 1419.773 1419.738 1419.641 1419.603 
1451.39 1451.062 1450.673 1450.036 1449.811 1449.59 1449.434 1449.142 1448.922 1448.82 1448.228 1447.824 1447.41 1446.274 1445.595 1444.907 1444.207 1442.795 1441.997 1441.154 1439.781 1439.769 1439.777 1439.782 1439.878 1440.166 1440.24 1440.236 1440.19 1440.163 1439.307 1437.897 1436.404 1433.258 1431.69 1430.122 1428.821 1427.289 1427.49 1427.47 1427.609 1427.722 1427.773 1427.862 1427.941 1428.069 1428.196 1428.304 1428.356 1428.406 1428.359 1428.302 1428.193 1428.087 1427.836 1427.568 1427.317 1426.819 1426.556 1426.234 1425.485 1425.17 1424.844 1424.541 1423.92 1423.584 1423.223 1422.741 1422.495 1422.185 1421.767 1421.527 1421.262 1421.029 1420.719 1420.473 1420.339 1420.12 1420.047 1419.973 1419.798 1419.769 
1452.047 1451.71 1451.318 1450.58 1450.342 1450.186 1450.083 1449.946 1449.847 1449.836 1449.299 1448.92 1448.475 1447.227 1446.484 1445.768 1444.945 1443.261 1442.345 1441.407 1439.885 1439.749 1439.776 1439.838 1439.998 1440.213 1440.365 1440.441 1440.341 1440.112 1438.132 1436.885 1435.584 1432.741 1431.179 1429.747 1428.859 1427.674 1427.49 1427.47 1428.066 1428.182 1428.243 1428.295 1428.516 1428.571 1428.699 1428.819 1428.872 1428.925 1428.888 1428.838 1428.732 1428.632 1428.307 1428.106 1427.783 1427.278 1427.013 1426.692 1426.136 1425.809 1425.489 1425.173 1424.548 1424.242 1423.915 1423.228 1422.959 1422.719 1422.139 1421.869 1421.644 1421.474 1421.01 1420.88 1420.668 1420.384 1420.245 1420.18 1420.046 1419.957 
1452.54 1452.214 1451.89 1451.162 1450.866 1450.789 1450.74 1451.153 1451.018 1450.884 1450.515 1450.235 1449.738 1448.269 1447.458 1446.531 1445.577 1443.675 1442.726 1441.75 1440.101 1439.699 1439.72 1439.74 1440.123 1440.294 1440.447 1440.409 1440.164 1439.538 1437.416 1436.286 1435.125 1433.894 1431.257 1430.149 1429.192 1428.234 1428.079 1428.046 1428.066 1428.182 1428.798 1428.862 1429.088 1429.155 1429.282 1429.374 1429.367 1429.421 1429.346 1429.274 1429.252 1429.164 1428.805 1428.55 1428.301 1427.773 1427.462 1427.218 1426.684 1426.385 1426.14 1425.827 1425.167 1424.798 1424.489 1423.766 1423.466 1423.182 1422.61 1422.295 1422.121 1421.863 1421.371 1421.178 1420.948 1420.633 1420.491 1420.378 1420.279 1420.158 
1453.015 1452.679 1452.361 1451.817 1451.59 1451.53 1451.629 1451.924 1451.857 1451.733 1451.543 1451.34 1450.817 1450.163 1448.339 1447.393 1446.41 1444.311 1443.282 1442.294 1440.59 1440.172 1440.018 1440.024 1440.363 1440.52 1440.464 1440.03 1439.579 1438.854 1436.958 1435.853 1434.705 1433.605 1431.499 1430.443 1429.718 1428.747 1428.681 1428.591 1428.581 1428.671 1428.798 1429.441 1429.667 1429.717 1429.777 1429.875 1429.853 1429.835 1429.808 1429.802 1429.768 1429.607 1429.262 1429.083 1428.84 1428.236 1427.997 1427.754 1427.273 1426.997 1426.688 1426.447 1425.798 1425.416 1425.105 1424.286 1423.998 1423.692 1422.975 1422.731 1422.587 1422.273 1421.718 1421.546 1421.318 1420.98 1420.775 1420.632 1420.593 1420.341 
1453.591 1453.302 1452.969 1452.698 1452.312 1452.245 1452.368 1452.546 1452.453 1452.413 1452.175 1451.938 1451.618 1451.089 1449.216 1448.173 1447.117 1445.027 1443.977 1443.039 1441.45 1440.986 1440.726 1440.65 1440.62 1440.506 1440.265 1439.415 1438.844 1438.122 1436.402 1435.435 1434.528 1433.606 1431.759 1431.054 1430.269 1429.543 1429.32 1429.224 1429.24 1429.301 1429.366 1429.441 1429.667 1430.232 1430.288 1430.369 1430.345 1430.336 1430.332 1430.29 1430.194 1430.106 1429.755 1429.504 1429.263 1428.775 1428.53 1428.287 1427.803 1427.567 1427.315 1427.009 1426.374 1426.06 1425.748 1424.866 1424.497 1424.129 1423.801 1423.161 1422.832 1422.653 1422.156 1421.897 1421.671 1421.271 1421.106 1420.964 1420.835 1420.649 
1454.152 1453.826 1453.572 1453.373 1453.118 1453.052 1453.175 1453.245 1453.152 1453.124 1452.763 1452.498 1452.189 1451.736 1449.876 1448.782 1447.759 1445.687 1444.609 1443.718 1442.1 1441.441 1441.102 1440.82 1440.666 1440.458 1439.953 1438.915 1438.283 1437.613 1436.093 1435.296 1434.508 1433.747 1432.194 1431.558 1431.019 1430.309 1430.037 1429.914 1429.884 1429.906 1429.971 1430.108 1430.227 1430.232 1430.288 1430.833 1430.766 1430.766 1430.828 1430.802 1430.701 1430.542 1430.168 1429.943 1429.778 1429.348 1429.164 1428.919 1428.681 1428.092 1427.847 1427.537 1426.901 1426.591 1426.282 1425.499 1425.08 1424.634 1424.318 1423.628 1423.374 1423.095 1422.599 1422.297 1422.057 1421.65 1421.486 1421.281 1421.122 1420.894 
1454.732 1454.488 1454.317 1454.208 1453.992 1453.915 1453.981 1453.882 1453.746 1453.735 1453.333 1452.985 1452.603 1452.156 1450.5 1449.447 1448.384 1446.259 1445.029 1444.04 1442.291 1441.665 1441.171 1440.699 1440.423 1440.125 1439.606 1438.537 1437.955 1437.307 1435.928 1435.265 1434.578 1433.932 1432.806 1432.303 1431.849 1430.993 1430.804 1430.717 1430.63 1430.664 1430.674 1430.719 1430.863 1430.909 1430.898 1430.833 1430.766 1431.393 1431.382 1431.219 1431.138 1431.052 1430.631 1430.477 1430.317 1429.943 1429.691 1429.452 1429.215 1428.626 1428.381 1428.068 1427.477 1427.206 1426.823 1426.145 1425.714 1425.248 1424.866 1424.123 1423.83 1423.529 1422.915 1422.666 1422.575 1422.079 1421.906 1421.673 1421.521 1421.22 
1455.478 1455.269 1455.167 1454.999 1454.811 1454.778 1454.692 1454.585 1454.403 1454.253 1453.8 1453.471 1453.004 1452.55 1451.156 1450.136 1449.128 1446.673 1445.424 1444.206 1443.141 1441.246 1440.26 1440.016 1440.003 1439.742 1439.296 1438.23 1437.698 1437.128 1436.434 1435.377 1434.797 1434.222 1433.312 1432.943 1432.536 1431.84 1431.691 1431.528 1431.416 1431.326 1431.403 1431.392 1431.453 1431.438 1431.428 1431.42 1431.412 1431.393 1431.908 1431.754 1431.648 1431.493 1431.172 1431.036 1430.936 1430.468 1430.226 1429.986 1429.753 1429.167 1428.917 1428.605 1428.089 1427.745 1427.355 1426.677 1426.282 1425.882 1425.424 1424.655 1424.345 1423.971 1423.37 1423.124 1422.858 1422.515 1422.368 1422.191 1421.954 1421.648 
1456.169 1456.032 1455.931 1455.76 1455.668 1455.578 1455.487 1455.124 1455.007 1454.765 1454.531 1454.016 1453.524 1453.002 1451.619 1450.503 1449.395 1446.887 1445.561 1444.179 1442.451 1440.218 1439.767 1439.763 1439.555 1439.276 1438.857 1437.993 1437.511 1436.965 1436.43 1435.555 1435.078 1434.572 1433.786 1433.455 1433.183 1432.544 1432.358 1432.263 1432.12 1432.07 1432.111 1432.109 1432.1 1432.077 1432.09 1432.058 1432.019 1431.932 1431.908 1431.754 1432.106 1432.026 1431.753 1431.62 1431.379 1431.011 1430.733 1430.433 1430.264 1429.775 1429.471 1429.234 1428.615 1428.301 1427.986 1427.317 1426.891 1426.42 1425.949 1425.232 1424.771 1424.377 1423.86 1423.573 1423.33 1423.115 1422.664 1422.476 1422.498 1422.225 
1457.075 1456.752 1456.596 1456.503 1456.335 1456.231 1456.069 1455.7 1455.496 1455.333 1455.045 1454.315 1453.911 1453.39 1451.958 1450.932 1449.71 1446.982 1445.524 1443.994 1442.275 1439.939 1439.632 1439.556 1439.06 1438.734 1438.518 1437.738 1437.377 1436.92 1436.496 1435.731 1435.38 1434.954 1434.24 1433.949 1433.716 1433.11 1432.975 1432.958 1432.923 1432.743 1432.759 1432.725 1432.804 1432.767 1432.797 1432.704 1432.677 1432.583 1432.475 1432.262 1432.106 1432.026 1432.293 1432.064 1431.906 1431.667 1431.292 1431.052 1430.81 1430.306 1430.003 1429.765 1429.254 1428.932 1428.621 1428.312 1427.524 1427.046 1426.577 1425.771 1425.409 1425.165 1424.414 1424.084 1423.865 1423.577 1423.127 1423.042 1422.937 1422.641 
1457.704 1457.5 1457.345 1457.255 1456.931 1456.793 1456.704 1456.25 1455.988 1455.688 1455.458 1454.713 1454.231 1453.636 1452.19 1451.185 1449.956 1447.004 1445.489 1444.016 1442.502 1440.202 1439.6 1439.282 1438.806 1438.491 1438.242 1437.563 1437.252 1436.919 1436.572 1435.901 1435.581 1435.233 1434.637 1434.408 1434.166 1433.784 1433.648 1433.569 1433.533 1433.41 1433.445 1433.379 1433.496 1433.551 1433.448 1433.433 1433.377 1433.277 1433.111 1432.899 1432.758 1432.66 1432.293 1432.675 1432.526 1432.297 1431.808 1431.577 1431.338 1430.967 1430.708 1430.391 1429.758 1429.446 1429.137 1428.829 1428.1 1427.763 1427.297 1426.632 1426.313 1425.996 1425.223 1424.845 1424.476 1424.078 1423.7 1423.497 1423.345 1423.109 
1458.331 1458.172 1458.069 1457.907 1457.643 1457.411 1457.251 1456.838 1456.545 1456.302 1455.932 1455.034 1454.538 1453.856 1452.303 1451.244 1449.864 1447.125 1445.606 1444.108 1442.845 1440.671 1439.871 1439.424 1438.653 1438.356 1438.041 1437.729 1437.185 1436.895 1436.696 1436.023 1435.769 1435.506 1434.994 1434.801 1434.613 1434.49 1434.259 1434.182 1434.125 1434.054 1434.063 1434.122 1434.212 1434.264 1434.2 1434.189 1434.033 1433.934 1433.771 1433.559 1433.441 1433.259 1432.888 1432.675 1432.526 1432.898 1432.463 1432.292 1432.056 1431.459 1431.211 1430.896 1430.259 1429.976 1429.74 1429.439 1428.694 1428.389 1428.076 1427.47 1427.268 1427.092 1426.182 1425.679 1425.171 1424.917 1424.271 1424.044 1423.816 1423.8 
1458.983 1458.873 1458.722 1458.635 1458.269 1458.153 1457.915 1457.506 1457.149 1456.758 1456.376 1455.409 1454.775 1454.09 1452.365 1451.289 1450.042 1448.771 1445.629 1444.113 1442.634 1440.507 1439.712 1439.243 1438.562 1438.269 1438.022 1437.769 1437.267 1436.959 1436.74 1436.279 1436.042 1435.804 1435.408 1435.218 1435.069 1434.983 1434.811 1434.732 1434.734 1434.697 1434.733 1434.891 1434.972 1434.989 1435.01 1434.98 1434.822 1434.732 1434.595 1434.244 1434.073 1433.827 1433.415 1433.218 1433.109 1432.898 1432.463 1432.874 1432.638 1432.061 1431.811 1431.497 1430.872 1430.588 1430.35 1430.045 1429.34 1429.101 1428.79 1428.344 1428.17 1427.93 1427.159 1426.61 1426.146 1425.749 1424.987 1424.726 1424.577 1424.313 
1459.637 1459.449 1459.353 1459.193 1458.998 1458.81 1458.579 1458.42 1457.824 1457.407 1456.87 1455.878 1455.2 1454.358 1452.61 1451.509 1450.173 1448.647 1445.793 1444.023 1442.271 1439.747 1439.364 1439.1 1438.531 1438.288 1438.05 1437.817 1437.322 1437.088 1436.963 1436.533 1436.291 1436.109 1435.865 1435.686 1435.521 1435.434 1435.372 1435.358 1435.298 1435.381 1435.407 1435.556 1435.627 1435.714 1435.78 1435.729 1435.54 1435.436 1435.362 1434.967 1434.848 1434.609 1434.133 1433.89 1433.633 1433.473 1433.118 1432.874 1432.638 1432.594 1432.331 1432.03 1431.498 1431.211 1430.963 1430.659 1430.059 1429.827 1429.594 1429.156 1428.983 1428.73 1428.355 1427.451 1427.161 1426.987 1426.19 1425.709 1425.271 1425.206 
1460.365 1460.073 1459.979 1459.83 1459.61 1459.554 1459.316 1459.085 1458.455 1458.073 1457.688 1456.308 1455.517 1454.666 1452.749 1451.702 1450.369 1449.045 1445.943 1443.959 1442.239 1439.678 1439.397 1439.18 1438.512 1438.317 1438.144 1437.904 1437.497 1437.262 1437.124 1436.783 1436.65 1436.488 1436.214 1436.13 1436.056 1435.918 1435.839 1435.914 1435.917 1436.018 1436.058 1436.166 1436.428 1436.501 1436.526 1436.53 1436.358 1436.22 1436.078 1435.676 1435.464 1435.201 1434.976 1434.599 1434.284 1434.101 1433.625 1433.381 1433.16 1432.594 1432.965 1432.732 1432.428 1431.91 1431.603 1431.36 1430.784 1430.569 1430.402 1429.98 1429.773 1429.447 1429.131 1428.393 1428.171 1428.004 1427.389 1426.819 1426.351 1425.968 
1460.365 1460.626 1460.502 1460.43 1460.189 1460.095 1459.948 1459.8 1459.233 1458.877 1458.333 1456.948 1455.989 1455.056 1453.067 1451.975 1450.716 1449.472 1446.538 1444.466 1442.838 1440.327 1439.608 1439.19 1438.487 1438.268 1438.052 1437.871 1437.573 1437.449 1437.288 1437.093 1436.983 1436.814 1436.633 1436.539 1436.537 1436.422 1436.365 1436.434 1436.455 1436.608 1436.711 1436.83 1437.131 1437.436 1437.439 1437.396 1437.217 1437.043 1436.796 1436.424 1436.126 1435.839 1435.65 1435.258 1434.962 1434.698 1434.188 1433.912 1433.745 1433.252 1432.965 1432.732 1433.134 1432.664 1432.418 1432.116 1431.734 1431.486 1431.247 1430.82 1430.606 1430.28 1429.953 1429.479 1429.306 1429.063 1428.254 1427.729 1427.19 1426.966 
1460.959 1460.626 1460.502 1460.913 1460.829 1460.822 1460.75 1460.604 1460.219 1459.788 1459.245 1457.788 1456.855 1455.75 1453.552 1452.608 1451.586 1450.505 1447.274 1445.184 1443.352 1440.51 1439.559 1439.069 1438.804 1438.327 1438.106 1438.002 1437.741 1437.64 1437.476 1437.298 1437.228 1437.183 1437.118 1437 1436.936 1436.905 1436.897 1436.935 1437.019 1437.226 1437.405 1437.555 1437.88 1438.334 1438.374 1438.288 1438.007 1437.751 1437.514 1437.024 1436.746 1436.516 1436.28 1435.803 1435.56 1435.242 1434.757 1434.525 1434.283 1433.825 1433.603 1433.365 1433.134 1432.664 1433.155 1433.004 1432.542 1432.328 1432.171 1431.803 1431.558 1431.305 1430.985 1430.585 1430.316 1429.993 1429.265 1428.771 1428.386 1428.318 
1461.473 1461.068 1461.004 1460.913 1460.829 1461.369 1461.448 1461.389 1461.074 1460.802 1460.334 1458.846 1457.861 1456.842 1455.824 1453.704 1452.897 1452.147 1448.15 1445.78 1443.721 1440.54 1439.485 1439.013 1438.693 1438.327 1438.191 1438.185 1437.851 1437.84 1437.75 1437.558 1437.503 1437.502 1437.479 1437.438 1437.41 1437.403 1437.375 1437.408 1437.565 1437.792 1438.031 1438.273 1438.602 1439.176 1439.203 1439.12 1438.628 1438.364 1438.129 1437.579 1437.363 1437.156 1436.89 1436.416 1436.164 1435.854 1435.367 1435.13 1434.895 1434.475 1434.308 1434.082 1433.844 1433.378 1433.155 1433.004 1433.504 1433.35 1433.204 1432.878 1432.683 1432.436 1432.202 1431.639 1431.431 1431.028 1430.466 1430.152 1429.904 1429.719 
1461.97 1461.561 1461.455 1461.314 1461.312 1461.369 1462.245 1462.261 1462.108 1461.909 1461.545 1460.388 1459.495 1458.363 1457.083 1454.957 1453.924 1452.767 1448.78 1446.293 1444.081 1440.911 1439.744 1438.99 1438.706 1438.506 1438.359 1438.29 1438.15 1438.115 1437.963 1437.963 1437.881 1437.871 1437.847 1438.009 1437.987 1437.984 1437.96 1437.975 1438.073 1438.354 1438.627 1439.003 1439.407 1439.823 1439.862 1439.782 1439.213 1438.906 1438.667 1438.216 1438.029 1437.831 1437.554 1437.021 1436.773 1436.458 1435.975 1435.738 1435.501 1435.058 1434.898 1434.738 1434.521 1434.173 1433.971 1433.822 1433.504 1434.295 1434.291 1434.152 1433.812 1433.579 1433.41 1432.978 1432.756 1432.365 1431.889 1431.696 1431.438 1431.174 
1462.462 1461.983 1461.852 1461.81 1461.875 1462.094 1462.245 1462.261 1463.027 1462.971 1462.918 1462.063 1461.266 1460.183 1458.636 1455.698 1454.26 1452.402 1448.938 1446.816 1444.747 1441.335 1440.09 1439.27 1439.002 1438.702 1438.545 1438.395 1438.328 1438.254 1438.234 1438.252 1438.3 1438.365 1438.481 1438.66 1438.688 1438.614 1438.579 1438.588 1438.66 1439.024 1439.347 1439.677 1439.91 1440.271 1440.308 1440.226 1439.741 1439.484 1439.292 1439.09 1438.687 1438.439 1438.176 1437.614 1437.345 1437.063 1436.544 1436.312 1436.08 1435.843 1435.38 1435.233 1435.102 1434.829 1434.778 1434.68 1434.395 1434.295 1434.291 1435.146 1435.067 1434.923 1434.762 1434.286 1434.05 1433.882 1433.383 1433.126 1432.87 1432.616 
1462.974 1462.406 1462.306 1462.32 1462.398 1462.751 1462.964 1463.058 1463.027 1462.971 1463.965 1463.578 1462.926 1461.886 1460.306 1455.907 1453.972 1451.966 1448.781 1447.357 1445.433 1442.156 1440.914 1439.743 1439.151 1438.983 1438.743 1438.587 1438.498 1438.549 1438.545 1438.798 1438.898 1438.964 1439.114 1439.254 1439.246 1439.228 1439.2 1439.208 1439.292 1439.431 1439.904 1440.094 1440.281 1440.612 1440.647 1440.564 1440.193 1440.01 1439.858 1439.753 1439.302 1439.052 1438.73 1438.209 1437.901 1437.673 1437.088 1436.844 1436.581 1436.371 1435.921 1435.779 1435.678 1435.465 1435.43 1435.321 1435.257 1435.217 1435.203 1435.146 1435.067 1436.256 1436.183 1435.941 1435.681 1435.424 1434.928 1434.641 1434.325 1434.14 
1463.501 1462.896 1462.805 1462.844 1463.008 1463.499 1463.71 1463.862 1463.88 1463.902 1463.965 1463.578 1464.35 1463.29 1461.611 1456.602 1453.885 1451.738 1448.728 1447.507 1446.289 1444.623 1441.935 1440.723 1439.831 1439.27 1439.027 1438.797 1438.756 1438.766 1438.844 1439.05 1439.501 1439.695 1439.774 1439.814 1439.849 1439.773 1439.79 1439.836 1439.85 1439.927 1440.235 1440.405 1440.7 1441.004 1441.037 1440.95 1440.622 1440.482 1440.372 1440.255 1439.879 1439.628 1439.351 1438.793 1438.52 1438.244 1437.666 1437.414 1437.133 1436.943 1436.542 1436.362 1436.223 1436.019 1435.992 1436.059 1436.059 1436.128 1436.123 1436.23 1436.206 1436.256 1436.183 1437.293 1437.1 1436.857 1436.352 1436.099 1435.837 1435.504 
1463.979 1463.328 1463.275 1463.407 1463.634 1464.157 1464.368 1464.515 1464.637 1464.622 1464.633 1464.726 1464.35 1464.555 1462.849 1456.851 1453.82 1451.691 1448.998 1448.281 1447.669 1446.362 1443.085 1441.704 1440.511 1439.402 1439.14 1438.991 1439.007 1439.105 1439.259 1439.478 1439.914 1440.06 1440.197 1440.309 1440.303 1440.286 1440.281 1440.281 1440.273 1440.333 1440.623 1440.78 1440.979 1441.275 1441.306 1441.213 1441.037 1440.896 1440.816 1440.664 1440.272 1440.085 1439.898 1439.35 1439.073 1438.796 1438.211 1437.98 1437.743 1437.499 1437.101 1436.909 1436.803 1436.595 1436.599 1436.587 1436.795 1436.9 1436.945 1437.168 1437.482 1437.479 1437.481 1437.293 1438.466 1438.282 1438.034 1437.367 1437.032 1436.709 
1464.323 1464.079 1463.821 1464.008 1464.21 1464.52 1464.727 1464.901 1465.019 1465.047 1465.13 1465.203 1464.996 1464.555 1462.849 1457.116 1453.914 1451.694 1449.95 1450.266 1450.069 1448.692 1444.503 1442.687 1441.261 1439.502 1439.324 1439.105 1439.17 1439.237 1439.477 1439.709 1440.161 1440.383 1440.604 1440.732 1440.716 1440.71 1440.686 1440.703 1440.766 1440.835 1441.035 1441.181 1441.269 1441.507 1441.522 1441.554 1441.413 1441.315 1441.229 1441.079 1440.634 1440.491 1440.343 1439.886 1439.64 1439.359 1438.773 1438.555 1438.353 1438.119 1437.653 1437.477 1437.313 1437.182 1437.183 1437.206 1437.29 1437.574 1437.739 1437.958 1438.435 1438.602 1438.687 1438.633 1438.466 1438.282 1439.24 1438.453 1438.057 1437.725 
1464.655 1464.474 1464.283 1464.423 1464.572 1464.92 1465.096 1465.278 1465.476 1465.551 1465.597 1465.578 1465.388 1465.048 1463.772 1457.116 1453.914 1452.228 1451.678 1452.463 1452.267 1450.698 1445.921 1443.738 1442.01 1439.63 1439.435 1439.297 1439.316 1439.457 1439.683 1439.835 1440.411 1440.702 1440.927 1441.09 1441.127 1441.12 1441.195 1441.208 1441.29 1441.362 1441.508 1441.593 1441.671 1441.801 1441.796 1441.815 1441.799 1441.657 1441.567 1441.409 1441.053 1440.885 1440.682 1440.333 1440.157 1439.873 1439.545 1439.125 1438.962 1438.729 1438.226 1437.971 1437.818 1437.694 1437.748 1437.857 1437.978 1438.273 1438.448 1438.669 1439.311 1439.57 1439.717 1439.851 1439.783 1439.546 1439.24 1438.453 1439.157 1438.753 
1465.112 1464.864 1464.721 1464.838 1464.954 1465.407 1465.573 1465.632 1465.852 1465.879 1465.859 1465.793 1465.769 1465.439 1464.201 1457.98 1454.62 1452.228 1451.678 1453.728 1453.088 1451.73 1447.068 1444.616 1442.815 1440.026 1439.419 1439.38 1439.482 1439.644 1439.8 1440.019 1440.734 1441.021 1441.243 1441.438 1441.574 1441.63 1441.627 1441.71 1441.713 1441.787 1441.942 1442.001 1442.005 1442.112 1442.097 1442.087 1442.095 1441.956 1441.874 1441.773 1441.473 1441.292 1441.049 1440.705 1440.485 1440.248 1440.017 1439.755 1439.579 1439.344 1438.82 1438.514 1438.324 1438.257 1438.397 1438.54 1438.635 1438.959 1439.21 1439.404 1440.016 1440.209 1440.352 1440.466 1440.432 1440.329 1440.125 1439.54 1439.157 1439.618 
1465.578 1465.413 1465.341 1465.427 1465.49 1465.836 1465.937 1466.012 1466.048 1466.03 1466.059 1466.071 1465.852 1465.364 1464.283 1459.012 1456.086 1453.661 1452.646 1453.728 1453.754 1452.549 1448.115 1445.643 1443.63 1440.241 1439.496 1439.473 1439.478 1439.854 1440.025 1440.324 1440.943 1441.229 1441.454 1441.824 1441.885 1441.953 1442.02 1442.164 1442.215 1442.217 1442.315 1442.332 1442.397 1442.407 1442.429 1442.479 1442.418 1442.253 1442.175 1442.097 1441.796 1441.632 1441.452 1441.081 1440.846 1440.663 1440.499 1440.312 1440.134 1439.899 1439.402 1439.124 1438.891 1438.786 1438.988 1439.203 1439.357 1439.66 1439.936 1440.106 1440.498 1440.713 1440.854 1440.938 1440.879 1440.725 1440.57 1440.238 1439.996 1439.618 
1466.042 1465.96 1465.93 1465.936 1466.057 1466.241 1466.274 1466.321 1466.327 1466.21 1466.264 1466.247 1465.925 1465.279 1464.38 1460.531 1458.396 1455.985 1455.296 1454.92 1453.754 1452.549 1448.767 1446.291 1444.262 1440.448 1439.496 1439.49 1439.646 1440.018 1440.342 1440.647 1441.369 1441.649 1441.869 1442.125 1442.219 1442.363 1442.441 1442.582 1442.642 1442.637 1442.733 1442.723 1442.728 1442.705 1442.735 1442.811 1442.802 1442.646 1442.567 1442.486 1442.168 1442.01 1441.855 1441.521 1441.341 1441.192 1441.081 1440.813 1440.641 1440.401 1439.956 1439.741 1439.454 1439.313 1439.571 1439.844 1440.037 1440.222 1440.433 1440.667 1440.995 1441.193 1441.335 1441.366 1441.328 1441.216 1441.06 1440.651 1440.461 1440.171 
1466.498 1466.458 1466.464 1466.507 1466.542 1466.655 1466.611 1466.533 1466.5 1466.441 1466.424 1466.318 1465.917 1465.23 1464.369 1461.441 1459.891 1458.063 1456.878 1455.36 1454.174 1452.873 1448.767 1446.291 1444.753 1441.022 1440.022 1439.76 1439.782 1440.279 1440.692 1441.069 1441.694 1441.949 1442.097 1442.445 1442.532 1442.675 1442.748 1442.973 1442.954 1442.945 1443.049 1443.032 1443.027 1443.115 1443.11 1443.122 1443.117 1442.968 1442.887 1442.807 1442.584 1442.42 1442.261 1442.097 1441.773 1441.62 1441.546 1441.301 1441.086 1440.898 1440.447 1440.236 1440.004 1439.809 1440.121 1440.352 1440.585 1440.824 1440.984 1441.179 1441.484 1441.626 1441.741 1441.8 1441.762 1441.614 1441.479 1441.108 1440.864 1440.634 
1466.974 1466.974 1466.967 1466.945 1466.897 1466.917 1466.91 1466.768 1466.637 1466.564 1466.513 1466.358 1465.803 1465.102 1464.258 1461.671 1460.286 1458.768 1457.611 1455.383 1454.34 1453.084 1449.406 1446.967 1444.753 1442.068 1441.092 1440.647 1440.42 1440.792 1441.349 1441.639 1442.285 1442.492 1442.71 1443.014 1443.133 1443.196 1443.265 1443.372 1443.377 1443.444 1443.438 1443.454 1443.521 1443.53 1443.493 1443.433 1443.498 1443.362 1443.275 1443.194 1442.994 1442.822 1442.663 1442.566 1442.274 1442.169 1442.033 1441.739 1441.551 1441.394 1440.948 1440.767 1440.61 1440.473 1440.651 1440.859 1441.09 1441.465 1441.598 1441.706 1441.989 1442.093 1442.153 1442.179 1442.152 1442.066 1441.965 1441.511 1441.293 1441.055 
1467.427 1467.369 1467.348 1467.298 1467.249 1467.187 1467.168 1467.085 1466.931 1466.735 1466.615 1466.468 1465.723 1464.949 1464.196 1461.759 1460.493 1459.061 1457.771 1455.449 1454.29 1453.154 1450.027 1447.908 1445.96 1442.068 1441.092 1442.556 1442.198 1442.132 1442.313 1442.5 1442.867 1442.998 1443.141 1443.36 1443.54 1443.613 1443.681 1443.786 1443.792 1443.863 1443.904 1443.959 1443.954 1443.952 1443.829 1443.826 1443.831 1443.717 1443.696 1443.608 1443.392 1443.243 1443.144 1442.998 1442.798 1442.712 1442.553 1442.238 1442.137 1441.978 1441.526 1441.383 1441.278 1441.227 1441.338 1441.409 1441.599 1442.047 1442.162 1442.226 1442.451 1442.487 1442.564 1442.615 1442.565 1442.5 1442.366 1441.982 1441.815 1441.6 
1467.77 1467.731 1467.656 1467.656 1467.616 1467.536 1467.47 1467.331 1467.133 1466.911 1466.709 1466.521 1465.62 1464.799 1464.058 1462.911 1460.596 1459.257 1457.984 1455.755 1454.569 1453.421 1450.547 1448.633 1447.084 1445.638 1442.788 1442.556 1442.198 1443.568 1443.527 1443.476 1443.606 1443.718 1443.77 1443.822 1443.993 1444.116 1444.113 1444.25 1444.278 1444.197 1444.282 1444.272 1444.267 1444.264 1444.242 1444.239 1444.234 1444.071 1444.017 1444.001 1443.831 1443.735 1443.653 1443.561 1443.365 1443.198 1443.038 1442.91 1442.732 1442.512 1442.247 1442.14 1442.063 1442.112 1442.101 1442.136 1442.183 1442.471 1442.619 1442.74 1442.914 1442.937 1442.975 1443.004 1442.881 1442.88 1442.804 1442.492 1442.342 1442.215 
1468.082 1468.138 1467.997 1467.966 1467.963 1467.887 1467.756 1467.581 1467.344 1467.036 1466.803 1466.57 1465.537 1464.786 1463.988 1462.908 1460.552 1459.362 1458.22 1455.965 1454.777 1453.625 1451.037 1449.504 1448.371 1447.138 1445.109 1444.401 1443.877 1443.568 1443.527 1444.525 1444.438 1444.41 1444.386 1444.37 1444.448 1444.441 1444.509 1444.612 1444.622 1444.695 1444.639 1444.576 1444.573 1444.564 1444.663 1444.651 1444.645 1444.58 1444.512 1444.507 1444.384 1444.354 1444.254 1444.094 1443.946 1443.892 1443.73 1443.471 1443.339 1443.158 1443.024 1442.929 1442.962 1442.936 1442.824 1442.915 1442.946 1443.026 1443.128 1443.188 1443.255 1443.385 1443.386 1443.467 1443.404 1443.356 1443.275 1443.02 1442.897 1442.791 
1468.467 1468.485 1468.32 1468.265 1468.272 1468.202 1467.995 1467.776 1467.543 1467.169 1466.895 1466.623 1465.48 1464.773 1463.976 1462.928 1460.673 1459.555 1458.408 1456.085 1454.962 1453.841 1451.505 1450.381 1449.476 1448.554 1446.789 1446.135 1445.589 1444.817 1444.682 1444.525 1445.192 1445.086 1445.007 1444.996 1444.969 1444.965 1444.946 1445.02 1445.037 1445.101 1445.044 1445.102 1445.09 1445.082 1445.068 1445.061 1445.055 1445.048 1445.013 1444.929 1444.91 1444.874 1444.796 1444.769 1444.518 1444.431 1444.268 1444.156 1444.06 1443.96 1443.822 1443.734 1443.74 1443.654 1443.563 1443.552 1443.632 1443.639 1443.668 1443.71 1443.785 1443.842 1443.84 1443.873 1443.866 1443.805 1443.719 1443.571 1443.461 1443.299 
1468.799 1468.79 1468.676 1468.628 1468.509 1468.426 1468.226 1467.978 1467.75 1467.298 1466.968 1466.604 1465.504 1464.749 1463.943 1462.923 1460.819 1459.684 1458.495 1456.204 1455.025 1453.927 1451.866 1450.935 1450.198 1449.487 1447.943 1447.386 1446.918 1445.961 1445.622 1445.503 1445.192 1445.086 1445.622 1445.592 1445.509 1445.55 1445.47 1445.326 1445.346 1445.412 1445.423 1445.403 1445.409 1445.478 1445.591 1445.577 1445.57 1445.503 1445.465 1445.527 1445.456 1445.384 1445.299 1445.296 1445.129 1445.042 1444.944 1444.837 1444.77 1444.614 1444.56 1444.464 1444.451 1444.375 1444.329 1444.298 1444.321 1444.305 1444.305 1444.332 1444.36 1444.359 1444.354 1444.349 1444.321 1444.277 1444.236 1444.082 1443.968 1443.808 
1469.105 1469.098 1468.958 1468.884 1468.781 1468.707 1468.419 1468.163 1467.887 1467.373 1467.062 1466.719 1465.525 1464.741 1464.035 1463.063 1460.883 1459.753 1458.589 1456.373 1455.293 1454.206 1453.238 1451.434 1450.73 1450.188 1448.967 1448.409 1447.961 1447.04 1446.671 1446.328 1446.136 1445.7 1445.622 1445.592 1445.938 1445.859 1445.861 1445.809 1445.748 1445.746 1445.807 1445.854 1445.918 1445.911 1446.005 1445.993 1445.985 1446.022 1446.043 1445.959 1445.94 1445.959 1446.004 1445.922 1445.743 1445.661 1445.57 1445.443 1445.431 1445.398 1445.396 1445.249 1445.159 1445.008 1445.011 1445.04 1444.975 1444.965 1444.956 1444.948 1444.946 1444.86 1444.852 1444.809 1444.777 1444.732 1444.69 1444.528 1444.429 1444.314 
1469.402 1469.403 1469.247 1469.169 1469.084 1468.951 1468.653 1468.432 1468.062 1467.597 1467.223 1466.861 1466.357 1464.859 1464.167 1463.179 1461.001 1459.89 1458.824 1456.594 1455.527 1454.506 1453.523 1451.733 1451.084 1450.764 1449.833 1449.205 1448.795 1447.824 1447.494 1447.123 1446.848 1446.374 1446.222 1446.032 1445.938 1445.859 1446.257 1446.198 1446.263 1446.244 1446.164 1446.279 1446.33 1446.329 1446.418 1446.426 1446.497 1446.595 1446.579 1446.569 1446.559 1446.54 1446.536 1446.525 1446.417 1446.286 1446.274 1446.144 1446.148 1446.139 1446.071 1445.913 1445.883 1445.781 1445.774 1445.756 1445.66 1445.561 1445.565 1445.557 1445.495 1445.448 1445.417 1445.279 1445.261 1445.237 1445.151 1445.11 1444.953 1444.879 
1469.795 1469.717 1469.636 1469.481 1469.397 1469.244 1468.819 1468.583 1468.258 1467.693 1467.346 1466.96 1466.443 1464.991 1464.317 1463.421 1461.235 1460.126 1459.051 1456.891 1455.81 1454.768 1453.834 1452.114 1451.454 1451.202 1450.455 1449.944 1449.469 1448.454 1448.091 1447.768 1447.447 1446.907 1446.787 1446.565 1446.339 1446.276 1446.257 1446.564 1446.56 1446.563 1446.641 1446.758 1446.761 1446.828 1446.987 1447.033 1447.028 1447.105 1447.125 1447.187 1447.18 1447.234 1447.15 1447.139 1447.087 1446.986 1446.906 1446.884 1446.851 1446.76 1446.67 1446.697 1446.605 1446.52 1446.412 1446.413 1446.38 1446.289 1446.235 1446.168 1446.14 1446.036 1445.964 1445.852 1445.809 1445.746 1445.666 1445.619 1445.487 1445.436 
1470.042 1470.022 1469.946 1469.762 1469.613 1469.457 1469.106 1468.835 1468.461 1467.842 1467.478 1466.968 1466.503 1465.159 1464.517 1463.681 1461.534 1460.408 1459.34 1457.163 1456.115 1455.163 1454.221 1452.641 1451.997 1451.585 1450.965 1450.513 1450.041 1449.037 1448.642 1448.232 1447.934 1447.43 1447.214 1447.042 1446.75 1446.67 1446.585 1446.564 1446.56 1446.984 1447.039 1447.206 1447.261 1447.259 1447.498 1447.569 1447.631 1447.632 1447.753 1447.808 1447.802 1447.848 1447.786 1447.852 1447.69 1447.627 1447.621 1447.617 1447.493 1447.473 1447.382 1447.366 1447.334 1447.247 1447.065 1447.016 1447.013 1447 1446.894 1446.869 1446.802 1446.636 1446.542 1446.465 1446.378 1446.245 1446.172 1446.088 1445.952 1445.935 
1470.341 1470.335 1470.255 1470.069 1469.906 1469.75 1469.286 1468.968 1468.646 1468.057 1467.621 1467.174 1466.613 1465.305 1464.72 1463.916 1461.843 1460.758 1459.629 1457.475 1456.469 1455.557 1454.708 1453.23 1452.539 1451.912 1451.307 1450.888 1450.415 1449.495 1449.058 1448.632 1448.37 1447.847 1447.665 1447.427 1447.134 1447.061 1446.978 1446.898 1446.973 1446.984 1447.039 1447.609 1447.685 1447.76 1447.962 1448.064 1448.065 1448.207 1448.331 1448.347 1448.491 1448.51 1448.477 1448.394 1448.432 1448.324 1448.247 1448.234 1448.186 1448.11 1448.094 1448.047 1447.959 1447.878 1447.79 1447.725 1447.716 1447.653 1447.476 1447.426 1447.414 1447.196 1447.163 1447.08 1446.942 1446.814 1446.684 1446.596 1446.521 1446.453 
1470.635 1470.562 1470.552 1470.273 1470.119 1469.963 1469.5 1469.238 1468.931 1468.148 1467.706 1467.313 1466.773 1465.438 1464.857 1464.201 1462.08 1461.019 1459.909 1458.815 1456.826 1455.964 1455.148 1453.666 1452.926 1452.227 1451.419 1451.031 1450.639 1450.197 1449.338 1448.998 1448.676 1448.172 1447.953 1447.718 1447.45 1447.361 1447.305 1447.284 1447.29 1447.347 1447.351 1447.609 1447.685 1448.168 1448.485 1448.607 1448.694 1448.833 1448.891 1448.966 1449.027 1449.13 1449.115 1449.106 1449.094 1449.057 1448.964 1448.874 1448.809 1448.729 1448.72 1448.674 1448.574 1448.494 1448.427 1448.362 1448.349 1448.267 1448.196 1448.093 1447.958 1447.801 1447.794 1447.709 1447.458 1447.353 1447.186 1447.095 1447.044 1446.898 
1470.836 1470.761 1470.76 1470.575 1470.412 1470.258 1469.805 1469.534 1469.146 1468.756 1467.969 1467.562 1466.976 1465.617 1465.008 1464.333 1462.349 1461.255 1460.191 1459.159 1457.11 1456.252 1455.45 1453.939 1453.163 1452.479 1451.52 1451.186 1450.804 1450.329 1449.541 1449.211 1448.932 1448.409 1448.227 1448.023 1447.785 1447.68 1447.662 1447.599 1447.574 1447.591 1447.667 1447.944 1448.082 1448.168 1448.985 1449.137 1449.291 1449.368 1449.63 1449.671 1449.664 1449.691 1449.714 1449.634 1449.663 1449.596 1449.581 1449.498 1449.427 1449.352 1449.344 1449.228 1449.203 1449.111 1448.988 1448.987 1448.974 1448.893 1448.732 1448.644 1448.544 1448.389 1448.297 1448.16 1448.117 1447.868 1447.776 1447.699 1447.474 1447.373 
1471.144 1471.056 1470.978 1470.829 1470.709 1470.474 1470.073 1469.758 1469.424 1469.041 1468.256 1467.77 1467.157 1465.858 1465.195 1464.553 1462.725 1461.6 1460.474 1459.482 1457.289 1456.31 1455.502 1454.004 1453.311 1452.577 1451.646 1451.263 1450.786 1450.403 1449.642 1449.347 1449.123 1448.621 1448.433 1448.283 1448.006 1447.944 1447.889 1447.888 1447.913 1447.997 1448.07 1448.265 1448.418 1448.574 1448.985 1449.137 1449.807 1449.963 1450.196 1450.196 1450.269 1450.324 1450.247 1450.245 1450.232 1450.189 1450.11 1450.098 1450.052 1449.956 1449.874 1449.804 1449.738 1449.726 1449.641 1449.584 1449.494 1449.407 1449.342 1449.251 1449.167 1449.008 1448.896 1448.732 1448.658 1448.455 1448.312 1448.166 1447.977 1447.886 
1471.382 1471.364 1471.285 1471.083 1470.945 1470.855 1470.31 1469.965 1469.728 1469.354 1468.476 1468.051 1467.427 1466.145 1465.466 1464.849 1463.083 1461.923 1460.838 1459.737 1457.268 1456.204 1455.326 1453.849 1453.177 1452.451 1451.548 1451.168 1450.783 1450.391 1449.769 1449.507 1449.237 1448.784 1448.639 1448.484 1448.224 1448.155 1448.169 1448.169 1448.202 1448.298 1448.37 1448.669 1448.825 1449.011 1449.219 1449.596 1449.807 1449.963 1450.74 1450.812 1450.88 1450.88 1450.875 1450.868 1450.858 1450.73 1450.731 1450.723 1450.6 1450.581 1450.494 1450.366 1450.337 1450.257 1450.243 1450.122 1450.102 1450.019 1449.857 1449.773 1449.695 1449.49 1449.354 1449.261 1449.177 1448.989 1448.828 1448.731 1448.396 1448.309 
1471.691 1471.674 1471.595 1471.395 1471.231 1471.075 1470.617 1470.317 1469.938 1469.622 1468.798 1468.271 1467.79 1466.424 1465.753 1465.135 1463.432 1462.26 1461.07 1459.922 1457.329 1456.054 1454.997 1453.38 1452.668 1452.081 1451.247 1450.914 1450.662 1450.314 1449.823 1449.537 1449.263 1448.954 1448.794 1448.645 1448.566 1448.393 1448.37 1448.364 1448.422 1448.582 1448.682 1448.956 1449.192 1449.48 1449.644 1450.19 1450.348 1450.494 1450.74 1451.318 1451.388 1451.504 1451.496 1451.471 1451.391 1451.366 1451.341 1451.252 1451.19 1451.093 1451.01 1450.946 1450.849 1450.77 1450.757 1450.744 1450.722 1450.637 1450.47 1450.367 1450.209 1449.992 1449.85 1449.773 1449.694 1449.437 1449.34 1449.199 1448.944 1448.795 
1471.901 1471.882 1471.802 1471.642 1471.542 1471.377 1470.916 1470.654 1470.324 1469.943 1469.062 1468.637 1468.106 1466.808 1466.138 1465.517 1464.717 1462.545 1461.323 1460.129 1457.227 1455.812 1454.513 1452.666 1452.062 1451.701 1451.319 1450.707 1450.441 1450.233 1449.789 1449.596 1449.37 1449.045 1448.885 1448.73 1448.64 1448.612 1448.535 1448.562 1448.667 1448.825 1448.951 1449.247 1449.545 1449.786 1450.054 1450.66 1450.935 1451.089 1451.249 1451.318 1451.388 1452.062 1452.078 1451.988 1451.978 1451.974 1451.951 1451.867 1451.807 1451.716 1451.627 1451.45 1451.391 1451.387 1451.379 1451.365 1451.341 1451.259 1451.044 1450.9 1450.813 1450.494 1450.358 1450.288 1450.214 1449.904 1449.754 1449.596 1449.398 1449.229 
1472.216 1472.187 1472.11 1472.015 1471.845 1471.681 1471.453 1470.952 1470.638 1470.328 1469.452 1469.039 1468.494 1467.21 1466.509 1465.827 1465.071 1462.971 1461.594 1460.249 1457.1 1455.545 1454.056 1452.125 1451.675 1451.38 1451.037 1450.62 1450.349 1450.152 1449.813 1449.641 1449.408 1449.144 1448.996 1448.884 1448.8 1448.704 1448.671 1448.717 1448.963 1449.101 1449.194 1449.529 1449.782 1450.106 1450.495 1451.132 1451.331 1451.478 1451.757 1451.839 1451.922 1452.062 1452.078 1452.516 1452.492 1452.484 1452.459 1452.376 1452.362 1452.305 1452.153 1452.08 1451.983 1451.906 1451.891 1452 1451.95 1451.787 1451.611 1451.501 1451.339 1451.169 1450.954 1450.793 1450.64 1450.425 1450.256 1450.097 1449.799 1449.647 
1472.408 1472.412 1472.406 1472.252 1472.18 1472.086 1471.864 1471.36 1471.027 1470.641 1469.861 1469.438 1468.894 1467.656 1466.986 1466.21 1465.388 1463.285 1461.862 1460.423 1456.987 1455.184 1453.682 1451.759 1451.354 1451.128 1450.933 1450.562 1450.423 1450.19 1449.798 1449.639 1449.453 1449.243 1449.11 1449.045 1448.963 1448.879 1448.876 1448.869 1449.104 1449.273 1449.464 1449.811 1450.067 1450.388 1450.789 1451.55 1451.749 1451.917 1452.217 1452.373 1452.502 1452.517 1452.591 1452.516 1452.492 1452.997 1452.976 1452.902 1452.823 1452.762 1452.753 1452.674 1452.535 1452.519 1452.431 1452.469 1452.394 1452.382 1452.12 1452.015 1451.854 1451.764 1451.468 1451.306 1451.145 1450.842 1450.681 1450.523 1450.168 1449.956 
1472.659 1472.703 1472.625 1472.572 1472.488 1472.4 1472.252 1471.799 1471.535 1471.147 1470.372 1469.918 1469.295 1468.117 1467.387 1466.598 1465.692 1463.56 1462.114 1460.589 1457.025 1455.014 1453.384 1451.568 1451.268 1451.067 1450.925 1450.543 1450.464 1450.23 1449.824 1449.645 1449.548 1449.351 1449.188 1449.075 1449.034 1449.056 1449.088 1449.082 1449.302 1449.474 1449.668 1449.782 1450.271 1450.601 1451.058 1451.953 1452.177 1452.405 1452.75 1452.87 1452.931 1453.004 1453.132 1453.115 1453.04 1452.997 1453.503 1453.501 1453.384 1453.362 1453.268 1453.184 1453.162 1453.135 1453.055 1452.981 1452.889 1452.809 1452.698 1452.55 1452.462 1452.308 1451.98 1451.822 1451.665 1451.238 1451.092 1450.93 1450.511 1450.349 
1472.872 1472.932 1472.93 1472.929 1472.904 1472.81 1472.658 1472.209 1471.94 1471.553 1470.882 1470.446 1469.884 1468.556 1467.858 1466.985 1466.071 1463.952 1462.56 1461.029 1457.294 1455.218 1453.63 1451.689 1451.418 1451.132 1450.92 1450.572 1450.381 1450.208 1449.919 1449.718 1449.651 1449.527 1449.295 1449.197 1449.194 1449.209 1449.249 1449.288 1449.528 1449.684 1449.829 1449.965 1450.474 1450.77 1451.224 1452.254 1452.576 1452.818 1453.225 1453.361 1453.428 1453.518 1453.64 1453.63 1453.63 1453.511 1453.503 1453.501 1453.904 1453.867 1453.799 1453.792 1453.736 1453.667 1453.663 1453.425 1453.433 1453.422 1453.205 1453.068 1452.978 1452.822 1452.5 1452.322 1452.092 1451.714 1451.499 1451.342 1450.916 1450.771 
1473.19 1473.234 1473.228 1473.231 1473.201 1473.111 1472.961 1472.619 1472.383 1472.145 1471.384 1470.95 1470.392 1469.776 1468.382 1467.557 1466.488 1464.521 1463.218 1461.524 1457.651 1455.738 1454.097 1452.791 1451.532 1451.301 1451.01 1450.556 1450.339 1450.192 1449.996 1449.815 1449.689 1449.575 1449.418 1449.348 1449.345 1449.33 1449.344 1449.427 1449.679 1449.832 1449.986 1450.183 1450.628 1450.917 1451.339 1452.317 1452.802 1453.156 1453.556 1453.745 1453.839 1453.991 1454.137 1454.143 1454.137 1454.108 1454.049 1454.008 1453.904 1453.867 1454.405 1454.402 1454.286 1454.289 1454.273 1454.121 1454.026 1453.938 1453.773 1453.662 1453.495 1453.333 1453.02 1452.823 1452.512 1452.132 1451.885 1451.66 1451.497 1451.074 
1473.19 1473.435 1473.444 1473.513 1473.441 1473.443 1473.374 1473.179 1473.006 1472.767 1471.992 1471.583 1471.099 1470.489 1469.021 1468.062 1467.058 1465.039 1463.829 1462.177 1458.345 1456.5 1454.765 1453.41 1451.683 1451.507 1451.204 1450.682 1450.42 1450.272 1449.935 1449.828 1449.684 1449.664 1449.452 1449.444 1449.443 1449.509 1449.514 1449.591 1449.833 1449.99 1450.144 1450.283 1450.795 1451.088 1451.463 1452.279 1452.812 1453.305 1453.805 1454.043 1454.219 1454.367 1454.569 1454.63 1454.624 1454.683 1454.7 1454.575 1454.472 1454.414 1454.405 1454.402 1454.915 1454.88 1454.802 1454.693 1454.54 1454.441 1454.286 1454.099 1454.005 1453.849 1453.498 1453.229 1452.918 1452.542 1452.296 1452.059 1451.818 1451.455 
1473.39 1473.435 1473.735 1473.755 1473.891 1473.97 1473.973 1473.725 1473.641 1473.466 1472.655 1472.338 1471.908 1471.229 1469.731 1468.748 1467.661 1465.693 1464.443 1462.942 1459.084 1457.092 1455.439 1454.033 1451.951 1451.617 1451.313 1450.808 1450.506 1450.293 1450.063 1449.903 1449.751 1449.688 1449.596 1449.538 1449.537 1449.598 1449.666 1449.735 1449.964 1450.137 1450.243 1450.428 1450.936 1451.186 1451.571 1452.343 1452.857 1453.351 1453.668 1454.256 1454.481 1454.688 1454.981 1455.033 1455.049 1455.174 1455.191 1455.269 1455.131 1454.997 1454.93 1454.919 1454.915 1455.417 1455.416 1455.265 1455.123 1454.878 1454.775 1454.583 1454.427 1454.341 1454.009 1453.744 1453.43 1452.944 1452.7 1452.472 1452.313 1451.781 
1473.568 1473.648 1473.735 1473.755 1474.246 1474.373 1474.38 1474.367 1474.23 1474.005 1473.66 1473.218 1472.743 1472.21 1470.63 1469.678 1468.666 1466.178 1465.071 1463.723 1459.916 1457.948 1456.225 1454.748 1452.373 1451.704 1451.399 1450.806 1450.539 1450.379 1450.029 1449.944 1449.852 1449.77 1449.686 1449.723 1449.721 1449.759 1449.76 1449.9 1449.972 1450.283 1450.413 1450.646 1451.047 1451.344 1451.689 1452.444 1453.036 1453.512 1453.908 1454.509 1454.773 1455.092 1455.384 1455.454 1455.56 1455.758 1455.78 1455.826 1455.784 1455.578 1455.552 1455.547 1455.479 1455.417 1455.416 1455.865 1455.736 1455.512 1455.327 1455.102 1454.934 1454.769 1454.46 1454.261 1453.937 1453.395 1453.221 1452.978 1452.74 1452.263 
1473.676 1473.784 1473.962 1474.117 1474.246 1474.373 1474.873 1474.961 1474.893 1474.803 1474.229 1473.989 1473.65 1473.125 1471.593 1470.683 1469.592 1467.177 1465.834 1464.417 1462.691 1458.722 1456.915 1455.29 1452.666 1451.789 1451.5 1450.798 1450.519 1450.308 1450.194 1450.03 1449.952 1449.872 1449.839 1449.855 1449.848 1449.927 1450 1450.046 1450.17 1450.458 1450.612 1450.791 1451.236 1451.545 1451.803 1452.581 1453.147 1453.686 1454.161 1454.869 1455.203 1455.473 1455.804 1455.912 1456.069 1456.256 1456.3 1456.281 1456.272 1456.347 1456.194 1456.161 1456.036 1456.042 1456.017 1455.865 1455.736 1456.198 1455.971 1455.615 1455.446 1455.286 1454.979 1454.743 1454.354 1453.86 1453.651 1453.488 1453.258 1452.671 
1473.868 1474.022 1474.229 1474.334 1474.718 1474.797 1474.873 1474.961 1475.497 1475.396 1475.186 1474.688 1474.356 1473.917 1472.782 1471.924 1470.829 1468.137 1466.709 1465.217 1463.551 1459.5 1457.398 1455.687 1452.933 1451.935 1451.432 1450.757 1450.426 1450.277 1450.199 1450.143 1450.053 1449.979 1449.957 1449.96 1450.017 1450.079 1450.166 1450.215 1450.299 1450.691 1450.88 1451.02 1451.495 1451.741 1451.96 1452.807 1453.288 1453.821 1454.331 1455.204 1455.564 1455.813 1456.314 1456.473 1456.586 1456.872 1456.929 1456.915 1456.931 1456.969 1456.888 1456.838 1456.675 1456.64 1456.547 1456.377 1456.301 1456.198 1456.564 1456.203 1455.968 1455.809 1455.453 1455.178 1454.869 1454.622 1454.138 1453.899 1453.662 1453.196 
1473.775 1474.191 1474.362 1474.581 1474.957 1475.175 1475.278 1475.469 1475.497 1475.903 1475.768 1475.353 1475.129 1474.911 1474.059 1473.31 1472.363 1469.43 1467.755 1466.118 1464.44 1460.114 1457.855 1456.001 1452.973 1451.938 1451.421 1450.626 1450.456 1450.372 1450.225 1450.188 1450.151 1450.007 1450.034 1450.167 1450.233 1450.217 1450.348 1450.418 1450.544 1450.984 1451.198 1451.399 1451.737 1451.937 1452.272 1453.184 1453.694 1454.27 1454.73 1455.551 1455.935 1456.32 1456.863 1457.052 1457.145 1457.429 1457.513 1457.533 1457.578 1457.579 1457.545 1457.601 1457.346 1457.253 1457.191 1457.09 1456.891 1456.72 1456.564 1456.203 1456.605 1456.432 1456.059 1455.791 1455.488 1455.24 1454.645 1454.413 1454.177 1453.666 
1473.927 1474.307 1474.515 1474.68 1475.183 1475.443 1475.68 1476.019 1475.982 1475.903 1475.768 1476.313 1476.177 1476.026 1475.472 1475.007 1474.097 1470.805 1468.858 1466.885 1464.872 1460.573 1458.179 1456.02 1452.803 1451.72 1451.215 1450.465 1450.365 1450.289 1450.194 1450.259 1450.182 1450.161 1450.186 1450.283 1450.343 1450.442 1450.554 1450.689 1450.78 1451.271 1451.597 1451.811 1452.129 1452.428 1452.823 1453.221 1454.157 1454.73 1455.195 1456.02 1456.411 1456.834 1457.362 1457.578 1457.762 1457.914 1458.074 1458.138 1458.156 1458.253 1458.227 1458.24 1458.048 1457.931 1457.883 1457.745 1457.504 1457.338 1457.176 1456.825 1456.605 1456.432 1456.583 1456.34 1456.08 1455.774 1455.162 1454.926 1454.684 1454.016 
1473.973 1474.349 1474.509 1474.767 1475.428 1475.785 1476.026 1476.328 1476.396 1476.399 1476.336 1476.313 1476.177 1476.919 1476.904 1476.677 1475.694 1472.058 1469.843 1467.569 1465.384 1460.814 1458.272 1455.723 1452.382 1451.485 1450.911 1450.369 1450.249 1450.198 1450.265 1450.181 1450.185 1450.188 1450.35 1450.399 1450.608 1450.746 1451.005 1451.083 1451.15 1451.556 1451.951 1452.282 1452.815 1453.118 1453.443 1453.861 1454.842 1455.262 1455.708 1456.611 1456.984 1457.354 1457.924 1458.148 1458.381 1458.577 1458.699 1458.808 1458.881 1458.914 1458.874 1458.921 1458.816 1458.698 1458.527 1458.446 1458.132 1457.978 1457.833 1457.486 1457.298 1457.052 1456.583 1456.34 1456.622 1456.37 1455.751 1455.423 1455.106 1454.381 
1474.043 1474.381 1474.552 1474.839 1475.443 1475.738 1476.073 1476.53 1476.673 1476.74 1476.761 1476.914 1476.968 1476.919 1477.421 1477.503 1476.901 1475.301 1470.972 1468.457 1466.037 1461.284 1458.339 1455.32 1451.625 1451.026 1450.69 1450.53 1450.16 1450.192 1450.27 1450.228 1450.198 1450.343 1450.524 1450.685 1450.919 1451.214 1451.428 1451.498 1451.567 1451.921 1452.336 1452.782 1453.506 1453.861 1454.215 1454.6 1455.525 1455.963 1456.469 1457.207 1457.595 1457.973 1458.613 1458.807 1458.992 1459.231 1459.36 1459.482 1459.594 1459.589 1459.582 1459.574 1459.529 1459.418 1459.282 1459.171 1458.876 1458.709 1458.634 1458.178 1457.92 1457.703 1457.323 1457.004 1456.622 1457.002 1456.332 1455.945 1455.621 1454.777 
1474.121 1474.474 1474.654 1474.849 1475.384 1475.673 1476.035 1476.305 1476.744 1476.828 1476.908 1477.029 1477.048 1477.131 1477.421 1477.503 1477.49 1476.554 1472.123 1469.543 1467.041 1461.819 1458.41 1455.088 1451.242 1450.745 1450.475 1450.307 1450.328 1450.19 1450.26 1450.381 1450.381 1450.463 1450.88 1451.123 1451.419 1451.665 1451.826 1451.891 1451.953 1452.557 1452.99 1453.384 1454.23 1454.592 1454.97 1455.394 1456.286 1456.75 1457.236 1458.001 1458.334 1458.715 1459.329 1459.534 1459.723 1459.907 1460.089 1460.203 1460.312 1460.335 1460.346 1460.302 1460.244 1460.157 1460.064 1459.9 1459.637 1459.445 1459.314 1458.96 1458.679 1458.508 1458.277 1457.645 1457.321 1457.002 1456.332 1456.533 1456.136 1455.185 
1474.26 1474.5 1474.762 1474.908 1475.354 1475.639 1475.974 1476.297 1476.728 1476.878 1476.979 1477.121 1477.196 1477.311 1477.416 1477.485 1477.49 1476.554 1473.274 1470.57 1467.859 1462.207 1458.586 1454.968 1451.185 1450.755 1450.493 1450.401 1450.348 1450.48 1450.404 1450.413 1450.511 1450.661 1451.196 1451.564 1451.856 1452.073 1452.427 1452.489 1452.621 1453.212 1453.726 1454.088 1454.89 1455.338 1455.771 1456.214 1457.214 1457.64 1458.033 1458.901 1459.234 1459.555 1460.113 1460.321 1460.496 1460.647 1460.807 1460.926 1461.035 1461.055 1461.073 1461.018 1460.976 1460.839 1460.776 1460.615 1460.354 1460.226 1459.999 1459.728 1459.486 1459.218 1459 1458.361 1457.964 1457.628 1456.953 1456.533 1456.136 1455.714 
1474.255 1474.56 1474.825 1474.975 1475.366 1475.57 1475.946 1476.281 1476.609 1476.771 1476.932 1477.098 1477.168 1477.372 1477.569 1477.528 1477.362 1477.335 1473.274 1470.57 1468.688 1462.801 1458.873 1455.033 1451.153 1450.89 1450.67 1450.441 1450.428 1450.476 1450.4 1450.469 1450.545 1450.861 1451.53 1451.849 1452.09 1452.525 1453.087 1453.202 1453.341 1454.052 1454.464 1454.906 1455.348 1456.143 1456.604 1457.113 1458.085 1458.576 1458.945 1459.731 1460.083 1460.378 1460.688 1461.065 1461.204 1461.298 1461.51 1461.585 1461.698 1461.748 1461.735 1461.727 1461.645 1461.49 1461.446 1461.325 1461.069 1460.91 1460.786 1460.468 1460.27 1459.995 1459.81 1459.188 1458.785 1458.386 1457.586 1457.06 1456.657 1455.714 
1474.248 1474.634 1474.822 1475.011 1475.381 1475.604 1475.875 1476.098 1476.508 1476.631 1476.785 1477.168 1477.319 1477.381 1477.563 1477.551 1477.674 1477.675 1474.242 1471.391 1468.688 1463.185 1459.206 1455.171 1451.126 1450.828 1450.597 1450.585 1450.452 1450.569 1450.504 1450.673 1450.82 1450.993 1451.43 1452.138 1452.6 1453.057 1453.756 1453.951 1454.16 1454.792 1455.193 1455.639 1456.09 1457.002 1457.529 1458.05 1459.075 1459.515 1459.88 1460.634 1460.992 1461.282 1461.54 1461.822 1461.918 1462.04 1462.236 1462.287 1462.304 1462.442 1462.466 1462.443 1462.359 1462.188 1462.098 1461.986 1461.711 1461.56 1461.453 1461.165 1461.018 1460.889 1460.678 1460.004 1459.625 1459.213 1458.255 1457.77 1457.281 1456.266 
1474.371 1474.716 1474.883 1475.119 1475.542 1475.739 1475.907 1475.97 1476.352 1476.456 1476.61 1477.098 1477.322 1477.441 1477.567 1477.79 1477.834 1477.705 1474.881 1472.022 1469.208 1463.185 1459.206 1455.144 1452.182 1450.752 1450.593 1450.58 1450.503 1450.414 1450.571 1450.708 1450.98 1451.3 1451.672 1452.494 1453.028 1453.487 1454.255 1454.608 1454.897 1455.505 1455.965 1456.557 1457.021 1457.902 1458.385 1458.982 1459.914 1460.367 1460.804 1461.526 1461.844 1462.131 1462.296 1462.644 1462.704 1462.798 1462.944 1463.013 1463.045 1463.084 1463.125 1463.159 1463.124 1462.943 1462.805 1462.644 1462.394 1462.221 1462.058 1461.902 1461.779 1461.7 1461.587 1460.895 1460.539 1460.063 1459.038 1458.463 1457.911 1457.342 
1474.532 1474.82 1474.988 1475.225 1475.583 1476.015 1476.178 1476.218 1476.24 1476.355 1476.517 1477.048 1477.403 1477.623 1477.702 1477.955 1477.913 1477.695 1475.671 1472.647 1469.578 1463.173 1459.14 1455.144 1452.182 1450.712 1450.666 1450.586 1450.526 1450.612 1450.7 1450.985 1451.221 1451.603 1451.907 1452.935 1453.453 1453.908 1454.781 1455.152 1455.521 1456.298 1456.786 1457.313 1457.758 1458.781 1459.299 1459.828 1460.944 1461.368 1461.745 1462.462 1462.728 1462.953 1463.162 1463.484 1463.542 1463.607 1463.721 1463.752 1463.831 1463.885 1463.891 1463.917 1463.917 1463.742 1463.591 1463.378 1462.985 1462.833 1462.718 1462.701 1462.624 1462.56 1462.454 1461.899 1461.452 1460.982 1459.773 1459.165 1458.6 1457.97 
1474.562 1474.931 1475.109 1475.401 1475.746 1476.254 1476.468 1476.506 1476.3 1476.317 1476.409 1477.074 1477.483 1477.717 1477.798 1478.035 1477.968 1477.772 1476.201 1473.194 1469.901 1462.949 1458.88 1454.956 1451.927 1450.712 1450.666 1450.496 1450.666 1450.665 1450.885 1451.2 1451.52 1451.836 1452.29 1453.362 1453.876 1454.331 1455.308 1455.696 1456.143 1456.986 1457.523 1458.061 1458.657 1459.718 1460.257 1460.851 1461.844 1462.236 1462.679 1462.997 1463.616 1463.9 1464.071 1464.147 1464.226 1464.302 1464.322 1464.322 1464.35 1464.444 1464.319 1464.324 1464.324 1464.276 1464.225 1464.061 1463.59 1463.454 1463.39 1463.417 1463.443 1463.455 1463.323 1462.888 1462.405 1461.901 1460.514 1459.841 1459.168 1458.54 
1474.694 1474.994 1475.216 1475.483 1475.791 1476.333 1476.505 1476.63 1476.5 1476.449 1476.443 1477.203 1477.567 1477.862 1477.983 1478.152 1478.07 1477.956 1476.437 1473.507 1470.029 1462.788 1458.768 1454.807 1451.642 1450.619 1450.561 1450.496 1450.803 1450.941 1451.031 1451.547 1451.847 1452.191 1452.712 1453.865 1454.325 1454.852 1455.88 1456.328 1456.778 1457.223 1458.264 1458.788 1459.316 1460.509 1461.107 1461.71 1462.84 1463.227 1463.547 1463.931 1464.305 1464.413 1464.568 1464.707 1464.765 1464.778 1464.822 1464.76 1464.763 1464.747 1464.495 1464.505 1464.505 1464.492 1464.444 1464.412 1464.21 1464.095 1464.023 1464.051 1464.13 1464.164 1464.129 1463.789 1463.365 1462.802 1461.278 1460.442 1459.701 1459.067 
1474.851 1475.07 1475.337 1475.618 1475.876 1476.384 1476.566 1476.713 1476.764 1476.722 1476.808 1477.491 1477.866 1478.078 1478.212 1478.395 1478.408 1478.339 1476.891 1474.01 1470.24 1462.577 1458.376 1454.381 1451.412 1450.588 1450.588 1450.621 1450.803 1450.941 1451.348 1451.652 1452.355 1452.837 1453.365 1454.469 1455.047 1455.495 1456.503 1456.98 1457.504 1457.961 1459 1459.525 1460.05 1461.287 1461.954 1462.555 1463.713 1464.09 1464.301 1464.478 1464.674 1464.813 1464.897 1465.068 1465.124 1465.115 1465.089 1465.112 1465.031 1464.895 1464.708 1464.721 1464.72 1464.624 1464.619 1464.672 1464.585 1464.499 1464.422 1464.412 1464.52 1464.462 1464.425 1464.303 1463.98 1463.415 1461.763 1460.898 1460.199 1459.575 
1474.872 1475.184 1475.439 1475.696 1475.925 1476.382 1476.626 1476.869 1477.053 1477.19 1477.344 1477.547 1478.222 1478.324 1478.358 1478.673 1478.73 1478.719 1477.51 1474.704 1470.592 1466.515 1457.901 1453.857 1451.049 1450.597 1450.67 1450.799 1450.949 1451.083 1451.348 1451.652 1452.999 1453.468 1453.994 1455.063 1455.572 1456.03 1457.086 1457.59 1458.043 1458.568 1459.555 1460.159 1460.688 1461.969 1462.707 1463.304 1464.264 1464.53 1464.742 1464.892 1465.155 1465.23 1465.312 1465.27 1465.356 1465.347 1465.204 1465.185 1465.154 1464.988 1464.906 1464.863 1464.854 1464.752 1464.778 1464.802 1464.634 1464.578 1464.556 1464.504 1464.536 1464.488 1464.456 1464.28 1464.01 1463.496 1462.823 1461.208 1460.477 1459.848 
1475.022 1475.163 1475.532 1475.763 1475.992 1476.443 1476.692 1477.008 1477.385 1477.623 1477.818 1477.993 1478.485 1478.633 1478.578 1478.935 1479.013 1479.104 1477.969 1475.25 1470.979 1466.48 1457.44 1453.335 1450.852 1450.827 1450.985 1450.986 1451.152 1451.357 1451.656 1451.975 1452.999 1453.468 1454.642 1455.705 1456.237 1456.756 1457.712 1458.225 1458.67 1459.114 1460.16 1460.701 1461.305 1462.559 1463.265 1463.934 1464.679 1464.951 1465.163 1465.317 1465.524 1465.63 1465.561 1465.564 1465.456 1465.461 1465.309 1465.232 1465.178 1465.151 1464.991 1464.891 1464.958 1464.735 1464.71 1464.716 1464.701 1464.627 1464.527 1464.498 1464.452 1464.489 1464.398 1464.167 1463.878 1463.312 1462.67 1461.344 1460.695 1460.1 
1475.238 1475.313 1475.639 1475.873 1476.103 1476.588 1476.862 1477.113 1477.723 1477.917 1478.101 1478.291 1478.745 1478.9 1478.888 1479.161 1479.215 1479.303 1478.204 1475.857 1471.432 1466.513 1457.13 1453.128 1451.074 1451.346 1451.356 1451.408 1451.583 1451.766 1452.045 1452.494 1453.582 1454.116 1454.642 1456.433 1456.944 1457.398 1458.354 1458.855 1459.308 1459.756 1460.794 1461.321 1461.846 1462.987 1463.679 1464.262 1464.591 1465.279 1465.484 1465.639 1465.802 1465.872 1465.861 1465.718 1465.638 1465.568 1465.484 1465.332 1465.255 1465.193 1465.035 1464.945 1464.914 1464.822 1464.749 1464.708 1464.658 1464.549 1464.492 1464.439 1464.385 1464.364 1464.293 1464.003 1463.6 1463.046 1462.419 1461.306 1460.733 1460.266 
1475.363 1475.484 1475.723 1475.965 1476.2 1476.699 1477.007 1477.287 1477.96 1478.222 1478.362 1478.592 1478.948 1479.055 1479.229 1479.436 1479.454 1479.3 1478.399 1476.353 1471.537 1466.427 1457.077 1453.478 1452.101 1451.887 1451.823 1451.87 1452.066 1452.3 1452.712 1453.16 1454.31 1454.835 1455.363 1456.433 1456.944 1458.135 1458.679 1459.52 1460.045 1460.5 1461.396 1461.856 1462.379 1463.495 1464.031 1464.401 1464.857 1465.52 1465.787 1465.866 1466.05 1465.971 1465.975 1465.886 1465.739 1465.674 1465.671 1465.435 1465.365 1465.288 1465.071 1465.04 1464.9 1464.799 1464.678 1464.484 1464.389 1464.35 1464.353 1464.328 1464.305 1464.261 1464.276 1463.578 1463.11 1462.605 1462.158 1461.185 1460.775 1460.396 
1475.547 1475.686 1476.01 1476.237 1476.405 1476.879 1477.189 1477.491 1478.239 1478.57 1478.756 1478.927 1479.142 1479.278 1479.474 1479.641 1479.493 1479.282 1478.68 1476.467 1471.535 1466.377 1457.847 1454.649 1453.328 1452.573 1452.439 1452.589 1452.721 1453.103 1453.476 1453.903 1454.935 1455.454 1456.001 1457.065 1457.599 1458.135 1458.679 1460.347 1460.79 1461.238 1462.209 1462.583 1463.031 1463.972 1464.449 1464.829 1465.281 1465.873 1466.012 1466.163 1466.188 1466.167 1466.087 1465.931 1465.849 1465.773 1465.71 1465.441 1465.375 1465.3 1465.151 1465.074 1464.921 1464.557 1464.396 1464.229 1464.206 1464.224 1464.231 1464.247 1464.049 1463.937 1463.785 1462.978 1462.581 1462.179 1461.846 1461.155 1460.888 1460.534 
1475.743 1475.889 1476.219 1476.383 1476.529 1477.093 1477.401 1477.774 1478.16 1478.805 1479.029 1479.235 1479.43 1479.596 1479.701 1479.669 1479.572 1479.503 1479.247 1476.599 1471.588 1466.047 1459.254 1456.714 1455.115 1453.748 1453.548 1453.572 1453.629 1453.992 1454.302 1454.667 1455.648 1456.141 1456.732 1457.818 1458.333 1458.866 1459.411 1460.347 1461.633 1462.083 1462.932 1463.329 1463.76 1464.497 1464.872 1465.25 1465.624 1466.193 1466.302 1466.295 1466.245 1466.184 1466.182 1466.029 1465.956 1465.871 1465.719 1465.511 1465.375 1465.302 1465.038 1464.883 1464.656 1464.265 1464.216 1464.195 1464.145 1464.062 1464.056 1463.953 1463.626 1463.388 1463.092 1462.755 1462.206 1462.001 1461.691 1461.166 1460.945 1460.726 
1476.126 1476.136 1476.377 1476.474 1476.689 1477.315 1477.781 1478.092 1478.474 1479.082 1479.306 1479.537 1479.783 1479.81 1479.817 1479.796 1479.771 1479.637 1479.42 1476.793 1471.536 1465.56 1460.186 1458.401 1456.93 1455.146 1454.782 1454.693 1454.724 1454.876 1455.203 1455.55 1456.4 1456.955 1457.506 1458.61 1459.079 1459.622 1460.236 1461.18 1461.633 1462.083 1463.71 1464.112 1464.392 1465.021 1465.412 1465.769 1466.075 1466.392 1466.493 1466.417 1466.287 1466.268 1466.192 1466.148 1466.03 1465.883 1465.803 1465.517 1465.364 1465.219 1464.834 1464.573 1464.422 1464.247 1464.098 1464.03 1463.888 1463.751 1463.661 1463.45 1463.134 1462.936 1462.68 1462.479 1462.024 1461.824 1461.623 1461.218 1460.998 1460.852 
1476.348 1476.337 1476.64 1476.854 1477.07 1477.715 1478.127 1478.489 1478.798 1479.399 1479.623 1479.851 1480.033 1480.106 1480.196 1480.062 1480.049 1479.872 1479.589 1476.612 1471.056 1464.982 1460.625 1459.368 1458.145 1456.558 1456.091 1455.897 1455.845 1455.865 1456.17 1456.464 1457.164 1457.68 1458.247 1459.387 1459.938 1460.49 1461.077 1462.029 1462.469 1462.918 1463.71 1464.112 1464.994 1465.217 1465.977 1466.197 1466.475 1466.611 1466.618 1466.685 1466.38 1466.377 1466.286 1466.132 1465.96 1465.872 1465.724 1465.414 1465.264 1465.113 1464.734 1464.418 1464.215 1464.204 1463.85 1463.727 1463.646 1463.417 1463.314 1463.075 1462.81 1462.602 1462.437 1462.287 1462.02 1461.821 1461.612 1461.357 1461.17 1461.009 
1476.644 1476.71 1476.984 1477.198 1477.567 1478.125 1478.494 1478.823 1479.266 1479.691 1479.926 1480.153 1480.379 1480.424 1480.587 1480.42 1480.173 1480.041 1479.661 1476.232 1470.464 1464.708 1461.108 1460.113 1459.186 1457.819 1457.297 1456.973 1456.83 1456.776 1456.979 1457.281 1457.945 1458.34 1458.824 1459.479 1460.786 1461.402 1461.925 1462.925 1463.297 1463.732 1464.43 1464.715 1464.994 1465.217 1466.415 1466.656 1466.731 1466.784 1466.689 1466.597 1466.561 1466.441 1466.287 1466.216 1465.878 1465.855 1465.632 1465.379 1465.165 1465.01 1464.384 1464.272 1464.185 1464.052 1463.734 1463.583 1463.447 1463.203 1463.011 1462.922 1462.667 1462.445 1462.296 1462.135 1461.979 1461.861 1461.677 1461.47 1461.323 1461.21 
1477.241 1477.234 1477.545 1477.768 1478.005 1478.705 1479.005 1479.31 1479.637 1480.099 1480.334 1480.564 1480.648 1480.72 1480.812 1480.86 1480.553 1480.09 1479.596 1475.826 1470.165 1464.832 1461.371 1460.717 1459.955 1459.274 1458.247 1457.887 1457.749 1457.722 1457.8 1458.067 1458.589 1458.976 1459.528 1460.096 1461.489 1462.205 1462.762 1463.751 1464.091 1464.441 1465.032 1465.299 1465.533 1465.82 1466.415 1466.887 1467.004 1466.906 1466.862 1466.736 1466.554 1466.406 1466.191 1466.18 1465.805 1465.657 1465.508 1465.107 1464.917 1464.618 1464.284 1464.162 1464.086 1463.94 1463.638 1463.47 1463.246 1463.031 1462.854 1462.725 1462.619 1462.429 1462.281 1462.192 1461.935 1461.862 1461.767 1461.547 1461.424 1461.396 
1477.782 1477.848 1478.005 1478.233 1478.606 1478.852 1479.439 1479.743 1480.048 1480.418 1480.647 1480.807 1480.947 1481.04 1481.098 1481.033 1481.041 1480.545 1479.577 1475.22 1469.917 1465.026 1461.675 1461.243 1460.558 1459.96 1459.012 1458.7 1458.568 1458.536 1458.572 1458.798 1459.261 1459.593 1460.106 1460.63 1462.041 1462.876 1463.524 1464.475 1464.763 1465.034 1465.612 1465.856 1466.159 1466.381 1466.819 1466.887 1467.004 1466.993 1466.847 1466.975 1466.588 1466.398 1466.177 1466 1465.665 1465.442 1465.289 1464.96 1464.693 1464.402 1464.244 1464.137 1463.982 1463.832 1463.494 1463.272 1463.111 1462.96 1462.851 1462.69 1462.552 1462.365 1462.271 1462.119 1462.027 1461.946 1461.865 1461.764 1461.685 1461.68 
1478.113 1478.258 1478.586 1478.811 1479.05 1479.348 1479.845 1480.155 1480.462 1480.89 1481.047 1481.188 1481.269 1481.248 1481.322 1481.319 1481.212 1480.784 1479.674 1474.616 1469.734 1465.288 1462.072 1461.572 1460.961 1460.456 1459.701 1459.42 1459.289 1459.149 1459.238 1459.427 1459.818 1460.163 1460.632 1461.118 1462.529 1463.365 1464.063 1465.006 1465.343 1465.586 1466.216 1466.45 1466.739 1466.978 1467.154 1467.245 1467.164 1466.993 1466.847 1466.891 1466.804 1466.303 1466.127 1465.825 1465.443 1465.211 1464.979 1464.579 1464.337 1464.279 1464.209 1464.038 1463.868 1463.642 1463.316 1463.178 1463.097 1462.841 1462.774 1462.681 1462.519 1462.424 1462.284 1462.255 1462.087 1461.97 1461.956 1461.939 1461.923 1461.913 
1478.548 1478.769 1479.165 1479.425 1479.568 1479.783 1480.373 1480.665 1480.896 1481.268 1481.377 1481.6 1481.561 1481.533 1481.609 1481.565 1481.28 1480.764 1479.522 1474.347 1469.816 1465.88 1462.448 1461.875 1461.325 1460.854 1460.126 1459.915 1459.882 1459.716 1459.789 1459.943 1460.384 1460.654 1461.063 1461.545 1462.91 1463.736 1464.392 1465.501 1465.84 1466.142 1466.434 1466.966 1467.132 1467.319 1467.481 1467.446 1467.451 1467.251 1467.088 1466.891 1466.804 1466.089 1465.764 1465.534 1465.032 1464.864 1464.579 1464.315 1464.251 1464.188 1464.192 1463.816 1463.656 1463.43 1463.142 1463.069 1462.995 1462.838 1462.761 1462.685 1462.605 1462.343 1462.286 1462.284 1462.177 1462.036 1462.049 1462.132 1462.132 1462.185 
1478.859 1479.088 1479.646 1479.868 1480.08 1480.221 1480.878 1481.089 1481.312 1481.73 1481.85 1481.932 1481.969 1481.916 1481.916 1481.776 1481.333 1480.733 1479.407 1474.656 1470.436 1466.478 1462.667 1462.118 1461.602 1461.113 1460.502 1460.319 1460.325 1460.203 1460.243 1460.405 1460.579 1461.085 1461.364 1461.85 1463.209 1464.003 1464.643 1465.852 1466.215 1466.54 1466.901 1467.48 1467.569 1467.626 1467.717 1467.665 1467.621 1467.388 1467.22 1466.897 1466.621 1466.089 1465.1 1464.787 1464.509 1464.401 1464.354 1464.218 1464.176 1464.164 1464.013 1463.669 1463.466 1463.393 1463.183 1463.154 1462.998 1462.834 1462.756 1462.678 1462.602 1462.432 1462.367 1462.36 1462.362 1462.317 1462.238 1462.315 1462.436 1462.563 
1479.282 1479.505 1479.95 1480.21 1480.506 1480.735 1481.216 1481.509 1481.733 1482.154 1482.269 1482.335 1482.413 1482.294 1482.219 1482.14 1481.446 1480.624 1479.642 1475.806 1471.694 1467.156 1464.277 1462.184 1461.645 1461.345 1460.877 1460.727 1460.674 1460.578 1460.644 1460.752 1460.944 1461.446 1461.732 1462.172 1463.535 1464.229 1464.922 1466.11 1466.554 1467.004 1467.42 1467.865 1468.062 1468.144 1467.937 1467.997 1467.844 1467.498 1467.209 1466.821 1466.385 1465.541 1465.1 1464.787 1464.184 1464.171 1464.161 1464.121 1464.039 1463.943 1463.722 1463.393 1463.28 1463.277 1463.138 1463.084 1463.083 1462.933 1462.855 1462.775 1462.696 1462.525 1462.476 1462.552 1462.452 1462.472 1462.527 1462.507 1462.91 1463.224 
1479.59 1479.818 1480.114 1480.708 1480.927 1481.149 1481.709 1481.929 1482.15 1482.499 1482.71 1482.848 1482.933 1482.722 1482.712 1482.59 1481.524 1480.944 1480.011 1477.225 1473.569 1468.389 1464.77 1462.269 1461.778 1461.489 1461.215 1461.08 1460.996 1460.889 1461 1461.131 1461.253 1461.778 1462.108 1462.56 1463.786 1464.374 1465.071 1466.436 1466.943 1467.432 1467.799 1468.348 1468.496 1468.539 1468.4 1468.4 1468.289 1467.554 1467.121 1466.45 1465.783 1464.78 1464.496 1464.252 1464.184 1464.171 1464.054 1463.951 1463.826 1463.74 1463.612 1463.387 1463.36 1463.207 1463.266 1463.143 1462.997 1462.984 1462.883 1462.877 1462.801 1462.707 1462.76 1462.686 1462.647 1462.762 1462.758 1462.863 1463.515 1463.986 
1479.908 1480.142 1480.429 1481.047 1481.35 1481.656 1482.119 1482.343 1482.569 1482.978 1483.119 1483.268 1483.429 1483.241 1483.192 1482.824 1482.005 1481.346 1480.547 1478.231 1475.153 1469.692 1465.15 1462.375 1461.967 1461.657 1461.423 1461.216 1461.143 1461.31 1461.371 1461.419 1461.526 1462.031 1462.364 1462.81 1464.032 1464.582 1465.272 1466.714 1467.319 1467.835 1468.346 1468.837 1469.004 1469.028 1468.884 1468.656 1468.466 1468.104 1466.798 1465.986 1465.076 1464.126 1464.145 1464.156 1464.168 1464.131 1464.054 1464.043 1463.709 1463.587 1463.594 1463.461 1463.379 1463.314 1463.24 1463.191 1463.192 1463.119 1462.953 1462.885 1462.882 1462.885 1462.865 1462.784 1462.757 1462.803 1462.957 1463.178 1463.855 1464.291 
1480.254 1480.547 1480.774 1481.44 1481.668 1481.967 1482.496 1482.675 1482.979 1483.383 1483.589 1483.875 1483.964 1483.899 1483.692 1483.373 1482.815 1482.104 1481.233 1478.803 1475.924 1470.958 1465.864 1462.612 1462.252 1461.959 1461.537 1461.394 1461.386 1461.547 1461.563 1461.628 1461.761 1462.2 1462.51 1463.065 1464.343 1464.993 1465.719 1466.355 1467.773 1468.416 1468.96 1469.485 1469.599 1469.64 1469.323 1469.009 1468.7 1468.217 1466.54 1465.147 1464.23 1464.154 1464.123 1464.063 1464.014 1463.925 1463.85 1463.792 1463.709 1463.707 1463.683 1463.552 1463.504 1463.494 1463.294 1463.31 1463.303 1463.229 1463.171 1463.098 1463.091 1463.045 1462.979 1462.978 1463.007 1463.119 1463.261 1463.337 1463.95 1464.326 
1480.562 1480.862 1481.17 1481.775 1482.085 1482.38 1482.844 1483.1 1483.395 1483.907 1484.196 1484.405 1484.558 1484.694 1484.605 1484.283 1483.628 1482.834 1482.109 1479.287 1476.528 1472.151 1467.087 1462.921 1462.539 1462.1 1461.759 1461.71 1461.718 1461.654 1461.725 1461.763 1462.035 1462.411 1462.774 1463.391 1464.631 1465.439 1466.187 1466.875 1468.427 1469.093 1469.671 1470.276 1470.405 1470.387 1469.906 1469.438 1469.038 1468.396 1466.114 1464.345 1464.145 1464.03 1463.96 1463.95 1463.939 1463.85 1463.807 1463.882 1463.688 1463.707 1463.683 1463.612 1463.602 1463.544 1463.601 1463.562 1463.634 1463.636 1463.517 1463.503 1463.419 1463.252 1463.164 1463.092 1463.173 1463.221 1463.383 1463.528 1464.045 1464.261 
1480.562 1480.862 1481.479 1482.095 1482.379 1482.6 1483.214 1483.498 1483.72 1483.933 1484.61 1484.838 1485.14 1485.519 1485.48 1485.378 1484.608 1483.963 1482.949 1481.932 1477.547 1473.918 1468.607 1463.158 1462.646 1462.343 1462.046 1461.9 1461.787 1461.893 1461.819 1462.02 1462.146 1462.643 1463.02 1463.636 1464.996 1465.86 1466.717 1467.526 1469.235 1469.939 1470.552 1471.254 1471.466 1471.438 1470.63 1470.003 1469.467 1468.67 1466.198 1464.685 1464.211 1464.047 1463.96 1463.882 1463.927 1463.885 1463.889 1463.871 1463.787 1463.765 1463.634 1463.612 1463.602 1463.948 1464.051 1464.059 1464.028 1463.944 1463.896 1463.805 1463.723 1463.609 1463.587 1463.499 1463.405 1463.481 1463.491 1463.635 1464.038 1464.276 
1480.872 1481.177 1481.479 1482.408 1482.697 1482.934 1483.519 1483.827 1484.119 1484.351 1485.042 1485.362 1485.745 1486.324 1486.643 1486.618 1485.85 1485.095 1484.018 1482.526 1478.694 1475.768 1470.716 1463.884 1463.062 1462.653 1462.162 1461.95 1461.942 1461.97 1462.03 1462.092 1462.278 1462.877 1463.295 1463.916 1465.6 1466.59 1467.483 1468.35 1470.204 1470.927 1471.525 1472.31 1472.468 1472.438 1471.556 1470.945 1470.104 1469.082 1466.453 1464.857 1464.22 1464.04 1463.965 1463.918 1463.893 1463.886 1463.874 1463.811 1463.811 1463.83 1463.838 1463.785 1463.864 1463.948 1464.444 1464.638 1464.513 1464.396 1464.273 1464.157 1464.068 1463.986 1463.887 1463.81 1463.727 1463.638 1463.792 1463.869 1464.085 1464.31 
1481.188 1481.492 1481.812 1482.408 1482.697 1483.335 1483.834 1484.119 1484.354 1484.653 1485.279 1485.676 1486.134 1487.064 1487.577 1488.095 1487.126 1486.113 1485.245 1484.134 1479.938 1477.069 1472.835 1464.925 1463.411 1462.954 1462.241 1462.042 1462.062 1462.07 1462.103 1462.247 1462.463 1463.208 1463.683 1464.298 1466.341 1467.393 1468.405 1469.466 1471.376 1472.095 1472.748 1473.57 1473.668 1473.579 1473.22 1471.777 1470.928 1469.742 1466.786 1465.222 1464.351 1464.069 1464.017 1464.023 1463.998 1463.932 1463.93 1463.951 1463.964 1464.015 1464.032 1464.21 1464.29 1464.394 1464.444 1464.638 1466.405 1466.14 1465.527 1465.205 1465.014 1464.521 1464.277 1464.249 1464.073 1463.893 1463.887 1463.883 1464.062 1464.385 
1481.513 1481.839 1482.189 1482.711 1483.029 1483.335 1483.834 1484.451 1484.74 1485.043 1485.65 1485.982 1486.43 1487.498 1488.055 1488.577 1488.144 1487.205 1486.588 1485.706 1481.602 1478.757 1475.388 1466.157 1463.741 1463.064 1462.345 1462.15 1462.16 1462.079 1462.378 1462.543 1462.897 1463.634 1464.117 1464.94 1465.979 1468.243 1469.427 1470.627 1472.658 1473.423 1474.053 1474.826 1475.002 1474.909 1474.311 1472.58 1471.548 1470.315 1467.395 1465.914 1464.89 1464.078 1464.067 1464.054 1463.989 1464.159 1464.241 1464.39 1464.587 1464.636 1464.735 1465.2 1465.595 1465.934 1466.318 1466.547 1466.405 1466.14 1467.707 1467.278 1466.894 1466.117 1465.72 1465.33 1464.755 1464.184 1464.106 1464.099 1464.186 1464.72 
1481.87 1482.196 1482.45 1483.05 1483.337 1483.623 1484.149 1484.451 1484.74 1485.128 1485.775 1486.159 1486.536 1487.485 1488.01 1488.461 1488.901 1488.88 1488.7 1487.754 1484.479 1481.618 1477.949 1468 1464.576 1463.291 1462.546 1462.246 1462.187 1462.239 1462.724 1463.146 1463.513 1464.218 1464.877 1465.744 1466.849 1469.284 1470.567 1471.843 1473.984 1474.684 1475.233 1475.781 1475.808 1475.652 1475.011 1473.219 1472.115 1470.971 1468.52 1467.192 1465.916 1464.668 1464.64 1464.74 1464.826 1465.176 1465.473 1465.8 1466.505 1466.743 1467.03 1467.703 1468.109 1468.543 1468.832 1468.922 1468.756 1468.479 1467.707 1467.278 1469.293 1468.112 1467.545 1466.922 1466.356 1465.095 1464.67 1464.568 1465.642 1466.574 
1482.213 1482.463 1482.833 1483.419 1483.63 1483.853 1484.138 1484.701 1484.847 1485.128 1485.832 1486.15 1486.536 1487.449 1487.907 1488.351 1488.679 1489.288 1489.419 1489.393 1488.491 1485.871 1480.375 1469.945 1465.496 1462.852 1462.266 1462.18 1462.181 1462.245 1463.194 1463.687 1464.115 1465.216 1465.919 1466.843 1467.895 1470.369 1471.731 1473.027 1475.256 1476.008 1476.395 1476.738 1476.663 1476.47 1475.947 1474.146 1473.038 1471.869 1469.969 1469.06 1467.985 1466.763 1466.695 1466.962 1467.145 1467.681 1468.081 1468.437 1469.188 1469.582 1470.059 1471.029 1471.486 1471.863 1472.124 1472.229 1471.992 1471.619 1470.593 1469.995 1469.293 1471.446 1469.709 1468.769 1468.084 1466.978 1466.509 1466.27 1467.628 1467.987 
1482.563 1482.891 1483.181 1483.723 1483.945 1484.173 1484.393 1484.884 1485.037 1485.254 1485.832 1486.15 1486.548 1487.403 1487.769 1488.155 1488.557 1489.182 1489.406 1489.578 1490.068 1488.074 1481.77 1470.86 1466.009 1463.001 1462.194 1462.186 1462.19 1462.33 1463.739 1464.384 1465.029 1466.341 1466.97 1467.925 1469.038 1471.534 1472.912 1474.207 1476.447 1477.057 1477.458 1477.886 1477.844 1477.464 1476.895 1474.984 1473.619 1472.832 1471.688 1471.148 1470.689 1470.196 1470.126 1470.084 1470.249 1470.792 1471.244 1471.651 1472.519 1472.983 1473.468 1474.08 1475.174 1475.465 1475.664 1475.584 1475.38 1474.971 1473.852 1473.041 1472.213 1471.446 1469.709 1471.336 1470.518 1469.5 1469.135 1468.964 1469.19 1469.265 
1482.906 1483.279 1483.636 1484.039 1484.286 1484.489 1484.7 1485 1485.161 1485.369 1485.85 1486.175 1486.548 1487.403 1487.574 1487.976 1488.445 1489.112 1489.42 1489.667 1489.16 1486.054 1481.312 1471.135 1466.297 1463.159 1462.238 1462.185 1462.182 1462.259 1463.581 1464.574 1465.641 1467.262 1467.979 1468.924 1470.043 1472.512 1473.839 1475.134 1477.246 1477.953 1478.43 1478.62 1478.601 1478.146 1477.505 1475.423 1474.175 1473.687 1473.437 1473.304 1473.022 1472.97 1473.236 1473.228 1473.557 1474.135 1474.536 1475.084 1475.904 1476.262 1476.743 1477.372 1478.356 1478.603 1478.779 1478.621 1478.334 1477.978 1476.785 1475.907 1475.01 1474.109 1472.211 1471.336 1470.518 1471.69 1471.316 1471.055 1470.677 1470.489 
1483.346 1483.704 1484.11 1484.419 1484.662 1484.802 1484.923 1485.159 1485.315 1485.464 1485.924 1486.246 1486.566 1487.242 1487.574 1487.976 1488.354 1489.058 1489.42 1489.659 1488.369 1484.914 1480.838 1471.302 1466.525 1463.397 1462.292 1462.186 1462.171 1462.174 1463.275 1464.089 1464.867 1466.336 1468.355 1469.436 1470.706 1473.268 1474.524 1475.822 1477.837 1478.645 1479.136 1479.426 1479.258 1478.777 1477.919 1475.732 1474.912 1474.665 1474.942 1474.999 1474.923 1475.001 1475.416 1475.823 1476.434 1477.242 1477.687 1478.318 1479.199 1479.596 1480.085 1480.637 1481.559 1481.771 1481.89 1481.705 1481.462 1481 1479.472 1478.515 1477.499 1476.512 1474.529 1473.62 1472.842 1471.69 1471.316 1472.724 1472.059 1471.687 
1484.024 1484.4 1484.61 1484.864 1484.976 1485.073 1485.152 1485.201 1485.358 1485.467 1485.836 1486.145 1486.499 1487.071 1487.48 1487.891 1488.354 1489.023 1489.3 1489.467 1488.032 1484.456 1480.569 1476.362 1466.525 1463.359 1462.284 1462.185 1462.185 1462.188 1462.766 1463.452 1464.141 1465.551 1468.296 1469.795 1471.163 1473.845 1475.06 1476.295 1478.405 1479.102 1479.668 1480.119 1480.147 1479.619 1478.734 1476.284 1475.792 1475.763 1476.397 1476.717 1477.014 1477.36 1478.1 1478.73 1479.473 1480.611 1481.181 1481.793 1482.957 1483.434 1483.826 1484.224 1484.838 1484.98 1485.103 1485.087 1484.78 1484.221 1482.391 1481.276 1480.005 1478.828 1476.458 1475.572 1474.825 1473.502 1473.086 1472.724 1473.542 1472.689 
1484.841 1485.169 1485.327 1485.383 1485.341 1485.309 1485.323 1485.397 1485.487 1485.493 1485.854 1485.996 1486.204 1486.524 1487.315 1487.775 1488.241 1489.023 1489.3 1489.391 1488.251 1484.795 1480.77 1476.524 1466.955 1463.601 1462.322 1462.185 1462.185 1462.19 1462.575 1463.054 1463.817 1465.066 1468.407 1470.065 1471.588 1474.339 1475.596 1476.737 1478.77 1479.56 1480.28 1480.822 1480.99 1480.789 1480.079 1477.896 1477.555 1477.685 1478.664 1479.261 1479.905 1480.432 1481.594 1482.285 1483.063 1484.475 1485.092 1485.708 1486.755 1487.234 1487.757 1487.958 1488.184 1488.307 1488.401 1488.44 1488.091 1487.49 1486.71 1484.28 1482.788 1481.362 1478.519 1477.26 1476.236 1474.896 1474.516 1473.966 1473.542 1472.689 
1485.78 1486.03 1486.207 1486.129 1485.696 1485.573 1485.491 1485.411 1485.457 1485.485 1485.718 1485.895 1486.082 1486.433 1487.186 1487.595 1488.038 1488.866 1489.204 1489.391 1488.251 1485.703 1481.498 1477.343 1467.633 1463.942 1462.345 1462.19 1462.185 1462.185 1462.408 1462.99 1463.843 1465.177 1468.571 1470.314 1471.917 1474.783 1476.056 1477.262 1479.33 1480.17 1480.903 1481.574 1482.215 1482.229 1481.944 1481.155 1481.087 1481.215 1481.531 1482.758 1483.493 1484.185 1485.609 1486.325 1487.079 1488.357 1489 1489.594 1490.094 1490.903 1491.412 1491.543 1491.608 1491.621 1491.599 1491.359 1491 1490.417 1489.698 1487.215 1485.595 1483.98 1480.661 1479.193 1477.848 1475.817 1475.256 1474.798 1474.403 1473.625 
1486.891 1487.115 1487.083 1486.807 1486.082 1485.762 1485.584 1485.327 1485.365 1485.45 1485.551 1485.781 1486.004 1486.303 1487 1487.45 1487.85 1488.754 1489.107 1489.389 1488.669 1485.703 1481.498 1478.165 1469.142 1465.451 1462.972 1462.184 1462.185 1462.185 1462.356 1462.984 1464.079 1465.514 1468.947 1470.779 1472.455 1475.256 1476.599 1477.801 1478.883 1480.875 1481.81 1482.567 1483.544 1483.81 1483.955 1484.33 1484.45 1484.615 1485.09 1486.578 1487.283 1487.953 1489.29 1489.97 1490.686 1492.048 1492.74 1493.388 1493.984 1494.793 1495.082 1495.216 1495.139 1494.92 1494.739 1493.982 1493.438 1492.827 1491.954 1489.727 1488.238 1486.677 1483.117 1481.326 1479.689 1476.962 1476.055 1475.461 1475.047 1474.276 
1487.844 1488.03 1487.993 1487.799 1486.351 1485.896 1485.536 1485.211 1485.216 1485.264 1485.401 1485.555 1485.713 1485.982 1486.78 1487.172 1487.642 1488.549 1488.956 1489.355 1489.139 1486.755 1482.461 1478.165 1470.617 1466.702 1463.964 1462.166 1462.185 1462.178 1462.152 1463.31 1464.346 1465.93 1469.476 1471.227 1472.902 1475.864 1477.153 1478.436 1479.589 1481.757 1482.855 1483.69 1485.014 1485.533 1485.857 1486.349 1486.821 1487.399 1487.947 1489.619 1490.394 1491.089 1492.512 1493.304 1494.14 1495.743 1496.59 1497.427 1498.222 1498.903 1499.134 1499.164 1498.77 1498.153 1497.723 1496.583 1495.862 1495.063 1494.105 1491.739 1490.471 1489.125 1485.686 1483.679 1481.777 1478.434 1477.112 1476.127 1475.572 1474.752 
1488.616 1488.705 1488.73 1488.537 1486.454 1485.887 1485.501 1485.021 1484.946 1484.953 1485.031 1485.295 1485.485 1485.695 1486.577 1486.988 1487.423 1488.372 1488.851 1489.246 1489.488 1487.834 1483.566 1479.424 1470.617 1466.702 1465.14 1462.078 1462.185 1462.189 1462.311 1463.713 1464.912 1466.501 1470.076 1471.871 1473.47 1476.569 1477.901 1479.19 1480.476 1482.996 1484.008 1484.838 1486.179 1486.749 1487.236 1488.233 1488.928 1489.738 1490.577 1492.302 1493.122 1494.039 1495.755 1496.622 1497.51 1499.257 1500.174 1501.05 1501.731 1502.416 1502.546 1502.475 1501.784 1501.046 1500.485 1499.157 1498.223 1497.175 1496.127 1493.723 1492.342 1490.999 1488.079 1486.13 1483.99 1481.987 1478.479 1477.146 1476.238 1475.22 
1488.581 1488.417 1488.346 1488.17 1486.351 1485.662 1485.29 1484.68 1484.585 1484.603 1484.647 1484.842 1485.1 1485.396 1486.265 1486.727 1487.13 1488.112 1488.669 1489.121 1489.465 1488.562 1484.714 1480.275 1471.913 1468.128 1465.14 1462.078 1462.175 1462.196 1462.398 1464.141 1465.557 1467.164 1470.619 1472.461 1474.214 1477.367 1478.783 1480.161 1481.603 1484.16 1485.16 1485.986 1487.401 1487.997 1488.728 1490.447 1491.316 1492.184 1493.059 1495.054 1495.994 1496.953 1498.902 1499.878 1500.747 1502.552 1503.385 1504.199 1504.855 1505.441 1505.463 1505.305 1504.318 1503.72 1503.074 1502.422 1500.458 1499.295 1498.117 1495.637 1494.201 1492.762 1489.905 1488.269 1486.25 1484.095 1480.082 1478.472 1477.121 1475.666 
1487.837 1487.376 1487.212 1487.048 1485.893 1485.296 1484.87 1484.234 1484.176 1484.146 1484.14 1484.324 1484.593 1484.953 1485.792 1486.245 1486.746 1487.818 1488.429 1488.922 1489.291 1488.885 1485.641 1480.99 1472.776 1469.275 1466.383 1462.575 1462.175 1462.196 1462.515 1464.417 1465.994 1467.7 1471.295 1473.13 1474.873 1478.17 1479.821 1481.346 1482.868 1485.494 1486.431 1487.325 1488.929 1489.91 1490.859 1491.81 1493.851 1494.872 1495.892 1497.906 1498.835 1499.858 1501.823 1502.863 1503.865 1504.889 1506.649 1507.426 1508.044 1508.513 1508.404 1508.172 1507.008 1506.259 1505.446 1504.663 1502.561 1501.373 1500.125 1497.373 1495.966 1494.486 1491.412 1489.864 1488.131 1486.104 1481.819 1479.905 1478.412 1476.142 
1487.311 1486.526 1486.166 1485.905 1485.135 1484.708 1484.298 1483.735 1483.657 1483.589 1483.578 1483.821 1484.044 1484.384 1485.236 1485.684 1486.234 1487.369 1488.021 1488.668 1489.187 1489.217 1486.464 1481.373 1473.274 1470.126 1467.306 1463.005 1462.081 1462.18 1462.515 1464.637 1466.364 1468.222 1472.014 1473.9 1475.661 1477.426 1481.017 1482.845 1484.453 1486.846 1487.804 1488.779 1490.969 1492.029 1493.144 1494.247 1496.59 1497.682 1498.722 1500.771 1501.543 1502.577 1504.776 1505.871 1506.973 1508.084 1510.038 1510.878 1511.426 1511.833 1511.558 1511.11 1509.63 1508.709 1507.801 1506.799 1504.5 1503.273 1501.992 1499.086 1497.555 1496.04 1492.823 1491.259 1489.63 1487.924 1483.569 1481.423 1479.668 1476.769 
