ncols         40
nrows         40
xllcorner     467585
yllcorner     4330465
cellsize      10
NODATA_value  -9999
2942 2943 2944 2945 2946 2946 2946 2944 2942 2939 2935 2931 2927 2922 2918 2914 2910 2906 2902 2897 2893 2889 2886 2883 2879 2876 2872 2869 2865 2862 2859 2855 2851 2846 2841 2835 2830 2826 2821 2817 
2946 2948 2949 2950 2951 2952 2951 2950 2948 2944 2940 2935 2931 2926 2922 2917 2913 2909 2905 2901 2897 2893 2889 2886 2883 2880 2876 2873 2869 2866 2862 2859 2854 2849 2844 2838 2833 2829 2824 2820 
2951 2953 2954 2955 2955 2955 2955 2953 2952 2950 2944 2938 2934 2929 2925 2920 2916 2913 2909 2905 2901 2897 2893 2890 2886 2883 2880 2877 2873 2869 2866 2862 2858 2853 2847 2841 2836 2832 2827 2823 
2955 2956 2957 2958 2958 2958 2958 2956 2955 2953 2949 2942 2937 2932 2927 2923 2919 2916 2912 2909 2905 2901 2897 2894 2890 2886 2883 2880 2877 2873 2869 2865 2861 2856 2851 2845 2840 2835 2831 2827 
2959 2960 2961 2962 2962 2961 2960 2959 2957 2954 2951 2945 2939 2934 2929 2925 2921 2918 2915 2912 2909 2905 2902 2898 2893 2889 2886 2883 2880 2877 2873 2868 2864 2860 2856 2850 2844 2839 2835 2831 
2962 2964 2964 2965 2965 2964 2962 2960 2958 2955 2953 2948 2941 2935 2930 2926 2923 2920 2917 2915 2912 2908 2905 2902 2898 2893 2889 2886 2883 2880 2876 2872 2868 2864 2859 2855 2849 2844 2839 2835 
2966 2967 2968 2968 2967 2966 2964 2961 2959 2956 2953 2949 2942 2937 2932 2927 2924 2922 2919 2917 2914 2911 2908 2905 2902 2898 2893 2889 2886 2883 2880 2876 2872 2867 2863 2859 2854 2849 2844 2840 
2970 2971 2971 2971 2970 2968 2965 2962 2959 2956 2953 2950 2943 2938 2933 2929 2925 2923 2920 2918 2915 2913 2910 2907 2905 2902 2898 2893 2889 2886 2883 2879 2875 2871 2867 2862 2858 2855 2850 2844 
2973 2974 2975 2974 2972 2969 2965 2962 2959 2956 2953 2950 2944 2938 2934 2929 2925 2923 2921 2919 2917 2915 2912 2909 2907 2904 2902 2898 2893 2889 2886 2883 2879 2875 2870 2866 2862 2858 2855 2849 
2976 2977 2977 2976 2975 2971 2965 2962 2959 2956 2953 2951 2945 2939 2934 2930 2926 2924 2922 2919 2918 2916 2914 2911 2909 2906 2904 2902 2898 2894 2889 2886 2882 2879 2874 2870 2865 2862 2858 2853 
2978 2978 2978 2977 2976 2970 2965 2961 2959 2956 2953 2950 2944 2939 2934 2930 2926 2924 2922 2920 2918 2916 2915 2912 2910 2908 2905 2904 2902 2899 2894 2890 2886 2882 2878 2874 2869 2865 2861 2856 
2980 2979 2979 2977 2974 2968 2963 2960 2957 2955 2952 2949 2944 2939 2934 2930 2927 2924 2922 2920 2919 2917 2915 2913 2911 2909 2907 2905 2904 2902 2899 2894 2890 2886 2882 2878 2873 2868 2864 2860 
2978 2979 2977 2975 2971 2965 2961 2959 2956 2954 2951 2947 2943 2939 2934 2930 2927 2924 2922 2920 2919 2917 2915 2913 2912 2910 2908 2906 2905 2903 2902 2899 2894 2890 2886 2881 2877 2873 2868 2863 
2977 2976 2975 2971 2967 2962 2959 2957 2955 2952 2950 2946 2942 2938 2934 2930 2927 2924 2922 2920 2919 2917 2915 2913 2912 2910 2908 2907 2906 2904 2903 2902 2898 2894 2889 2885 2881 2877 2872 2867 
2976 2975 2972 2968 2964 2960 2958 2955 2953 2951 2948 2945 2941 2937 2934 2930 2927 2924 2922 2920 2918 2916 2915 2913 2912 2911 2909 2908 2906 2905 2904 2903 2902 2898 2893 2889 2885 2881 2876 2871 
2975 2972 2969 2965 2961 2959 2956 2953 2951 2949 2946 2943 2940 2937 2933 2930 2927 2924 2922 2920 2918 2916 2914 2913 2912 2911 2909 2908 2907 2906 2905 2904 2903 2902 2897 2893 2889 2885 2880 2876 
2973 2969 2966 2963 2960 2957 2954 2952 2949 2947 2944 2942 2939 2936 2933 2929 2927 2924 2922 2919 2917 2915 2914 2912 2911 2910 2909 2908 2907 2906 2905 2904 2904 2903 2901 2897 2893 2889 2885 2880 
2970 2966 2963 2960 2958 2955 2952 2950 2948 2945 2943 2940 2937 2935 2932 2929 2926 2924 2921 2919 2917 2915 2913 2912 2911 2910 2909 2909 2908 2907 2906 2905 2905 2904 2903 2900 2897 2893 2889 2884 
2967 2963 2961 2958 2956 2953 2951 2948 2946 2944 2941 2939 2936 2933 2931 2928 2926 2923 2921 2918 2916 2914 2913 2912 2911 2910 2909 2908 2908 2907 2906 2906 2905 2904 2903 2902 2900 2896 2893 2889 
2964 2961 2958 2956 2954 2951 2949 2946 2944 2942 2940 2937 2935 2932 2930 2927 2925 2923 2920 2918 2916 2914 2912 2911 2910 2909 2908 2908 2907 2906 2906 2906 2906 2905 2905 2903 2902 2900 2896 2892 
2961 2958 2956 2954 2952 2949 2947 2945 2942 2940 2938 2936 2933 2931 2929 2926 2924 2922 2919 2917 2915 2913 2912 2911 2910 2907 2906 2905 2906 2905 2905 2905 2906 2906 2905 2905 2904 2902 2899 2896 
2959 2956 2954 2952 2949 2947 2945 2943 2941 2938 2936 2934 2932 2929 2927 2925 2923 2921 2919 2917 2915 2913 2912 2911 2909 2906 2904 2904 2903 2903 2903 2903 2904 2905 2905 2905 2905 2904 2902 2898 
2957 2954 2952 2949 2947 2945 2943 2941 2939 2936 2934 2932 2930 2928 2926 2924 2922 2920 2918 2916 2914 2913 2911 2910 2908 2905 2903 2902 2902 2902 2902 2902 2902 2903 2904 2905 2905 2905 2903 2901 
2954 2951 2949 2946 2944 2942 2940 2938 2936 2934 2932 2930 2928 2926 2925 2923 2921 2919 2917 2915 2914 2912 2911 2910 2908 2905 2903 2901 2900 2900 2900 2900 2900 2901 2902 2903 2904 2904 2903 2902 
2952 2949 2946 2943 2941 2939 2938 2935 2933 2931 2929 2927 2926 2925 2924 2923 2920 2918 2917 2915 2913 2912 2911 2910 2909 2906 2903 2902 2900 2898 2898 2898 2897 2898 2899 2900 2901 2902 2902 2901 
2950 2946 2943 2940 2938 2936 2934 2932 2930 2928 2926 2925 2924 2924 2923 2921 2920 2918 2916 2915 2913 2912 2911 2912 2910 2908 2905 2903 2901 2899 2896 2894 2894 2895 2896 2897 2898 2899 2899 2899 
2948 2944 2940 2937 2935 2933 2931 2929 2927 2925 2924 2923 2922 2922 2922 2921 2919 2917 2916 2914 2914 2913 2913 2913 2912 2910 2907 2904 2902 2900 2895 2892 2890 2891 2892 2893 2894 2895 2896 2896 
2945 2942 2938 2935 2932 2929 2927 2925 2923 2922 2921 2920 2921 2921 2921 2920 2919 2918 2916 2915 2914 2915 2916 2916 2915 2912 2909 2906 2903 2900 2895 2891 2888 2888 2888 2889 2890 2891 2892 2893 
2943 2940 2936 2933 2929 2926 2924 2922 2920 2918 2917 2917 2918 2919 2919 2919 2919 2918 2917 2916 2916 2919 2920 2920 2918 2915 2912 2908 2904 2901 2896 2891 2888 2886 2885 2885 2886 2887 2889 2890 
2941 2938 2934 2931 2927 2924 2920 2918 2916 2914 2914 2914 2915 2917 2918 2918 2918 2918 2919 2920 2922 2923 2925 2925 2923 2919 2915 2911 2906 2902 2897 2892 2888 2885 2882 2881 2882 2884 2885 2886 
2939 2936 2933 2929 2926 2921 2917 2914 2912 2912 2911 2912 2914 2915 2916 2917 2917 2919 2921 2923 2925 2926 2928 2929 2928 2924 2918 2913 2909 2904 2899 2892 2887 2883 2878 2877 2878 2879 2881 2882 
2937 2934 2931 2928 2924 2919 2913 2911 2910 2909 2909 2910 2912 2914 2915 2916 2916 2918 2921 2923 2925 2927 2929 2931 2930 2928 2922 2916 2911 2905 2900 2893 2887 2882 2877 2875 2874 2875 2876 2878 
2935 2932 2929 2926 2922 2917 2913 2909 2906 2905 2906 2907 2909 2911 2913 2914 2914 2916 2919 2922 2926 2928 2930 2932 2931 2928 2923 2918 2912 2906 2900 2893 2888 2882 2877 2873 2869 2868 2870 2872 
2934 2930 2927 2924 2920 2916 2913 2908 2904 2902 2903 2904 2906 2908 2909 2911 2912 2914 2918 2922 2925 2928 2931 2932 2931 2928 2924 2919 2914 2906 2900 2894 2888 2883 2878 2872 2865 2863 2864 2866 
2933 2929 2926 2923 2920 2916 2912 2908 2903 2900 2900 2901 2902 2904 2906 2908 2910 2913 2916 2920 2924 2927 2930 2930 2929 2927 2923 2918 2913 2906 2900 2893 2888 2883 2878 2871 2865 2862 2861 2861 
2933 2929 2927 2924 2920 2916 2913 2909 2905 2900 2899 2899 2900 2901 2903 2906 2908 2911 2914 2919 2923 2926 2928 2928 2927 2925 2922 2917 2912 2905 2899 2893 2887 2883 2878 2872 2866 2861 2857 2855 
2932 2930 2928 2925 2922 2918 2916 2912 2907 2901 2898 2898 2898 2899 2901 2904 2907 2910 2913 2917 2920 2923 2925 2926 2925 2922 2919 2915 2909 2902 2898 2892 2887 2883 2878 2872 2866 2860 2855 2851 
2932 2930 2928 2927 2924 2921 2918 2915 2909 2903 2899 2896 2895 2897 2899 2902 2904 2907 2911 2914 2917 2919 2921 2921 2921 2919 2916 2911 2904 2899 2895 2891 2887 2882 2878 2872 2866 2859 2853 2849 
2932 2930 2929 2927 2925 2922 2919 2916 2911 2904 2899 2895 2893 2893 2896 2899 2901 2904 2907 2911 2915 2916 2917 2917 2917 2915 2912 2904 2900 2897 2894 2891 2886 2882 2877 2871 2865 2859 2853 2848 
2932 2930 2930 2928 2927 2924 2920 2917 2913 2906 2900 2894 2890 2890 2892 2895 2898 2900 2902 2905 2909 2912 2912 2913 2912 2910 2905 2900 2897 2895 2892 2890 2885 2880 2876 2870 2864 2857 2852 2846 
