ncols         166
nrows         64
xllcorner     428632.686854
yllcorner     3785945.30785
cellsize      4.20777894585
NODATA_value  -9999
896.6332 898.8813 900.8401 902.4871 903.8601 904.9416 905.7466 906.3668 906.8293 907.1973 907.464 907.6948 907.9178 908.1534 908.7245 909.353 910.3184 912.9467 916.2345 918.2605 921.1958 924.4938 928.4283 932.5654 935.2004 938.0159 940.7214 943.2179 945.4115 947.3715 948.9534 950.0086 950.4794 950.4714 950.0042 949.1695 947.9972 946.5057 944.7306 942.6769 940.3494 937.7699 935.1156 932.4573 929.8422 926.9736 923.8714 921.1364 918.5318 916.0681 913.906 911.8145 909.4056 906.9194 904.7541 903.0897 901.8245 900.3326 899.2804 898.7512 898.4066 897.9591 897.4453 897.003 897.0578 895.8256 894.3748 892.5358 890.2921 887.6908 884.7665 881.5232 877.9706 874.3315 870.8083 867.2983 863.7267 860.7739 857.7583 854.4945 851.2364 847.9302 844.5536 841.1679 837.9796 834.9992 832.2177 829.6269 827.1785 825.1072 822.8228 819.8729 818.4465 818.9307 820.0938 820.3154 821.1693 821.8989 822.3307 823.3019 825.0497 828.3317 830.4069 832.9161 835.5262 838.149 840.4077 842.589 845.0227 847.3537 849.5139 851.6827 853.7446 855.6617 857.4706 859.0399 860.4005 861.6844 862.9751 864.3452 865.8754 867.6077 869.5291 871.699 874.0813 876.4874 878.8188 881.0612 883.2712 885.5295 887.834 890.1769 892.5422 894.8401 896.9885 898.8647 900.2665 901.1646 901.6211 901.6808 901.3617 900.7196 899.8466 898.8671 897.8465 896.0908 895.2115 895.5858 896.3301 896.5428 896.5247 897.6229 899.9849 904.1184 906.9852 909.7028 912.3333 914.7128 916.7745 918.7689 920.796 922.9066 925.0142 927.0402 929.1287 931.1697
898.3519 900.7381 902.8566 904.6765 906.2488 907.5159 908.4753 909.2109 909.7375 910.0966 910.36 910.5214 910.4185 911.0031 911.4399 912.1364 912.8772 914.6582 917.537 920.4557 923.8988 927.0286 930.3568 933.6806 936.464 939.1479 941.7035 943.9664 945.9045 947.5839 948.8381 949.528 949.6483 949.3443 948.6288 947.6049 946.3056 944.7433 942.9466 940.9241 938.6545 936.1468 933.5652 930.9611 928.355 925.5791 922.4699 919.5333 916.8197 914.1799 912.5518 910.0334 907.5114 905.2264 903.162 901.301 899.8128 898.2486 896.7618 896.4521 896.0677 895.6688 895.3137 894.8959 894.4465 893.5151 892.2923 890.7033 888.6995 886.2845 883.4993 880.3514 876.8629 873.2745 869.8499 866.2707 862.2394 859.134 856.3578 853.1796 849.9134 846.5847 843.1581 839.7411 836.5484 833.5909 830.7275 827.7396 825.1917 823.3123 821.0563 819.0266 819.3 820.1674 820.7035 821.6645 822.2848 822.7666 823.778 825.9341 828.5405 831.2467 833.3444 835.5051 837.9001 840.6599 842.8714 845.2062 847.4803 849.6628 851.857 854.0497 856.1579 858.1663 860.079 861.7411 863.1761 864.5176 865.8342 867.1917 868.6866 870.3589 872.2056 874.2953 876.5954 878.9233 881.189 883.3766 885.5541 887.8088 890.1306 892.5054 894.912 897.2553 899.4639 901.4185 902.92 903.9257 904.4957 904.6604 904.4092 903.7949 902.8986 901.8575 900.1917 898.2746 897.0951 896.4844 896.5934 896.9838 897.5143 898.4997 900.5602 904.8268 907.6573 910.3138 912.9059 915.1902 917.0937 919.2075 921.1708 923.1192 925.1207 927.3266 929.4982 931.6448
900.0997 902.6133 904.8757 906.838 908.575 910.005 911.1115 911.9676 912.5697 912.9643 913.2333 913.3628 913.0883 913.4603 914.2757 914.5859 915.2191 917.288 920.2077 923.444 926.3832 929.289 932.1422 934.9357 937.6163 940.131 942.4829 944.49 946.1657 947.5534 948.4736 948.8116 948.6042 948.0181 947.0732 945.8785 944.4655 942.8417 941.0309 939.0436 936.84 934.4222 931.9401 929.4261 926.8663 924.2948 921.3582 918.207 915.3431 912.6186 910.2166 907.9515 905.788 903.3166 900.9817 899.2177 897.4881 896.0742 894.309 893.825 893.3377 892.8482 892.5691 892.1276 891.6293 890.9276 889.9277 888.5891 886.8353 884.6318 882.0281 879.0277 875.6697 872.217 868.3908 864.7734 861.2206 857.8329 854.6859 851.4697 848.0479 844.4867 840.9055 837.4921 834.3599 831.404 828.5098 825.6028 823.1623 821.2627 819.2806 818.3203 819.884 821.0068 821.7784 822.1021 822.7729 824.2724 826.9063 829.4224 831.796 833.8878 836.2057 838.0554 840.7386 843.1686 845.3257 847.5662 849.8152 851.9917 854.178 856.3777 858.522 860.6165 862.6375 864.4012 865.9348 867.3727 868.7546 870.1273 871.6021 873.2184 874.9885 876.989 879.1991 881.4349 883.621 885.7579 887.8971 890.1159 892.408 894.7641 897.1744 899.5448 901.8054 903.8286 905.4158 906.5174 907.1927 907.4475 907.2606 906.6891 905.8009 904.6822 903.0927 901.0536 899.5964 898.5119 897.8333 897.9773 898.8828 899.577 901.3367 905.5349 908.2177 910.756 913.2656 915.3588 916.9098 919.4067 921.3984 922.8215 924.4523 927.318 929.6786 931.9266
901.7581 904.3914 906.786 908.8732 910.7598 912.3459 913.6005 914.5869 915.2859 915.7333 916.0166 916.1224 915.7949 915.9956 916.6765 917.0861 918.0237 920.6559 922.918 925.3748 928.1476 930.4 933.6866 936.2482 938.7462 941.0707 943.1885 944.9219 946.3051 947.3572 947.902 947.8596 947.3065 946.4197 945.275 943.9245 942.3626 940.695 938.8832 936.9446 934.8244 932.5179 930.1674 927.7893 925.3487 922.8591 920.3065 917.22 914.0582 911.2486 908.5331 905.9764 903.5092 900.9204 898.498 896.9388 894.9091 893.3229 891.6807 890.4026 889.6602 889.4003 888.8762 889.3006 888.704 888.1003 887.3271 886.2415 884.755 882.7892 880.414 877.629 874.4566 870.7127 867.072 863.569 860.371 857.3336 854.0402 850.6855 846.8624 843.0881 839.3745 835.9837 832.8045 829.8541 827.0696 824.4971 822.2158 820.1966 818.489 817.9529 819.7149 821.9408 822.3006 822.2391 823.9796 827.185 830.2726 832.3311 834.2315 836.4179 838.704 840.8049 843.488 845.6386 847.7972 850.0045 852.1927 854.3307 856.5042 858.6945 860.8605 863.0316 865.1455 866.9989 868.6317 870.167 871.6199 873.0302 874.5161 876.1109 877.8378 879.7653 881.8709 883.98 886.0545 888.116 890.1941 892.351 894.5829 896.8973 899.2943 901.6746 903.9714 906.0474 907.7023 908.8973 909.6818 910.0239 909.9079 909.4001 908.5501 907.3801 906.0809 904.2859 902.6332 901.1667 899.7079 899.8163 900.131 900.4767 902.1508 906.1893 908.7803 911.1464 913.4875 915.6444 917.3044 918.5698 921.0284 922.7455 924.9465 927.3491 929.6048 931.9784
903.2808 906.0182 908.5313 910.7328 912.7631 914.5135 915.936 917.0801 917.9109 918.453 918.7952 918.9467 918.6958 918.7759 919.2009 919.6062 920.7123 923.2924 924.7906 926.8985 929.432 932.0516 935.3784 937.6506 939.9549 942.0589 943.9099 945.3416 946.3908 947.0609 947.188 946.7363 945.8152 944.6675 943.0853 941.4919 940.2177 938.464 936.6378 934.6754 932.639 930.4617 928.2736 926.0715 923.8025 921.436 919.0192 916.3317 913.5573 910.3104 907.2253 904.3492 901.5557 898.7834 895.9617 893.8768 892.072 890.4921 888.9056 887.4942 886.167 885.8218 884.9283 885.3697 885.4614 885.1898 884.525 883.6788 882.4873 880.8016 878.6982 876.18 873.2639 869.7794 866.218 862.9597 859.8163 857.114 854.1284 850.9115 847.0884 843.3287 839.9823 836.0966 832.8184 829.8746 827.1323 824.585 822.2993 820.2599 818.5242 817.894 819.2563 821.8733 822.5322 823.722 826.5894 830.1203 832.4662 834.4521 836.6328 838.8468 841.094 843.5237 845.7839 848.0143 850.1821 852.3868 854.5307 856.6287 858.7753 860.9464 863.131 865.3741 867.5659 869.4969 871.217 872.8342 874.3517 875.8166 877.3434 878.9526 880.6708 882.5415 884.5269 886.488 888.4335 890.4007 892.4075 894.491 896.6528 898.9263 901.3104 903.6955 906.0214 908.1354 909.8413 911.1255 912.0132 912.4301 912.3801 911.9379 911.1337 909.9764 908.592 907.1501 905.7223 903.6159 902.1112 901.5287 901.4866 901.8355 903.0836 905.7294 909.3923 911.5959 913.6665 915.678 917.2911 918.6091 920.4642 922.7346 924.9929 927.1528 928.8492 931.1183
904.7967 907.6341 910.2532 912.5638 914.7311 916.6545 918.2626 919.5874 920.5818 921.2589 921.6957 921.9698 922.0164 921.8175 922.2906 922.9392 923.5292 925.0272 926.9542 929.1624 931.217 933.7647 936.541 939.2339 941.212 943.0714 944.6301 945.7357 946.4236 946.6838 946.3804 945.6086 944.3519 942.7638 940.761 939.1282 937.4553 935.6442 933.9096 932.4673 930.5126 928.4461 926.3221 924.3101 922.2212 920.0194 917.6688 915.1985 912.6302 909.5706 906.4615 903.4043 900.4607 897.5787 894.4227 891.4537 889.2232 887.5606 885.9083 884.6281 883.188 882.713 881.8535 881.2128 882.0504 882.5027 881.6837 881.0173 880.0865 878.6949 876.8878 874.6728 872.0746 869.3069 865.9154 862.6014 859.7491 856.9406 854.0948 851.0967 847.7161 844.5643 841.4785 837.1373 833.9633 831.0269 828.196 825.5636 823.2835 821.0917 819.213 818.3442 819.2092 821.373 823.5208 826.2192 829.2271 831.946 834.102 836.4721 838.7418 840.9833 843.2438 845.6132 847.9427 850.1972 852.4052 854.6255 856.7488 858.8187 860.9406 863.102 865.3083 867.6096 869.8597 871.8558 873.6531 875.3467 876.9335 878.4579 880.0208 881.6376 883.34 885.1537 887.0389 888.8889 890.7316 892.6161 894.5502 896.5468 898.6303 900.8615 903.228 905.6165 907.9661 910.0981 911.8416 913.2077 914.1891 914.6841 914.7155 914.3589 913.6283 912.5245 911.1615 909.697 908.3425 907.0068 905.2755 903.8812 903.5665 903.5909 904.1691 905.9243 908.5719 911.1359 914.2137 915.7946 917.2118 918.4041 920.1677 922.6012 924.7557 926.8266 928.296 930.5263
906.2391 909.1729 911.9124 914.3554 916.6857 918.7952 920.5839 922.088 923.2683 924.1071 924.6617 925.0251 925.2814 925.4783 925.7547 926.0828 926.4737 927.393 929.4827 932.1526 933.6495 935.7156 938.2283 940.7899 942.5002 944.0894 945.3301 946.0981 946.424 946.2787 945.6389 944.1174 942.6362 940.7523 938.5513 936.7275 934.7948 932.975 931.2726 929.7603 928.1452 926.2368 924.7104 922.6791 920.6868 918.5632 916.2716 913.8342 911.1874 908.443 905.4824 902.3524 899.3959 896.554 893.097 890.1531 887.2705 885.0021 883.7926 881.9996 880.6243 879.9092 879.0871 878.2256 879.0471 879.7839 879.2552 878.4575 877.64 876.493 874.9791 873.0981 870.8406 868.4214 865.847 862.7472 860.12 857.3156 854.4299 851.4482 848.3019 845.6278 842.2527 838.4789 835.4708 832.5943 829.8013 827.0399 824.7315 822.4277 820.4078 819.5613 820.4708 822.8675 824.8459 828.6989 830.707 833.087 835.6011 838.071 840.3987 842.6869 844.9995 847.4321 849.825 852.1421 854.4038 856.649 858.7793 860.8445 862.9644 865.1378 867.3671 869.7065 871.9893 874.0453 875.9291 877.7126 879.3781 880.9575 882.5425 884.1528 885.8205 887.5755 889.3871 891.161 892.9406 894.7721 896.6442 898.5591 900.5741 902.7635 905.1025 907.4902 909.8643 912.0186 913.8164 915.2804 916.3669 916.9606 917.0963 916.8464 916.2104 915.1884 913.885 912.4452 911.0965 909.8572 908.2129 906.9238 906.5195 905.9163 905.8255 907.1536 909.4477 911.1708 913.5397 915.9794 917.758 919.2084 920.44 922.0092 924.4126 926.5212 928.523 930.8433
907.5613 910.6012 913.4619 916.0361 918.5305 920.8328 922.8089 924.5087 925.9059 926.9337 927.6235 928.086 928.4404 928.8329 929.1682 929.6512 930.1219 930.8411 932.1943 934.5204 936.5492 938.3754 940.443 942.3384 943.8726 945.1835 946.1153 946.5745 946.5741 946.088 944.7946 942.8907 941.0652 938.9781 936.7952 934.4374 932.234 930.4941 928.7353 926.843 925.1981 923.4584 922.2912 920.6789 918.8156 916.8945 914.8278 912.4164 909.8268 907.0426 904.1765 901.1846 898.2927 895.0444 891.3103 888.7161 886.0916 883.644 882.5147 880.5463 879.061 877.8655 876.7508 876.0137 876.0861 876.3117 876.6121 876.0636 875.3301 874.2895 873.0223 871.5027 869.5698 867.486 865.3398 863.1041 860.5989 857.9462 855.1517 852.2213 849.1761 845.925 842.6398 839.5427 836.5292 833.6927 831.0706 828.3236 825.908 823.8907 821.9064 821.4587 822.6884 823.9711 825.8378 829.4292 831.6882 834.1779 836.7532 839.2747 841.6497 843.9927 846.3683 848.8882 851.3735 853.7946 856.1464 858.4555 860.6329 862.7096 864.8349 867.0251 869.2858 871.6664 873.9802 876.1066 878.0941 879.9783 881.7312 883.3837 885.0131 886.6401 888.3006 890.0253 891.7711 893.4711 895.1898 896.9622 898.7725 900.6262 902.5945 904.7433 907.0345 909.3915 911.7627 913.9274 915.7847 917.3492 918.5411 919.2446 919.4993 919.372 918.8463 917.9272 916.7118 915.3401 914.0276 912.775 911.3774 910.4621 909.7315 908.5703 908.2256 909.5556 912.3586 912.4628 913.466 915.6147 917.4866 919.0715 920.717 921.6193 923.5558 925.5821 927.6835 930.2081
908.6779 911.8526 914.8439 917.5508 920.1902 922.6407 924.7853 926.6985 928.3452 929.6066 930.4645 931.068 931.5176 931.9023 932.3599 933.014 933.6836 934.5204 935.3476 937.1288 939.1854 940.9061 942.5544 944.0455 945.3843 946.439 947.0969 947.2839 946.9968 946.2125 944.3418 942.3503 940.1964 937.9474 935.4562 932.4984 930.1365 928.4329 926.6357 924.7112 922.6746 920.9039 919.4525 918.3635 916.8945 915.3097 913.5627 911.1436 908.667 906.0714 902.9608 899.8869 897.0173 893.3569 890.0974 887.4861 885.4066 883.5662 881.7252 880.2873 878.9475 877.6016 876.4257 875.0059 873.202 872.5284 872.7164 873.4161 873.2549 872.2404 871.1589 869.7229 868.2683 866.4787 864.6222 862.597 860.3436 857.869 855.1839 852.329 849.3384 846.2205 843.0071 839.9023 836.9578 834.1781 831.5459 829.2158 826.8871 824.87 823.2041 823.6006 824.9396 825.2662 826.5767 829.5399 832.5538 834.9149 837.5504 840.0989 842.5468 844.9993 847.4915 850.1309 852.7287 855.2818 857.7624 860.1752 862.4545 864.5728 866.7082 868.9217 871.2133 873.6339 875.9814 878.1843 880.2775 882.2567 884.0906 885.8108 887.4819 889.1303 890.7963 892.5067 894.1956 895.8285 897.4822 899.183 900.9348 902.756 904.7042 906.8198 909.0515 911.351 913.6871 915.8419 917.7473 919.3954 920.6833 921.5123 921.9113 921.9219 921.5148 920.7084 919.5916 918.3093 917.0236 915.713 914.6293 913.8007 912.7522 911.5731 911.3295 912.7447 914.338 914.327 914.4812 915.6213 916.9738 918.3059 919.8857 921.0958 923.5821 925.6737 926.875 929.0077
909.4892 912.7809 915.9258 918.8046 921.6012 924.1721 926.4666 928.5844 930.4808 932.0031 933.0611 933.845 934.4408 934.9262 935.4061 935.9796 936.7386 937.6777 938.6326 940.1154 941.5521 943.0762 944.5701 945.9058 947.0219 947.8463 948.2529 948.1912 947.6522 946.6026 944.5291 942.2948 939.9891 937.4487 934.595 931.5883 929.4518 927.6393 925.7934 923.7788 921.698 919.7104 918.1481 916.8766 915.5703 914.0289 912.1611 909.8824 907.342 904.72 901.0716 897.7531 895.0768 892.2104 889.9941 887.9736 886.4207 884.8011 883.1365 881.6323 880.0283 878.5114 877.4054 875.8909 872.3008 870.3145 869.1758 870.1443 871.2209 870.4553 869.3848 867.3378 866.8724 865.3541 863.7457 861.9745 859.9433 857.6364 855.0511 852.2605 849.3273 846.2642 843.116 840.0826 837.2027 834.4895 831.9341 829.6705 827.4741 825.7292 824.3349 824.6874 825.7364 826.8392 828.1563 828.8546 832.1942 835.8932 837.4503 840.2563 843.1611 845.7328 848.394 851.1683 853.8814 856.5563 859.1575 861.7035 864.1365 866.3625 868.5465 870.8068 873.1288 875.5724 877.946 880.223 882.413 884.4777 886.3868 888.1745 889.9017 891.5886 893.271 894.968 896.6068 898.1884 899.7862 901.4291 903.1355 904.9305 906.8567 908.9235 911.0826 913.3214 915.623 917.7743 919.7217 921.4269 922.7896 923.7446 924.296 924.446 924.1603 923.4731 922.4642 921.2937 920.0778 918.7651 917.8221 917.1144 916.5163 915.6571 915.1878 916.0014 916.0779 916.2119 916.2617 916.8167 917.6074 918.5375 919.537 921.3586 924.4528 926.5154 926.8311 928.4981
909.9837 913.3643 916.6526 919.7168 922.6866 925.4078 927.8856 930.2111 932.334 934.1071 935.3655 936.3517 937.1238 937.7419 938.3115 938.9361 939.6428 940.4624 941.5308 942.7364 944.0666 945.4064 946.7043 947.8379 948.7515 949.3568 949.527 949.2437 948.4903 947.2277 945.1413 942.9201 940.3916 937.5945 934.9424 932.4135 930.1682 928.1776 926.2022 924.1191 921.9982 919.9501 918.0037 916.5824 914.5092 912.5228 910.1632 908.0308 905.1502 901.9938 899.0076 896.3569 894.2584 892.7128 891.4166 889.9366 888.9257 887.1878 885.4835 883.8093 881.5993 879.9519 878.7906 876.4879 872.7975 870.2435 868.2786 867.6037 869.2943 869.0192 867.0989 865.2455 864.5494 864.2141 862.6885 861.1246 859.2836 857.1264 854.6328 851.893 848.9979 845.9726 842.881 839.9209 837.1212 834.5037 832.0667 829.8987 828.2027 826.608 825.1976 825.6808 826.6192 827.7885 829.2231 829.6432 831.1431 834.7097 837.3068 840.5252 843.4634 846.1599 849.0026 851.925 854.7817 857.5782 860.2792 862.9419 865.5144 867.8704 870.1503 872.5074 874.9178 877.4297 879.8536 882.1996 884.4658 886.5957 888.5698 890.4363 892.2421 893.9817 895.6887 897.3721 898.9719 900.5184 902.0734 903.6737 905.3322 907.0789 908.9522 910.9449 913.0287 915.2244 917.5103 919.6744 921.6597 923.4061 924.8361 925.9143 926.6188 926.9109 926.7563 926.1968 925.3049 924.2581 923.1591 921.9229 921.1489 920.6314 920.3134 919.8657 919.0471 919.0002 918.8912 918.8287 919.0156 919.3358 919.7956 920.2397 920.9239 922.7395 924.9534 926.5528 926.8976 928.545
910.2482 913.5586 916.9395 920.1416 923.2775 926.1906 928.9043 931.4712 933.8095 935.8213 937.2932 938.5027 939.4778 940.2583 940.946 941.6431 942.369 943.1827 944.1679 945.3209 946.5272 947.7249 948.8529 949.8066 950.5338 950.9346 950.8971 950.4207 949.48 948.0413 946.2255 944.0706 941.457 939.1187 936.4645 934.0549 931.7916 929.6441 927.536 925.4822 923.1719 921.1776 918.3686 916.8041 913.9369 911.2628 908.5593 905.9703 903.4667 900.9034 898.5809 896.7304 895.3265 894.5005 894.2105 892.96 891.1006 889.2947 887.4242 885.5547 882.9187 880.7821 879.2456 876.9188 873.8635 871.4714 869.0228 867.1711 866.6833 865.932 864.3871 863.0065 862.8676 862.7704 861.3707 859.9629 858.2753 856.2434 853.8343 851.1393 848.2689 845.2684 842.226 839.3387 836.6321 834.1393 831.8586 829.9688 828.6682 827.3555 825.6335 826.2906 827.6149 828.7285 830.0902 829.7621 831.0323 834.7216 837.3564 840.8007 843.6806 846.3773 849.3274 852.3369 855.316 858.2244 861.0331 863.8193 866.5456 869.0792 871.5045 874.0052 876.5567 879.1733 881.6581 884.0511 886.3644 888.5349 890.5674 892.5217 894.4106 896.203 897.9393 899.6227 901.2103 902.742 904.266 905.8226 907.4251 909.1166 910.9302 912.8556 914.8855 917.0545 919.3168 921.4817 923.4899 925.2784 926.7922 928.0044 928.8671 929.3054 929.2899 928.8625 928.0886 927.1607 926.1644 925.0049 924.5007 924.0498 923.4858 923.2377 922.6891 922.1368 922.058 922.1729 922.394 922.5685 922.8447 922.9536 923.0645 924.268 925.5615 926.5924 927.4016 928.9316
909.7528 913.5727 916.8293 920.0781 923.3707 926.4764 929.4277 932.2417 934.7896 937.0383 938.7675 940.2274 941.4359 942.4125 943.2457 944.0493 944.8364 945.6786 946.6473 947.7384 948.8464 949.9254 950.9067 951.7017 952.2554 952.4711 952.254 951.6108 950.517 948.9523 947.0042 944.8754 942.6681 940.482 937.9267 935.2548 933.0754 930.8741 928.624 926.9111 924.5155 921.5697 918.9669 916.7726 914.1136 911.2031 908.3995 905.7176 903.3646 901.3197 899.7757 898.9404 897.613 896.7893 895.9517 894.2599 892.5507 890.7551 888.8385 886.8203 884.546 882.1894 879.9381 877.6022 875.3348 872.7438 870.059 867.972 866.3096 864.4292 862.644 861.1871 860.7944 861.2477 859.7336 858.4434 856.8641 854.9353 852.6151 849.9736 847.1314 844.1555 841.1614 838.3736 835.905 833.6221 831.7297 829.6345 828.3442 826.7206 825.3997 826.3431 828.7877 829.7836 829.9665 829.6007 831.1323 834.4598 838.3486 840.9433 843.7087 846.5005 849.4814 852.5015 855.5633 858.5593 861.4479 864.423 867.2671 869.9146 872.5106 875.1821 877.909 880.6636 883.2235 885.6552 888.0021 890.2002 892.2877 894.3232 896.2847 898.1238 899.8873 901.5848 903.184 904.7198 906.2264 907.7443 909.304 910.9626 912.7444 914.6398 916.6431 918.7795 920.983 923.1106 925.1193 926.9536 928.5646 929.9161 930.9349 931.5228 931.6638 931.3899 930.7537 929.9517 929.1057 928.1143 927.5923 927.2662 926.8033 926.463 926.3777 925.7548 925.5367 925.4946 925.6678 925.6912 925.8319 925.7909 925.4787 926.1523 926.9628 927.5665 928.3612 929.6788
908.3842 913.1078 916.4077 919.8804 923.2347 926.5109 929.666 932.6927 935.4334 937.9052 939.8923 941.5919 943.028 944.2093 945.2094 946.158 947.044 947.9464 948.9274 949.975 950.9894 951.9432 952.7722 953.4021 953.778 953.8128 953.4277 952.644 951.442 949.801 947.8249 945.7065 943.5067 941.2966 939.0706 936.817 934.5851 932.3449 930.0369 927.7062 925.2258 922.7452 920.269 917.3444 914.493 912.2307 909.5807 906.9872 904.8005 903.4538 902.3421 901.817 900.2151 898.8407 897.4358 895.8348 894.1702 892.3512 890.3677 888.2156 885.8842 883.356 880.8167 878.3023 875.8992 873.4252 870.9991 868.7656 866.6452 864.5676 862.1653 860.1819 859.2401 858.528 857.986 856.5168 855.0179 853.1777 850.9632 848.4073 845.624 842.6943 839.8646 837.1511 834.198 832.0034 830.0894 828.4231 827.22 826.0353 825.5507 826.7822 829.5829 830.0707 830.1076 830.6029 832.0674 834.8326 838.5219 840.6534 843.8658 846.5433 849.4771 852.4707 855.577 858.6281 861.6243 864.2333 867.2858 870.4708 873.0634 875.8719 878.795 881.7128 884.3814 886.8731 889.2741 891.516 893.6599 895.7558 897.7619 899.6253 901.4011 903.1174 904.7435 906.3013 907.8152 909.3246 910.8734 912.5225 914.2938 916.1848 918.1657 920.252 922.3789 924.4446 926.431 928.2914 929.9774 931.4427 932.6011 933.358 933.7018 933.6416 933.2101 932.5818 931.9614 931.2594 930.6033 930.3779 930.0043 929.7313 929.52 929.3964 929.2012 929.015 928.8862 928.8586 928.7054 928.1819 928.0435 928.4553 928.7789 929.1103 929.6159 930.6571
907.8452 911.3545 915.3295 919.6153 923.0063 926.4022 929.7291 932.9333 935.8429 938.5109 940.7159 942.6306 944.2861 945.6934 946.8998 948.0372 949.0562 950.0394 951.0508 952.0687 952.9952 953.8187 954.4813 954.9287 955.1154 954.9639 954.4205 953.5162 952.2291 950.5406 948.5649 946.4802 944.3231 942.1621 940.0071 937.8248 935.6095 933.3662 931.0454 928.6108 926.0916 923.653 921.2902 918.6332 915.7968 913.5195 911.9617 909.3246 907.9263 906.4606 904.9003 903.5856 902.0857 900.6276 899.1297 897.5665 895.8583 893.9598 891.8618 889.5513 887.0169 884.3175 881.6326 878.9362 876.2449 873.6573 871.1326 868.6251 866.194 863.9213 861.557 859.0504 857.3724 855.759 855.4628 854.3716 852.8069 851.0247 848.915 846.4725 843.7839 840.9865 837.8651 834.8476 831.8961 829.5617 827.6087 826.6268 826.3166 826.6741 827.5883 828.57 830.2451 831.0806 832.0858 833.4182 835.2079 837.2589 838.6825 840.598 843.5064 846.6277 849.4655 852.3611 855.4393 858.4479 861.4777 863.7138 866.552 869.9207 873.0983 876.1683 879.277 882.35 885.1304 887.6822 890.1445 892.4319 894.6225 896.7477 898.7573 900.6135 902.3895 904.1271 905.7861 907.3746 908.9128 910.4515 912.034 913.7048 915.4877 917.3762 919.3181 921.3447 923.4065 925.4131 927.3568 929.202 930.9172 932.4542 933.7307 934.6819 935.2671 935.4772 935.332 934.9553 934.5021 934.0538 933.6379 933.2894 933.0331 932.8149 932.6267 932.4275 932.1927 931.97 931.8101 931.608 931.0537 930.8812 931.394 931.2343 930.8701 930.9 931.1061 932.241
908.6546 911.0961 913.676 918.5363 922.9266 926.2541 929.686 933.0018 936.0646 938.9408 941.3434 943.4647 945.2983 946.9702 948.4376 949.8098 951.0038 952.0987 953.1592 954.1635 955.0158 955.703 956.1756 956.4084 956.3716 956.0059 955.2829 954.233 952.8403 951.0931 949.1141 947.059 944.942 942.8351 940.7282 938.5862 936.4023 934.1733 931.8676 929.4458 926.9457 924.5189 922.1917 919.8771 917.5328 915.3658 913.6357 911.5683 910.0374 908.3903 906.7231 905.1646 903.7586 902.3262 900.8058 899.1522 897.3396 895.3213 893.0848 890.6089 887.8961 885.0341 882.1981 879.3648 876.5275 873.6979 870.8879 868.1028 865.371 862.7471 860.3547 857.9 855.4795 853.535 852.8878 852.0851 850.4206 848.6546 846.6221 844.2895 841.7366 838.8269 835.4786 832.4821 829.9559 827.5828 825.8524 825.429 826.3568 828.6694 830.3475 831.1586 831.7792 833.5323 834.8263 836.3072 838.0156 839.3907 840.34 841.2906 842.9592 846.2011 849.1467 851.9842 854.8939 857.929 861.0982 863.522 865.8139 868.671 872.8699 876.2593 879.5076 882.6864 885.5371 888.1234 890.6136 892.9025 895.1061 897.2267 899.2105 901.0492 902.8323 904.5936 906.2752 907.8867 909.4429 911.0342 912.6978 914.4433 916.2832 918.1746 920.074 922.0411 924.048 925.9963 927.8823 929.6838 931.4025 932.9875 934.368 935.5165 936.3317 936.8182 936.9965 936.9262 936.7212 936.4624 936.194 935.9793 935.8062 935.6445 935.4867 935.303 935.0826 934.8651 934.6911 934.4186 933.9345 933.9357 933.9658 933.7363 933.5585 933.0859 933.0804 933.1107
907.8763 911.0712 912.3808 915.9402 920.3398 924.7994 928.5004 932.6741 935.994 938.2043 940.9402 943.4671 946.2067 948.0592 949.8323 951.473 952.868 954.0962 955.2194 956.2081 956.9847 957.525 957.7897 957.785 957.4984 956.889 955.9493 954.7107 953.1743 951.3375 949.3322 947.2842 945.1798 943.1011 941.0302 938.9309 936.789 934.6013 932.3457 929.9713 927.5504 925.2089 922.9547 920.7845 918.72 916.733 914.786 913.0829 911.363 909.7456 908.1746 906.6997 905.2435 903.7239 902.0883 900.3091 898.3748 896.2432 893.8913 891.2849 888.4276 885.4336 882.4672 879.5129 876.5539 873.5797 870.6024 867.6272 864.6854 861.7101 858.9408 856.4469 853.9221 851.7898 850.6282 849.8134 848.0479 846.2554 844.2842 842.0524 839.636 836.8223 833.8362 831.2674 828.9205 826.726 825.5222 825.8989 827.7491 830.7614 832.05 833.2202 834.0096 835.6293 836.713 837.8192 838.8181 840.0715 841.8622 842.1393 843.3274 845.3948 848.4006 851.2668 854.0931 857.4282 860.7301 863.0615 865.5019 868.4794 872.7344 876.1754 879.4803 882.6826 885.5548 888.1648 890.6511 892.9076 895.0923 897.1802 899.1187 900.9321 902.7234 904.5036 906.2035 907.8497 909.4401 911.0978 912.8548 914.6918 916.5892 918.5004 920.3933 922.3276 924.2991 926.1844 927.9919 929.7363 931.4483 933.077 934.5721 935.9011 936.9281 937.6787 938.1755 938.436 938.5322 938.5505 938.513 938.4846 938.457 938.3994 938.3159 938.1906 938.0211 937.8359 937.6564 937.452 937.1808 936.9285 936.6204 936.2548 935.8718 935.4877 934.9517 934.5185
907.6249 910.196 912.1858 914.9288 919.579 924.3393 928.109 932.3696 935.7952 938.6563 940.7985 943.7712 946.9092 948.9075 950.9903 952.9091 954.541 955.9349 957.1434 958.1031 958.7817 959.1513 959.1868 958.9182 958.3542 957.475 956.294 954.8444 953.1375 951.1819 949.1171 947.0389 944.9201 942.8411 940.7841 938.715 936.6186 934.4916 932.315 930.0341 927.7382 925.5244 923.3954 921.3278 919.3482 917.4736 915.7052 914.0381 912.4365 910.8584 909.2697 907.7352 906.1826 904.5472 902.7941 900.9074 898.8796 896.6691 894.2388 891.5412 888.5764 885.4853 882.4147 879.3594 876.304 873.2286 870.1394 867.0356 863.9618 860.6309 857.4462 854.5121 852.1077 849.994 848.2404 847.1583 845.608 843.9557 842.0127 839.8953 837.6339 835.363 832.7545 830.4598 828.5666 826.9514 827.2534 828.4125 830.2533 832.018 833.3094 834.5828 835.8785 836.9627 838.0634 839.1192 840.0972 841.197 842.6226 842.8181 843.816 845.713 848.1556 850.9223 854.0099 857.5758 860.2457 862.6396 865.1224 868.1437 872.336 875.8054 879.2375 882.41 885.2515 887.8503 890.2979 892.5081 894.6474 896.674 898.5417 900.3087 902.0919 903.8726 905.5894 907.2988 908.9572 910.7085 912.5748 914.491 916.4312 918.3658 920.2773 922.1942 924.132 925.9431 927.6508 929.3245 931.0245 932.698 934.3 935.8002 937.0477 938.0813 938.9201 939.549 939.9873 940.3314 940.5811 940.7896 940.9517 941.0397 941.0737 941.0544 940.9771 940.8488 940.6838 940.4865 940.2291 939.8599 939.4193 938.9063 938.3069 937.7964 936.8896 936.1614
908.5789 910.8214 913.2625 915.6072 919.9787 924.9841 928.0507 932.1483 935.6201 938.8596 941.3481 943.6792 946.9064 949.7329 951.9062 954.1234 956.018 957.6104 958.9124 959.808 960.3525 960.5142 960.287 959.7225 958.8509 957.6777 956.2388 954.5651 952.6686 950.5682 948.4104 946.2665 944.114 942.0173 939.9604 937.9138 935.8646 933.8047 931.7161 929.5496 927.398 925.3332 923.3416 921.4063 919.5486 917.7804 916.1014 914.4972 912.9228 911.3337 909.704 908.0988 906.457 904.7328 902.901 900.9462 898.8539 896.5867 894.0961 891.3307 888.2915 885.1421 882.0073 878.8919 875.7831 872.6526 869.4985 866.313 863.1367 859.6309 856.0267 852.8671 850.1412 847.884 845.9872 844.2693 843.0555 841.6157 839.7249 837.7379 835.6741 833.6398 831.3093 829.3846 828.1146 827.7624 829.8829 831.4852 832.2217 833.3813 834.757 836.0891 837.3168 838.4475 839.5127 840.4989 841.3356 842.2233 843.4833 843.6202 844.5435 846.2354 848.5212 851.0349 853.9111 857.2845 859.8718 862.2337 864.749 867.924 871.2042 874.5527 878.8602 881.9531 884.7234 887.271 889.6291 891.7512 893.8002 895.7209 897.4849 899.1791 900.9232 902.6666 904.3839 906.2109 908.0671 909.9083 911.8682 913.8846 915.86 917.8106 919.7401 921.6257 923.5146 925.2444 926.8596 928.4774 930.1685 931.8582 933.5219 935.1501 936.6158 937.9605 939.1642 940.1771 940.9649 941.6591 942.2341 942.7195 943.1161 943.4008 943.6019 943.7367 943.7939 943.7557 943.64 943.4547 943.1766 942.7891 942.2949 941.6721 940.9185 940.2474 939.0557 937.9548
910.4177 912.6002 915.3821 917.2632 921.1546 925.5377 928.599 932.0893 935.5964 938.8569 941.6981 943.5723 946.5691 949.9919 952.869 955.2249 957.3262 959.084 960.4572 961.2578 961.6442 961.5755 961.0695 960.1987 959.0106 957.5364 955.8281 953.9154 951.8076 949.5315 947.2466 945.0242 942.8771 940.7435 938.6826 936.5929 934.5471 932.5455 930.5329 928.4749 926.4648 924.5482 922.6964 920.8912 919.1413 917.4519 915.8264 914.2504 912.6804 911.0738 909.4147 907.7655 906.0667 904.2907 902.4167 900.4224 898.286 895.9753 893.438 890.6272 887.5557 884.4042 881.2701 878.1599 875.0595 871.932 868.7687 865.553 862.3164 858.6901 855.0318 851.7227 848.8022 846.2243 844.1901 842.5505 840.9356 839.1958 837.3813 835.4836 833.5545 831.713 829.8237 828.2107 827.6234 828.4908 830.5349 832.0313 833.2506 834.7153 836.2066 837.5732 838.7964 839.8955 840.9003 841.8439 842.3314 842.7027 844.253 844.4649 845.3131 847.1909 850.0511 851.4823 854.0572 857.0034 858.9345 861.5723 865.1714 867.8694 870.7483 874.8255 878.3418 881.4108 884.0034 886.4548 888.6573 890.6232 892.5228 894.2993 895.9378 897.6985 899.34 901.0566 902.8108 904.4426 905.5245 908.2109 910.7786 912.6744 914.7368 916.753 918.7574 920.6353 922.4708 924.1252 925.6891 927.2778 928.9578 930.627 932.3015 934.0068 935.647 937.4658 939.0302 940.3723 941.3145 942.4055 943.3306 944.1217 944.7855 945.3042 945.7151 946.053 946.3034 946.4192 946.4198 946.3106 946.0679 945.6837 945.1569 944.4547 943.6966 942.5475 941.1669 940.0533
913.4156 914.1778 916.7068 918.4439 922.3032 925.6179 928.457 932.0848 935.1084 938.2372 941.2298 943.4942 946.3409 950.2394 953.8505 956.1604 958.4147 960.2711 961.6837 962.3775 962.596 962.2904 961.5107 960.3475 958.8591 957.099 955.1292 952.9787 950.6506 948.1788 945.746 943.3435 940.8835 938.714 936.5677 934.6998 932.8039 930.8231 928.8297 926.8609 924.9727 923.1827 921.4501 919.7538 918.0903 916.4591 914.8673 913.3065 911.7396 910.1257 908.4584 906.792 905.0628 903.2562 901.3621 899.3544 897.2036 894.8821 892.3353 889.5204 886.4666 883.3698 880.2978 877.2549 874.2209 871.1499 868.0269 864.8261 861.5679 857.8693 854.3858 850.9799 847.8265 844.6943 842.6467 841.3291 839.7692 837.5421 835.398 833.4713 831.6876 829.7576 828.3629 827.6816 827.9431 829.3602 831.4675 833.0316 834.4647 836.0774 837.6188 839.0181 840.2573 841.2501 841.5291 842.2328 843.1495 843.8026 844.5045 844.968 847.1864 847.9407 850.6667 852.4836 854.378 857.0621 858.8968 861.4666 865.077 868.1513 871.1069 874.4794 877.6719 880.0259 883.0793 885.3004 887.3374 889.1512 890.8978 892.5154 894.1296 895.0558 897.5452 899.2245 900.889 902.71 904.0538 905.6246 908.5305 911.0574 913.1051 915.1871 917.2709 919.1274 920.8727 922.4422 923.9671 925.552 927.231 928.9091 930.6136 932.3951 934.273 935.4594 937.2832 939.0778 941.238 942.5435 943.8065 944.9058 945.8599 946.6594 947.3436 947.9522 948.4612 948.7919 948.9639 948.9786 948.8069 948.4487 947.9149 947.2294 946.1055 944.774 943.473 942.4987
916.1377 915.457 917.062 919.3386 922.4474 925.0797 928.5503 932.4292 934.6427 937.5766 940.6112 943.4249 946.4947 950.2914 954.2168 956.9612 959.2784 961.1606 962.562 963.1451 963.193 962.6484 961.6117 960.181 958.4246 956.4131 954.2115 951.8679 949.3398 946.6833 944.1049 941.4568 938.4899 936.2308 933.9216 932.2952 930.5508 928.5488 926.7847 924.8881 923.0528 921.3465 919.6907 918.0661 916.4628 914.8776 913.3181 911.7794 910.2276 908.6168 906.9553 905.2933 903.5626 901.751 899.8594 897.8616 895.721 893.4218 890.9124 888.1494 885.1714 882.1801 879.2142 876.2735 873.3335 870.3439 867.2872 864.1317 860.8824 857.1735 853.6026 849.8655 846.307 843.1929 840.6531 839.5262 838.2839 836.3689 833.765 831.7008 830.0367 828.8198 827.4908 827.9178 829.2067 830.6358 832.6159 834.3482 836.0093 837.0981 839.038 840.5027 841.7713 842.1971 842.6276 843.4022 844.5966 845.7727 845.7271 846.0443 847.348 848.8721 851.4692 852.5414 854.812 857.3392 859.0808 861.6602 864.3838 867.8073 870.921 873.9025 876.8978 878.9565 881.9265 883.9413 885.8434 887.5696 889.171 890.594 892.3267 892.9608 894.6177 896.4106 898.4887 900.9438 902.4283 902.9653 906.0836 909.0829 911.0934 913.1904 915.2979 917.1005 918.76 920.3067 921.753 923.3499 925.0305 926.7469 928.5074 930.3765 932.5457 933.3107 935.2931 937.5868 940.7963 942.2444 943.7392 945.1453 946.4031 947.5235 948.5219 949.4301 950.2189 950.7863 951.1558 951.328 951.2725 950.9904 950.5018 949.858 948.6444 947.347 946.275 945.3838
918.4489 917.8797 918.0198 920.3207 922.4081 924.9665 929.6835 932.7729 934.9281 937.8281 940.7717 943.9493 947.0345 950.1263 954.3141 957.693 959.9952 961.8245 963.1459 963.6091 963.4884 962.7197 961.4568 959.7969 957.8227 955.6135 953.2412 950.6423 947.9224 945.0939 942.3754 939.6389 936.7046 934.2938 931.9533 929.8898 927.8792 925.833 924.4902 922.6274 920.9283 919.233 917.6083 916.0145 914.4423 912.8883 911.3514 909.8311 908.2953 906.6935 905.0507 903.417 901.7169 899.9328 898.0709 896.099 893.9831 891.7195 889.265 886.5794 883.7111 880.8569 878.03 875.2219 872.4023 869.5175 866.5486 863.4618 860.2531 856.4801 853.2227 849.3152 845.6678 842.0976 839.3047 837.4577 836.1846 834.2814 831.5743 829.5189 828.6475 827.4379 827.1945 828.8498 831.2241 831.6827 833.2836 834.9303 836.68 838.2638 840.759 842.2342 842.8871 843.504 844.1575 845.3555 846.6689 847.5424 847.2166 847.2939 848.0988 849.5939 851.5546 853.2635 856.0183 857.7563 859.3746 861.809 864.1739 867.706 870.744 873.5991 876.2366 878.1929 880.8972 882.6445 884.1553 885.5226 887.0498 888.5007 888.7618 889.3232 891.1681 893.0405 895.1816 897.6434 899.1641 900.2639 903.9675 906.9572 908.8312 910.869 912.9167 914.6483 916.1954 917.5575 919.3019 920.8804 922.5623 924.3242 926.1583 928.1769 930.1784 932.3026 934.4388 936.3423 939.063 941.1331 943.2328 944.8334 946.3887 947.8489 949.1669 950.3635 951.4233 952.2385 952.8408 953.2224 953.357 953.2424 952.8823 952.2841 951.5941 950.2543 949.2964 948.5261
920.968 921.0776 920.5275 921.3329 923.4428 926.4506 930.6766 933.0342 935.6647 938.5527 941.7845 945.2986 947.9562 951.3875 955.1409 958.2757 960.601 962.3214 963.5192 963.8541 963.567 962.6083 961.1617 959.3232 957.1902 954.8427 952.3775 949.3506 946.4205 943.4022 940.4473 937.5715 934.7104 932.2708 929.9465 927.983 925.9412 923.8652 921.8393 919.902 918.8431 917.0895 915.4645 913.8798 912.3155 910.7653 909.2241 907.6967 906.1545 904.5455 902.9108 901.2973 899.6244 897.8683 896.0388 894.0975 892.0106 889.7847 887.3839 884.7763 882.0239 879.3159 876.6452 873.9958 871.3281 868.5842 865.7379 862.7499 859.5771 856.1328 852.6425 849.0888 845.5918 841.4523 838.5071 836.1791 834.3205 832.1672 829.6636 827.7957 827.0001 826.6218 827.5004 829.7313 831.9949 833.0568 834.5215 836.2332 837.9858 839.8723 842.0294 843.6398 844.6803 845.7613 846.6259 847.7454 848.8459 849.0256 848.8427 848.9468 849.6309 850.6788 852.2095 854.2311 856.4225 858.1789 859.9542 862.7507 864.8834 867.5446 870.3196 872.9293 875.9406 877.3941 879.7829 881.7802 882.8116 882.9081 883.312 884.402 885.2062 886.4019 889.3293 890.701 893.5298 895.246 896.4641 897.8215 900.9064 904.3441 906.4861 908.3651 910.3309 912.0461 913.572 914.7087 916.9311 918.4691 920.2115 922.0127 923.9531 926.09 927.8072 930.8238 933.4195 934.7099 936.8344 939.512 942.2523 943.9863 945.8087 947.5921 949.2166 950.6899 952.0125 953.0877 953.9527 954.5805 954.9608 955.0936 954.9496 954.5554 953.9251 953.1318 952.1761 951.3386
922.8782 923.2654 923.4966 923.0956 925.1986 928.4677 931.7574 934.1052 936.8367 939.8857 943.1946 946.7895 949.5078 953.4202 956.1337 958.764 961.0824 962.6648 963.7207 963.9328 963.4843 962.3651 960.7796 958.8096 956.5704 954.1337 951.5862 948.4398 945.3884 942.2612 938.7797 935.4962 932.9772 930.7033 928.5776 926.6005 923.9233 921.6157 919.5296 917.5353 915.8326 914.4317 912.7104 911.4604 910.3529 908.6934 907.1146 905.5464 903.9332 902.2175 900.5554 898.924 897.2468 895.4959 893.6844 891.7744 889.7255 887.5533 885.2296 882.7211 880.098 877.5386 875.027 872.5425 870.0381 867.4515 864.7474 861.8816 858.8002 855.5087 851.9847 848.5656 845.2194 841.4458 838.2454 835.4865 833.2518 830.9435 828.6323 826.8646 826.0162 826.4183 828.3965 831.3035 832.7118 834.574 836.3232 838.1262 840.2089 842.2672 844.0834 846.1208 847.5107 848.6097 849.2558 850.099 851.0334 851.0967 851.0075 851.2214 851.7206 852.9836 854.2551 855.3611 857.0488 859.2241 860.8324 863.3845 865.5529 867.6642 870.1484 872.4937 875.2473 876.6865 878.2034 880.1223 881.1343 881.3007 881.1661 881.2374 882.7908 885.6027 888.6398 890.3462 892.7452 894.4081 895.2523 896.3903 897.8608 901.3292 904.1078 905.946 907.8395 909.5515 910.6863 911.5999 914.1332 915.7276 917.4561 919.5629 921.7272 924.3808 926.0403 928.4565 931.6205 933.4968 935.8158 938.2949 940.8017 942.7932 944.8481 946.9073 948.8056 950.5398 952.1082 953.4293 954.5382 955.394 956.0175 956.4227 956.5598 956.4567 956.1109 955.4749 954.6497 953.8631
924.8221 925.006 925.0674 925.5012 927.5406 930.028 932.5357 935.2486 938.2757 942.025 944.6423 947.16 950.9808 953.7786 956.5878 959.1854 961.3843 962.849 963.7665 963.8554 963.2581 962.006 960.3145 958.2477 955.9337 953.4358 950.8386 947.6161 943.9758 940.6107 937.3391 934.2563 931.514 928.9704 926.5093 924.1144 921.6779 919.2865 916.8947 914.7202 912.9002 911.292 909.6562 908.4117 907.2181 905.579 904.0374 902.4832 901.1759 900.0743 898.2791 896.4605 894.6868 892.9192 891.1024 889.2031 887.1789 885.0516 882.8066 880.4055 877.9158 875.4977 873.1358 870.8119 868.4718 866.0485 863.4963 860.768 857.8151 854.6249 851.2222 847.8667 844.7017 841.5676 838.3546 835.36 832.8807 830.7723 828.7188 827.0439 826.2895 827.1553 829.6588 832.8094 834.4962 836.7599 838.6934 840.9108 843.2662 844.9055 846.7745 849.0423 850.3881 851.3995 851.8826 852.675 853.5623 854.0916 854.0321 854.0687 854.3975 855.6992 856.3856 857.1086 858.5524 860.4186 861.9647 863.9783 866.2714 868.4683 870.6636 872.7588 874.8943 876.602 877.232 878.1918 879.6234 881.1568 882.0062 881.6295 881.424 884.1053 886.5256 889.158 890.3088 892.8724 893.9987 895.4918 897.0627 899.4446 901.7433 903.5451 905.4249 907.0518 907.2681 907.2794 910.5301 912.2428 913.8426 916.6373 919.0051 922.0134 924.1458 927.0851 930.119 932.5062 934.7354 937.0169 939.2307 941.3934 943.6203 945.8883 948.0232 950.0067 951.8105 953.3597 954.6923 955.768 956.6442 957.3484 957.808 958.0482 958.0433 957.6849 957.0442 956.35
926.4682 926.5071 927.3301 928.4219 930.3667 931.5881 933.7054 937.0256 939.8915 942.9395 945.6177 948.2125 951.76 954.4788 957.1052 959.5732 961.6323 962.9828 963.7521 963.6898 962.9196 961.5418 959.747 957.5956 955.225 952.6882 950.0667 946.7035 943.4575 940.1177 937.018 933.9691 930.8605 928.1542 925.4474 922.7596 920.2329 917.699 915.0986 912.726 910.7127 908.9069 907.1556 905.5029 903.9333 902.3039 900.6866 899.2169 897.9576 896.671 895.1312 893.9944 892.374 890.4137 888.5253 886.5988 884.5276 882.413 880.2142 877.8989 875.5311 873.2433 871.0208 868.8444 866.656 864.387 861.9841 859.4014 856.5974 853.563 850.3203 847.1235 844.1539 841.3782 838.1945 835.2184 833.4725 832.0511 829.7518 828.1009 827.8262 829.2111 831.9071 834.3901 837.0953 839.4412 841.4589 843.9928 846.2139 847.8416 849.4709 851.728 853.0927 854.2271 855.0426 855.852 856.5683 857.2396 857.425 857.4726 857.8152 858.2879 858.4763 859.352 860.3395 861.6876 863.463 865.6224 867.5857 869.4208 871.5131 873.3573 875.537 876.9884 877.7151 878.0897 879.6148 881.0909 882.1297 882.4124 882.2991 882.9075 884.0479 886.1022 888.2916 891.1345 892.8058 894.4916 896.7124 898.7935 899.7623 900.9434 902.571 903.9652 903.7959 903.4869 907.465 909.4125 911.1833 914.0552 916.3458 917.481 922.5086 925.9429 928.9892 931.2967 933.4732 935.7341 937.998 940.1546 942.425 944.7748 947.0372 949.1923 951.1794 952.9304 954.48 955.8147 956.9824 957.9834 958.8052 959.4154 959.7952 959.7809 959.3853 958.8449
928.6998 928.8074 929.4418 930.1487 931.3082 932.9146 935.0863 938.4916 941.2471 944.1132 946.7442 949.0081 951.8599 954.4262 957.4947 960.1089 961.9406 963.1337 963.698 963.4274 962.4576 960.9578 959.0659 956.8499 954.4503 951.901 949.2211 946.2471 943.2343 940.1759 937.2826 934.4828 931.7945 928.7051 925.5977 922.8793 920.2356 917.4033 914.6699 912.0434 909.8768 907.8674 905.9332 903.9188 902.0294 900.3061 898.5762 896.9407 895.361 893.6157 892.0668 890.9579 889.4751 887.7789 886.0742 883.9695 881.9326 879.7467 877.5461 875.2681 872.9774 870.7831 868.6734 866.6245 864.5715 862.446 860.1926 857.7654 855.1327 852.2874 849.256 846.295 843.4838 840.7955 838.2712 835.5488 833.9762 833.0677 831.3236 829.7678 830.246 833.0394 835.1423 837.0938 839.8689 841.9561 844.1652 846.6469 848.7544 850.957 852.5556 854.6297 856.0255 857.2668 858.368 859.1794 859.7546 860.1869 860.6027 860.997 861.3192 861.1664 861.3935 861.9584 862.8668 864.2366 865.7445 867.4904 869.1461 870.6274 872.6684 874.3024 875.751 877.2131 878.3734 878.7057 879.726 881.1049 881.8784 883.0016 883.7625 884.4361 884.9739 886.6927 886.9762 888.7712 891.6516 893.8036 894.6853 896.4064 898.3353 898.8182 899.2316 899.9199 899.1185 902.5988 904.9396 907.5958 909.2673 910.2827 913.0964 916.9214 920.1688 923.9502 928.3682 930.5776 932.057 933.3938 936.0875 938.226 940.4692 943.4399 945.879 948.1623 950.3502 952.2383 954.0156 955.0518 956.5283 958.4763 959.5076 960.5093 961.3116 961.7137 961.6482 961.322
931.5756 931.1604 931.4022 932.1877 933.1964 934.6658 936.6954 940.1867 942.8036 945.4391 947.9248 950.3672 953.0401 954.8335 958.0999 960.6663 962.2366 963.2211 963.5393 963.0366 961.8682 960.2476 958.2653 955.9998 953.5855 951.0354 948.341 945.5365 942.5682 939.6591 936.8858 934.2482 931.7714 929.0439 926.3261 923.7801 921.2203 918.5298 915.914 913.2844 910.1163 908.0869 906.0704 904.0643 902.1185 900.2524 898.3882 896.4837 894.5547 892.2571 890.0373 888.4579 887.2805 885.3281 882.757 881.0435 879.4238 877.2259 874.9197 872.6422 870.3351 868.2523 866.1921 864.1917 862.2462 860.2396 858.1276 855.8633 853.4275 850.8155 848.1244 845.5011 842.9496 840.2164 838.3483 836.1489 834.2643 833.5358 833.0763 831.9039 833.3707 836.7419 838.0744 840.1783 842.4901 844.5564 846.8347 849.2989 851.5237 853.6528 855.7728 857.5036 858.9767 860.257 861.3533 862.2053 862.8481 863.349 863.6664 863.9873 863.9682 864.1815 864.4659 865.0173 865.8711 867.3656 868.6775 869.7431 870.9812 872.3011 873.6346 875.0081 876.2885 877.5924 878.5309 878.834 879.9609 881.1309 882.4669 884.1832 885.6713 885.9988 886.9976 888.2548 887.756 888.3802 889.6754 891.3434 892.8286 893.9525 895.12 896.5516 898.1307 899.9053 903.5252 906.7028 903.6161 903.8417 909.9224 911.2492 914.7997 919.0071 921.2433 924.5671 927.6465 928.2297 929.9671 931.6976 934.526 937.1452 939.2145 942.381 944.8582 947.0953 948.53 950.9532 953.434 954.5004 955.3366 958.1817 960.1878 961.3425 962.5178 963.3683 963.723 963.72
934.9122 934.1191 934.1494 934.5919 935.3409 936.671 938.5045 941.6174 944.1075 947.0353 949.1991 951.5354 954.4846 956.4441 958.9402 961.0323 962.4062 963.1713 963.2189 962.4725 961.1161 959.3746 957.2985 954.9836 952.5439 949.9814 947.2891 944.4686 941.5311 938.6732 935.9678 933.3843 930.8859 928.5254 926.1867 923.7772 921.3234 918.8569 916.3771 913.9033 910.9373 908.8986 906.8971 904.9753 903.061 901.0986 899.0593 896.9296 894.7088 892.1301 889.4778 887.0039 885.4058 882.9817 879.8062 877.9429 876.2615 874.1451 872.1403 869.8706 867.8339 865.4803 863.5069 861.7568 859.8221 857.918 855.9138 853.8019 851.625 849.3307 846.7303 844.4923 842.186 839.7798 837.8907 836.6039 835.725 835.325 834.9145 834.2145 836.3688 838.5428 840.0938 842.1898 844.6697 847.1439 849.5727 851.9583 854.2204 856.369 858.4457 860.283 861.8234 863.1768 864.3238 865.2162 865.9053 866.4733 866.6437 866.8591 867.0942 867.6848 867.7088 868.5765 869.1185 869.7505 870.5313 871.4871 872.4995 873.5837 874.7601 875.9667 876.4903 877.2973 878.5147 879.6785 880.7832 882.0602 883.4664 885.7952 887.4399 888.1754 889.3534 890.2717 890.3248 890.4559 890.5789 891.2018 892.5964 893.43 894.5572 896.3954 898.9266 901.5107 903.9164 905.7938 904.0543 908.15 912.9282 912.7208 915.9937 919.731 921.8552 924.42 926.21 927.447 929.0071 930.5776 932.9523 935.6298 937.8137 940.2813 942.6801 945.5209 948.0699 949.9365 951.7727 953.4054 954.6863 957.1337 959.2592 961.8011 963.5387 964.8174 965.6251 966.0177
938.0478 937.4321 937.1887 937.1754 937.7383 938.9128 941.0277 943.073 945.475 948.0524 950.3345 952.3519 955.2165 957.6977 959.6307 961.347 962.485 962.9822 962.7144 961.6987 960.1485 958.2748 956.0954 953.7217 951.244 948.6621 945.9672 943.1723 940.2832 937.4954 934.8668 932.3549 929.93 927.5587 925.2087 922.8373 920.4261 917.9734 915.5104 913.1151 911.0447 908.9399 906.9545 904.9995 903.0453 901.0262 898.8508 896.5397 894.0903 891.5714 888.983 885.9255 883.3867 881.0872 878.4742 875.6276 873.2156 870.8304 869.0182 866.7733 865.1243 862.6266 861.0907 859.4528 857.4994 855.4972 853.6413 851.7882 849.7404 847.6796 845.0049 842.8816 840.6536 839.0452 838.1121 838.051 837.7429 837.4789 836.8862 836.5168 837.9302 840.4874 841.7098 843.7751 846.3915 849.0497 851.9932 854.5712 856.8019 858.9522 861.0388 862.9016 864.5162 865.9539 867.1589 868.1072 868.8572 869.4332 869.8313 870.114 870.3309 870.5189 870.7355 871.085 871.5025 871.9865 872.6115 873.4395 873.902 874.3544 875.1227 875.9818 876.925 878.0612 879.3763 880.8796 882.5753 883.6824 885.0148 887.4307 889.084 890.3791 891.6671 892.7555 893.2935 893.0845 893.3389 893.5901 893.8942 895.5961 897.1415 898.153 900.154 902.4645 904.5556 905.8001 906.8297 911.1624 913.6748 914.3488 917.6995 920.6511 922.8629 925.0503 926.9429 928.3116 929.4797 932.2768 934.5247 935.7104 937.5511 939.0103 941.0011 943.7063 946.7203 949.296 950.8586 952.642 954.6263 956.6603 959.5277 962.5244 964.6064 966.085 967.3179 968.1202
941.0633 940.569 940.1275 939.9656 940.4814 941.5374 943.6086 945.3036 947.2401 949.216 951.6805 953.9412 956.0832 958.5422 960.2422 961.6875 962.4961 962.6544 962.0321 960.7311 958.9777 956.9536 954.6668 952.2294 949.709 947.103 944.4003 941.6228 938.7668 936.0237 933.4451 930.9855 928.6116 926.2893 923.9908 921.6774 919.3276 916.9427 914.5428 912.1974 909.9951 907.9119 905.9081 903.9234 901.9197 899.8365 897.5906 895.1844 892.6243 889.9398 887.2938 884.7961 882.2775 879.8556 877.3087 874.3844 871.7913 868.8355 866.1321 863.8129 861.8954 860.1349 858.9761 856.8472 855.0172 852.8285 851.2665 849.8231 847.5698 845.518 843.6834 841.4609 839.6786 838.5122 838.6851 839.5316 839.4587 839.3383 838.7172 838.7682 839.5827 841.0384 843.5063 847.0051 849.3684 851.7679 854.5726 856.9651 859.223 861.3971 863.5048 865.4004 867.0986 868.6292 869.912 870.9441 871.7698 872.3943 872.8262 873.1223 873.3179 873.439 873.5907 873.8178 874.1398 874.3986 874.4385 874.7167 875.1771 875.6978 876.3014 877.1348 878.0869 879.3 881.0505 883.1819 884.7333 885.7162 887.0068 889.3727 891.0792 892.5623 893.8955 895.0073 895.8783 896.1908 896.5018 896.904 896.8367 897.9178 899.2411 900.3569 902.0616 904.0612 906.3162 908.522 910.953 912.7192 914.3566 917.265 920.2156 922.6538 924.5571 926.3782 928.4171 929.8081 931.1287 933.3949 935.5411 936.8119 937.8882 938.6026 940.2446 942.5708 945.3579 948.8165 950.6815 952.3022 954.4562 956.6277 960.5717 962.5964 964.6121 967.3812 968.761 969.9594
944.188 943.7752 943.5966 943.2352 943.5015 944.4169 946.4117 948.1353 949.7386 951.4605 953.2396 955.3572 957.1141 959.4047 960.9943 962.0317 962.4643 962.2374 961.2399 959.6447 957.6744 955.4818 953.1086 950.6009 948.0079 945.3569 942.6176 939.8218 936.96 934.2219 931.6534 929.2294 926.9242 924.6589 922.3923 920.1251 917.7925 915.467 913.1289 910.8481 908.6872 906.6297 904.6391 902.6558 900.6365 898.5226 896.2385 893.7827 891.1737 888.463 885.8133 883.222 880.7084 878.2482 875.8951 873.0139 870.3247 867.3491 864.2217 861.6658 859.3978 857.3613 855.4064 853.5646 851.7734 850.2272 848.8437 847.4587 845.4328 843.8992 842.5388 841.238 840.0792 839.4841 839.9978 840.703 840.6307 840.6447 840.9592 841.7921 841.6616 843.0942 845.9299 849.5323 851.843 854.3632 856.9166 859.3268 861.5912 863.8111 865.973 867.9479 869.7517 871.3839 872.7592 873.8819 874.7773 875.4379 875.8861 876.1836 876.3625 876.4532 876.552 876.7249 876.833 876.678 876.5533 876.6566 876.9792 877.6812 878.8928 879.164 880.1572 881.3687 882.9908 884.9158 886.1838 887.9347 889.7055 891.6312 893.3611 894.9432 896.331 897.4364 898.3682 899.1534 899.5902 899.9992 900.571 900.7883 901.6276 903.2968 904.9481 906.9068 908.9302 911.8681 913.7013 914.4766 916.9914 920.2288 922.5264 924.8165 926.7698 928.5585 930.259 931.4465 932.9314 934.1768 935.7255 937.5966 938.8013 939.3112 940.1674 942.2706 945.2202 948.0157 950.1774 952.0164 954.4682 957.4519 960.6276 962.2979 964.5295 967.7777 970.2537 971.5734
947.3216 947.0355 947.1263 946.5955 946.5817 947.7084 949.394 950.7582 952.3264 953.933 955.0555 956.2836 958.0441 960.2294 961.7725 962.3723 962.4071 961.7715 960.3934 958.5034 956.3136 953.9822 951.423 948.8367 946.2555 943.5299 940.7164 937.8582 934.9598 932.1879 929.616 927.1398 924.683 922.3499 920.1628 917.9441 915.8514 913.6121 911.3254 909.1033 906.9838 904.954 902.9832 901.0141 899.0021 896.8908 894.6189 892.1818 889.6104 886.9654 884.3238 881.8104 879.3621 877.0216 874.2882 871.3514 868.3301 865.5438 862.8936 860.3735 858.08 855.9598 853.9027 851.912 850.1203 848.2971 846.6563 844.879 843.8906 843.4493 842.4299 842.0191 842.0025 842.1544 841.8979 841.8741 841.9292 842.1735 842.7626 843.3711 844.522 846.3762 849.1846 851.7525 854.2676 856.8279 859.3486 861.7264 863.9892 866.2574 868.4872 870.5515 872.4601 874.1968 875.6638 876.8731 877.8376 878.5309 878.9935 879.2974 879.4694 879.5344 879.5899 879.7264 879.6374 879.1337 879.2049 879.366 879.5209 880.39 881.2279 881.629 882.5467 883.5044 885.1498 886.4482 888.144 890.2465 892.1995 894.0133 895.8124 897.5037 898.9652 900.136 901.1082 901.9118 902.452 903.1812 904.154 904.7318 905.3593 906.8585 908.4592 909.8734 912.0851 914.5082 915.8719 917.4457 920.2173 922.4884 924.6088 926.8337 929.0218 930.9355 932.2768 933.5014 935.0013 936.2792 937.2806 938.4518 939.8729 940.293 940.7556 942.4713 945.0685 947.1965 949.6083 952.0266 955.2429 958.9799 960.6382 963.4094 965.473 967.6837 971.0988 973.1125
950.3445 950.0733 950.0491 949.8282 949.906 951.0954 951.9633 953.0945 954.4059 955.8955 957.3074 958.2044 959.41 961.2902 962.4779 962.6865 962.3101 961.2878 959.5445 957.3834 955.0078 952.5052 949.5789 946.9733 944.4445 941.5624 938.7133 935.8397 932.9111 930.1884 927.6058 924.9001 921.7966 919.0337 916.9471 914.8228 913.5596 911.5267 909.2923 907.1346 905.0648 903.0684 901.1212 899.1729 897.176 895.0912 892.8707 890.5097 888.0475 885.4865 882.0663 879.5251 877.026 874.7787 872.439 869.3513 867.097 864.7693 862.5464 859.9674 857.8182 855.8339 853.4715 851.33 849.7619 846.7031 843.772 842.6719 843.2327 843.588 843.2204 843.1637 843.1288 843.0941 843.02 843.069 843.3782 843.8193 844.7452 844.7855 846.5885 848.7537 851.9056 854.1223 856.7341 859.3105 861.8439 864.2073 866.4942 868.8329 871.1352 873.2601 875.24 877.0533 878.5898 879.8711 880.9008 881.6291 882.1102 882.4206 882.5764 882.6066 882.6271 882.597 882.2751 882.2228 882.431 882.5106 882.3265 882.7088 883.0358 883.9634 884.7719 885.5399 887.1037 888.5914 890.6291 892.5363 894.4639 896.4186 898.3156 900.1091 901.6611 902.9264 904.0141 904.8682 905.5822 906.5234 907.3981 908.4222 909.296 910.3521 911.5308 913.0107 915.2873 917.0067 918.7273 920.6252 922.6586 924.6985 926.8308 928.9984 931.1283 932.9907 934.3752 936.0204 937.48 938.5752 939.4581 940.2146 940.7067 940.9575 941.8264 943.1776 944.9523 947.1856 949.6703 952.4968 956.3555 959.7427 961.6063 965.1425 966.6955 968.7205 971.0488 974.5602
953.2385 953.0344 952.9653 953.1056 953.3926 953.8216 954.5632 955.5388 956.6774 957.9264 959.3483 960.4147 960.9954 962.4163 963.1755 963.0192 962.2601 960.7476 958.7198 956.3457 953.8492 951.0079 947.8358 945.2236 942.3034 939.126 936.3395 933.6522 930.7449 928.4196 925.7648 923.0204 919.8802 916.833 914.2037 912.2725 910.6372 908.7627 906.5893 904.4865 902.4442 900.4221 898.3982 896.4146 894.2641 892.256 890.1312 887.892 885.213 882.3444 879.7578 877.3627 874.6125 872.4597 870.437 868.7729 867.1082 865.0799 862.4753 859.707 857.1077 854.6825 852.4031 849.9022 847.2515 844.3513 841.5855 840.833 842.6655 843.5532 843.4796 843.2037 843.4907 843.901 844.0068 844.425 844.6556 845.3376 845.696 846.2908 847.915 850.4264 853.6965 856.8084 859.3039 861.885 864.4135 866.7784 869.1097 871.511 873.8635 876.0283 878.049 879.9109 881.5014 882.8345 883.9011 884.6467 885.1356 885.4371 885.5661 885.5718 885.572 885.5157 885.3234 885.4473 885.4811 885.4669 885.0895 885.0287 885.2579 885.979 886.7322 887.6406 889.0487 890.9318 892.9512 894.7701 896.7709 898.7911 900.7682 902.6703 904.3253 905.6973 906.8964 907.957 908.9018 909.7383 910.5865 911.5154 912.6945 913.4596 914.6062 916.6085 918.2613 919.7723 921.4225 922.8282 924.7903 926.9439 929.009 931.1551 933.2966 935.2276 936.9575 938.4077 939.6287 940.6709 941.5418 942.3901 942.3083 942.7049 943.2985 944.3846 945.9517 947.949 950.4684 953.423 957.192 960.4276 963.1169 965.7382 968.6141 969.5244 972.1183 975.4044
955.9288 955.8236 955.817 955.8772 956.056 956.4666 957.0969 957.9412 958.9381 960.0222 961.1552 962.2425 963.179 963.7319 963.8358 963.3663 962.2903 959.7843 957.6639 955.1974 952.7024 950.0026 946.4487 943.3349 940.3954 937.3547 934.29 931.6467 928.6973 925.9802 923.3231 920.5064 917.4749 914.694 912.1584 910.438 908.595 906.467 904.2532 901.706 899.6416 897.8741 896.2239 894.1987 891.6667 889.2615 887.1931 885.0237 882.5797 880.1678 878.0486 875.9407 874.8228 873.1915 871.6356 869.7565 867.3541 864.7843 861.9207 859.0734 856.3545 853.846 851.3193 848.6346 845.6059 842.4774 840.2473 839.5981 841.1828 842.8428 843.1671 843.5709 844.3167 844.7553 845.2451 845.4893 845.6861 846.143 846.7872 848.5403 851.1714 852.5103 855.7671 859.5065 861.9099 864.4936 867.01 869.393 871.7701 874.1946 876.5699 878.76 880.8041 882.6943 884.3212 885.67 886.7228 887.4541 887.9362 888.231 888.3582 888.3836 888.4072 888.4611 888.5051 888.4156 888.2935 888.2632 887.8365 887.7114 887.8476 888.0975 888.7925 889.9739 891.1429 892.9224 894.8931 896.8962 899.0109 901.0895 903.1396 905.1412 906.8959 908.3795 909.7088 910.8913 911.9234 912.8748 913.8106 914.7867 915.9092 916.665 918.3893 919.8494 921.1406 922.5711 923.8932 925.2224 927.1155 929.0966 931.0992 933.2103 935.3314 937.264 938.9898 940.4742 941.7018 942.7043 943.5955 943.9756 944.1784 944.6015 945.191 946.1982 947.4011 949.2658 951.6769 954.6954 958.1568 961.1711 963.7662 966.3821 969.0549 970.3768 972.7449 975.2706
958.3768 958.3984 958.4673 958.5343 958.6652 958.9841 959.498 960.2103 961.0644 961.9875 962.9332 963.7829 964.4363 964.733 964.5347 963.7303 962.2839 960.1467 957.5605 954.4917 951.8106 948.8929 945.48 942.1884 939.4556 936.5353 932.8339 929.5266 926.4223 923.7148 921.1461 918.4101 915.5709 912.9544 910.5866 908.5594 905.8325 904.0343 901.7001 898.7475 896.6218 894.681 892.9639 890.9377 888.6019 886.4091 884.4 882.3479 880.4642 878.5477 877.1355 877.0299 876.379 874.2921 872.297 869.9167 867.1871 864.4153 861.4979 858.1302 854.7802 851.9415 849.2009 846.6362 844.2287 841.9127 840.3124 839.5928 840.3657 842.793 843.7678 844.443 845.1647 845.7538 846.0936 845.8733 846.368 847.1219 848.6611 851.7518 854.541 855.5302 858.9459 861.9604 864.4791 867.0768 869.5976 872.0191 874.4278 876.8445 879.2177 881.4025 883.4404 885.3224 886.9404 888.2501 889.248 889.9531 890.439 890.7632 890.939 891.0321 891.1302 891.2374 891.3047 891.3024 891.2274 891.1426 890.7533 890.5493 890.3065 890.4847 891.1152 892.4003 893.2177 894.936 896.732 899.0063 901.2029 903.3253 905.4411 907.5316 909.3839 910.985 912.4389 913.7469 914.8881 915.9315 916.9432 917.968 919.0634 920.3514 921.5743 922.7784 924.007 925.2364 926.4871 927.8644 929.4009 931.1456 933.0681 935.1317 937.2351 939.1952 940.9868 942.5145 943.7657 944.7861 945.6805 946.0857 946.2717 946.667 947.6075 949.0345 949.1529 951.2202 953.3809 956.722 959.2238 961.8806 964.4756 967.0033 969.5681 972.0396 974.2715 975.8672
960.5631 960.7358 960.9114 961.0262 961.1562 961.4221 961.8477 962.446 963.1617 963.9264 964.6901 965.3159 965.6987 965.6964 965.1718 964.0326 962.2817 959.9652 957.2385 954.3659 951.4506 948.1572 944.9553 941.9089 938.6374 935.4186 931.9249 928.3546 925.0924 922.3348 919.8098 917.172 914.5196 912.025 909.8044 907.0356 904.1501 901.988 899.8296 897.4662 895.3774 893.3426 891.7938 889.7786 887.1896 885.6966 884.0375 882.1795 879.8497 878.5584 878.7047 878.4797 876.7471 874.504 872.1724 869.6771 867.0399 863.7794 860.5117 856.9052 853.2776 850.0323 847.1639 844.8809 843.3192 843.4044 843.0729 841.6956 841.1719 842.9092 844.63 845.0616 845.7444 846.4982 846.4583 846.7531 847.5826 848.9158 851.6226 854.6728 856.5557 858.7682 862.0109 864.3713 866.999 869.607 872.1409 874.6033 877.0322 879.4283 881.7679 883.9047 885.8885 887.7074 889.2616 890.4948 891.4349 892.1342 892.6539 893.0429 893.2997 893.4861 893.6734 893.8605 894.0097 894.0798 894.04 893.8888 893.736 893.5585 892.9172 892.8276 893.3279 894.3936 895.4651 897.3221 899.0389 901.2154 903.3146 905.4899 907.6734 909.8494 911.7978 913.5127 915.0792 916.4954 917.7328 918.8605 919.9361 920.998 922.1031 923.2892 924.475 925.6057 926.7048 927.7792 928.8659 930.0797 931.4824 933.0997 934.9286 936.9458 939.0419 941.0358 942.8907 944.4801 945.7924 946.8652 947.738 948.5106 948.6772 948.9584 949.7023 950.9905 951.7908 952.4005 954.9319 957.4946 959.2307 962.4711 965.181 967.5804 970.0878 972.6461 974.8564 976.4406
962.7342 963.0685 963.3655 963.5382 963.6818 963.9127 964.2603 964.7325 965.2856 965.8669 966.4188 966.7913 966.881 966.5559 965.6937 964.2428 962.2404 959.7255 956.9268 954.1217 951.1396 947.768 944.6817 941.9438 938.8791 935.2987 932.224 928.8262 925.1417 922.3386 919.7584 917.1612 914.6534 912.6449 910.2651 907.3945 904.7819 902.4366 900.437 898.6009 896.979 894.9366 893.0437 891.1776 888.5803 886.7894 885.1506 883.9017 881.7829 881.2438 880.4538 878.8251 876.6269 874.5108 872.183 869.6522 867.0018 863.3066 859.883 856.4861 852.9592 849.5519 846.6212 844.5656 844.3641 845.1832 844.972 843.9215 842.6412 843.5784 844.8047 845.3498 846.3024 846.8708 847.1702 848.5715 849.7869 851.386 854.7352 856.9229 858.9604 861.6245 864.3226 866.8624 869.4465 872.033 874.5555 877.041 879.4843 881.8483 884.121 886.1749 888.0606 889.7672 891.2282 892.3853 893.2888 894.0049 894.574 895.0344 895.3827 895.6755 895.96 896.2341 896.4701 896.6157 896.6235 896.4905 896.2597 895.9716 895.7901 895.1415 895.4768 896.1249 897.5656 899.5272 901.2169 903.1641 905.3448 907.5586 909.7975 912.0362 914.0685 915.8884 917.5634 919.0831 920.4083 921.608 922.731 923.8196 924.93 926.0867 927.2128 928.2724 929.2744 930.2278 931.192 932.2806 933.5503 935.0519 936.8038 938.782 940.8664 942.8816 944.7868 946.4494 947.8539 949.0223 949.9739 950.7783 951.3689 951.4202 951.9707 953.0058 953.3466 954.2964 955.9276 958.4903 961.1471 962.8358 965.7648 968.2972 970.6934 973.1088 975.2413 976.8218
964.8524 965.3546 965.7753 966.0199 966.1971 966.4153 966.6936 967.0157 967.3665 967.7144 968.0023 968.0846 967.8674 967.2211 966.0403 964.3248 962.1248 959.4912 956.66 953.8597 950.8403 947.5063 944.6594 941.8015 939.6042 935.9907 932.8759 929.7115 926.4018 923.6157 921.0084 918.5037 916.0974 913.9971 911.592 909.1636 906.8115 904.5411 902.4282 900.5095 898.7982 897.1672 895.7781 893.2329 890.663 888.4759 887.3505 886.0283 884.2885 883.1525 880.9342 878.8997 876.8534 874.6151 872.19 869.5723 866.7945 863.4668 860.2478 857.025 853.655 850.1954 847.5731 845.5197 845.8633 845.4821 844.4647 844.3593 843.795 844.5905 844.7916 845.5118 846.3777 847.1719 848.3401 850.1221 852.1479 854.2432 856.8578 859.3203 861.8239 864.2491 866.7104 869.2343 871.7718 874.3088 876.7909 879.267 881.6975 884.0072 886.1862 888.1362 889.8964 891.4668 892.8225 893.9089 894.7859 895.5195 896.1311 896.6567 897.1025 897.5123 897.9069 898.2817 898.6129 898.8407 898.9147 898.8293 898.6196 898.3341 898.0809 897.4211 897.715 898.3613 899.4572 900.9893 902.8412 904.8129 907.2238 909.5223 911.802 914.0896 916.2056 918.1329 919.9247 921.5576 922.9886 924.2833 925.4756 926.6141 927.7451 928.8817 929.9609 930.9691 931.9036 932.7723 933.6447 934.6243 935.7692 937.15 938.8062 940.7201 942.762 944.7748 946.7092 948.4416 949.9504 951.2385 952.3095 953.1816 953.889 954.2935 954.7518 955.3113 955.3107 956.1975 957.2897 959.109 961.3227 962.9915 965.7761 967.9091 970.3851 972.863 975.0469 977.1806
966.8264 967.5345 968.0888 968.4137 968.6468 968.8606 969.0531 969.1926 969.3005 969.3672 969.345 969.1036 968.5643 967.6074 966.1484 964.2242 961.8786 959.1752 956.3476 953.5709 950.7376 947.8356 945.178 942.3627 940.0322 936.9413 933.8983 930.8778 928.0308 925.2947 922.7371 920.3367 918.0272 915.7006 913.4848 911.3203 909.1333 906.901 904.682 902.5848 900.4895 898.8886 897.6647 894.9724 892.5985 890.5642 889.3946 887.3977 885.3194 883.1329 881.1465 879.083 876.8834 874.5256 871.9984 869.294 866.3946 863.44 860.2774 857.1358 854.155 851.0941 848.926 846.9545 846.078 845.2803 844.502 844.1175 844.1852 844.2857 844.7881 845.3255 845.8895 847.5562 849.4337 851.1011 854.0807 856.6434 859.0145 861.569 864.049 866.481 868.9437 871.4136 873.9119 876.4021 878.8392 881.2696 883.6402 885.865 887.9296 889.756 891.3745 892.8044 894.0413 895.0494 895.9041 896.6564 897.3113 897.9032 898.4432 898.9604 899.4608 899.9352 900.366 900.6913 900.8601 900.8676 900.7417 900.5228 900.3087 899.5435 899.8941 900.5367 901.6203 903.0445 905.0581 907.1705 909.3132 911.5694 913.8849 916.2103 918.4095 920.45 922.355 924.0864 925.6124 926.9914 928.2485 929.4354 930.5798 931.6918 932.7253 933.6918 934.5794 935.3927 936.2012 937.0937 938.1325 939.4009 940.955 942.7839 944.7571 946.7402 948.6802 950.475 952.0854 953.4943 954.6914 955.6659 956.4302 957.0509 957.5176 957.9125 957.8875 958.1899 959.0261 960.2192 961.7369 963.5278 965.7159 967.8397 970.2515 972.9412 975.0682 977.4848
968.4279 969.4403 970.2105 970.6503 970.9478 971.153 971.2421 971.1777 971.0133 970.7566 970.3818 969.7847 968.9012 967.6317 965.9165 963.8114 961.3499 958.614 955.8225 953.0957 950.478 947.9503 945.3936 942.8257 940.0859 937.4335 934.6364 931.7258 928.9166 926.2631 923.7837 921.4503 919.2278 917.0674 914.9449 912.8246 910.6901 908.5353 906.3611 904.2685 902.2465 900.183 898.0495 896.1875 894.2366 892.1681 889.9216 887.7661 885.5601 883.3775 881.1824 878.9393 876.5861 874.1042 871.4896 868.7277 865.8071 862.766 859.6111 856.5068 853.6735 851.2971 849.2279 847.5641 846.0474 845.0526 844.3833 843.9505 843.8478 844.0962 844.4135 844.4395 845.6954 848.4818 850.4336 852.1719 855.4279 858.2159 860.8635 863.509 866.0048 868.4096 870.8312 873.27 875.7419 878.2052 880.6111 882.9893 885.2799 887.4096 889.3463 891.0269 892.4938 893.7821 894.9014 895.8487 896.6975 897.4748 898.1761 898.8293 899.4532 900.0727 900.6806 901.2598 901.7999 902.2392 902.5249 902.6625 902.6741 902.5809 902.4792 902.3358 901.9133 902.7119 903.7655 905.5005 907.512 909.3785 911.4644 913.6997 916.0276 918.3848 920.6675 922.8129 924.8112 926.6193 928.2197 929.6647 930.9772 932.2003 933.3458 934.4328 935.4296 936.3652 937.226 938.014 938.789 939.6242 940.5901 941.7757 943.2373 944.9749 946.8619 948.7914 950.7174 952.5624 954.2611 955.7773 957.0927 958.1699 959.0356 959.7074 960.218 960.5942 960.5018 960.6572 961.2122 962.1003 963.3012 964.7454 966.5549 968.5832 971.2486 973.5841 975.5672 977.6584
969.6638 971.0433 972.0928 972.6805 973.03 973.2112 973.1906 972.9283 972.4951 971.9066 971.1569 970.1803 968.9356 967.3482 965.3848 963.1045 960.5292 957.7645 955.0091 952.3478 949.7723 947.2705 944.8184 942.3413 939.8214 937.2045 934.4917 931.6866 928.9936 926.4379 924.0368 921.7698 919.597 917.4678 915.3558 913.237 911.0942 908.9214 906.7451 904.6459 902.6106 900.6175 898.6311 896.6151 894.5485 892.4139 890.2424 887.9788 885.608 883.2465 880.8594 878.4371 875.9367 873.3452 870.6696 867.886 864.9817 861.9851 858.9 855.8928 853.126 850.7029 848.6646 847.0551 845.1273 844.434 844.0563 843.6842 843.5474 843.6632 843.1752 843.2302 845.3669 848.7064 850.808 853.546 856.7216 859.4997 862.3328 865.0573 867.5867 869.9887 872.3945 874.8236 877.2933 879.7601 882.158 884.4903 886.7003 888.7222 890.5015 892.0084 893.3063 894.4459 895.4552 896.3531 897.1882 897.9691 898.6924 899.3812 900.0656 900.7678 901.4711 902.1505 902.8001 903.3558 903.7734 904.0725 904.2646 904.3539 904.4328 904.6407 904.8372 905.5972 906.6235 908.0847 909.7676 911.5685 913.6185 915.8325 918.1655 920.5591 922.9095 925.1195 927.1776 929.045 930.7104 932.2152 933.5788 934.8271 935.9611 937.0219 937.9908 938.9064 939.7617 940.5614 941.3441 942.159 943.0899 944.2193 945.5939 947.2374 949.0331 950.8969 952.7947 954.6733 956.4412 958.049 959.4742 960.6587 961.6246 962.3816 962.9428 963.3356 963.4191 963.4697 963.8307 964.4874 965.4459 966.6951 968.273 970.6668 972.6068 974.4789 976.313 978.0783
970.6588 972.4171 973.73 974.4545 974.8243 974.943 974.7911 974.3352 973.6517 972.7598 971.6616 970.3312 968.7525 966.8735 964.6838 962.2323 959.5331 956.7208 953.9982 951.3245 948.7903 946.3405 943.9578 941.5663 939.1392 936.6259 934.022 931.3364 928.7681 926.3142 923.9927 921.7853 919.6513 917.5439 915.4357 913.3065 911.1412 908.9359 906.7372 904.6151 902.5651 900.5634 898.5804 896.5696 894.4989 892.3385 890.1022 887.7277 885.2175 882.7047 880.159 877.5926 874.9783 872.3098 869.6021 866.8186 863.9504 861.0097 858.0106 855.1249 852.481 850.1448 848.2491 846.2236 844.1052 842.8278 842.647 843.421 843.3878 842.0099 841.0066 841.5009 844.5024 848.4294 851.2859 854.5214 857.4702 860.4527 863.4423 866.2532 868.8445 871.288 873.7126 876.1548 878.629 881.0921 883.4629 885.7162 887.8094 889.6801 891.2625 892.5743 893.6965 894.695 895.6058 896.4463 897.2392 897.9921 898.7096 899.4144 900.1433 900.9072 901.6868 902.4555 903.2103 903.8862 904.4472 904.9217 905.311 905.6187 905.9413 906.3818 907.0704 907.924 909.0319 910.3635 911.9319 913.7393 915.7507 917.9428 920.2758 922.6831 925.0491 927.2739 929.3616 931.2755 932.9942 934.5388 935.9299 937.1832 938.2955 939.3378 940.2988 941.2131 942.09 942.9451 943.7834 944.6255 945.5657 946.6679 947.9691 949.5236 951.2306 953.018 954.873 956.7608 958.5684 960.2421 961.7549 963.0403 964.1117 964.9743 965.6248 966.1091 966.5259 966.6967 966.9757 967.4242 968.2471 969.605 970.9271 973.3267 974.2913 975.7559 977.4007 979.0146
971.3879 973.5101 975.0449 975.8831 976.2485 976.2642 975.9481 975.289 974.3688 973.2101 971.8236 970.2107 968.3657 966.2501 963.8854 961.2747 958.455 955.5747 952.6917 950.2087 947.6647 945.2283 942.8437 940.4904 938.0842 935.6121 933.0704 930.4747 928.0082 925.647 923.402 921.2512 919.1508 917.0612 914.9508 912.7964 910.5864 908.3251 906.0931 903.9487 901.8914 899.889 897.9188 895.9294 893.8752 891.7193 889.4516 887.0027 884.4001 881.7882 879.1392 876.4786 873.7908 871.076 868.352 865.5736 862.7404 859.8519 856.9958 854.3047 851.9517 849.4945 846.6448 844.7531 843.3972 841.9138 840.3989 840.3952 840.5626 840.999 840.8827 840.6174 843.8129 849.0556 851.7197 854.9082 857.9391 861.0312 864.1285 867.0079 869.6638 872.1726 874.6379 877.1054 879.587 882.0285 884.35 886.5024 888.454 890.1521 891.5346 892.6547 893.606 894.4679 895.2751 896.0355 896.7585 897.4547 898.1378 898.8348 899.5806 900.3785 901.2145 902.0595 902.9128 903.7111 904.4184 905.0773 905.6814 906.2465 906.8821 907.642 908.55 909.6474 910.9222 912.3653 913.9918 915.7966 917.7958 919.9787 922.3145 924.7062 927.0392 929.2343 931.314 933.2426 934.9713 936.5073 937.8831 939.1113 940.1951 941.2314 942.2088 943.1469 944.0773 945.027 945.9614 946.8766 947.8741 948.9952 950.2646 951.7617 953.4 955.1139 956.9152 958.7814 960.5905 962.2897 963.8535 965.225 966.4056 967.4019 968.1882 968.7525 969.2728 969.9647 970.2229 970.4387 971.3519 972.8079 973.9791 975.049 976.4471 977.3499 978.8073 980.2482
972.0001 974.2321 975.9374 976.895 977.2614 977.1658 976.6738 975.8192 974.6895 973.3079 971.6937 969.863 967.8151 965.5355 962.9478 960.2039 957.2468 954.1906 950.9131 948.915 946.2852 943.8423 941.5404 939.1129 936.7348 934.2738 931.7332 929.1698 926.7555 924.4603 922.2794 920.1843 918.1273 916.0676 913.9651 911.7893 909.5304 907.2084 904.9401 902.778 900.7155 898.7115 896.7496 894.7731 892.7261 890.5693 888.2748 885.7723 883.1188 880.4592 877.7557 875.0396 872.3094 869.574 866.8412 864.1362 861.3936 858.644 855.1194 852.1153 848.6486 846.8523 845.1335 843.3956 842.1772 840.6279 839.4421 839.2492 840.1479 840.0663 841.0376 842.8958 844.1157 845.7687 850.6448 855.1798 858.1816 861.1743 864.2989 867.2324 869.9514 872.5349 875.0433 877.5297 880.004 882.4067 884.6741 886.7269 888.5472 890.0801 891.2775 892.2217 893.0104 893.7308 894.4196 895.0829 895.7239 896.356 896.9965 897.6688 898.4002 899.198 900.0596 900.9557 901.8847 902.787 903.634 904.4982 905.3726 906.2701 907.2954 908.4511 909.7043 911.0767 912.5545 914.0986 915.7604 917.5829 919.5897 921.7864 924.1389 926.507 928.7885 930.9186 932.9464 934.8427 936.5233 938.0024 939.3246 940.5002 941.5439 942.5687 943.5682 944.5472 945.5548 946.618 947.6688 948.6857 949.7761 950.9656 952.2633 953.759 955.3758 957.0509 958.8073 960.6388 962.4328 964.136 965.7365 967.1925 968.4799 969.6116 970.544 971.2366 971.8367 972.4771 972.8325 973.1313 974.2533 975.1396 976.0275 977.1796 977.9462 979.2535 980.4694 981.7803
972.7259 974.7292 976.4999 977.5439 977.9026 977.69 977.024 975.993 974.6875 973.1337 971.3482 969.3557 967.1648 964.814 961.8187 958.8839 955.6485 952.2177 949.2084 946.6622 943.9993 941.5717 939.9854 937.0744 935.0707 932.7787 930.2024 927.6397 925.2159 922.9541 920.8042 918.7347 916.6968 914.6503 912.5437 910.3312 908.0071 905.6064 903.2784 901.0679 898.9665 896.9271 894.9382 892.963 890.9299 888.7901 886.4984 883.9871 881.3403 878.6934 876.0031 873.2913 870.5658 867.8354 865.3051 862.3124 859.4834 856.7242 853.7059 849.4572 847.9866 845.1356 843.8168 841.8983 840.7932 839.8794 840.347 840.6667 841.2575 840.8606 842.0871 843.4324 843.4363 847.4317 851.3619 855.208 857.1767 860.8116 863.8922 866.8584 869.6393 872.3169 874.8783 877.376 879.8279 882.174 884.3688 886.3171 888.0166 889.394 890.4214 891.2044 891.8383 892.42 892.9927 893.5627 894.1359 894.7269 895.3453 896.0087 896.8702 897.6729 898.6053 899.5198 900.4554 901.371 902.2885 903.3475 904.6141 905.9642 907.3252 908.6675 910.2738 911.9312 913.6383 915.3247 917.0605 918.9357 920.9813 923.2153 925.587 927.9212 930.1427 932.1906 934.1285 935.9401 937.5228 938.9153 940.1642 941.2764 942.2776 943.2787 944.2934 945.3212 946.4119 947.5859 948.7578 949.8948 951.0989 952.3908 953.7614 955.3001 956.9417 958.621 960.3628 962.1834 963.9857 965.7117 967.3612 968.9096 970.3065 971.575 972.6626 973.5032 974.2176 974.8826 975.5217 976.1373 976.7401 977.4466 978.2936 979.3107 980.06 981.1892 982.3207 983.5917
973.2578 975.2704 976.9728 977.9687 978.2519 977.8798 977.0363 975.8395 974.386 972.7097 970.8209 968.7449 966.4922 964.0409 961.4235 958.0342 954.7108 951.3627 947.7928 944.8442 941.9739 939.4249 937.2011 934.7408 932.2671 930.3857 927.7974 925.1972 923.6063 921.2393 919.048 916.9069 914.8599 912.7914 910.6599 908.3988 906.06 903.5515 901.215 898.9427 896.7729 894.6412 892.6208 890.6368 888.622 886.5195 884.2747 881.821 879.2447 876.6635 874.0394 871.3788 868.7972 866.4408 863.5968 860.0107 857.0646 854.7817 852.3572 848.8417 847.0364 844.1257 843.2822 842.7899 842.6074 842.2994 843.0446 843.2618 843.4309 843.925 845.0168 845.103 845.9333 849.3047 851.4548 854.1285 856.0785 859.4185 862.9427 865.8917 868.7025 871.457 874.0823 876.6048 879.0507 881.3447 883.4484 885.2799 886.8493 888.0745 888.9525 889.597 890.1014 890.5771 891.0552 891.6385 892.2303 892.8209 893.5002 894.2588 894.5272 895.3663 896.0791 897.1218 898.3104 899.571 900.8068 902.0605 903.1233 904.2373 906.0581 908.3877 910.1863 912.1027 914.0496 915.934 917.8239 919.8251 921.9534 924.2256 926.596 928.8679 931.0118 932.9697 934.7799 936.4444 937.878 939.1553 940.3177 941.3716 942.3529 943.3471 944.3905 945.4841 946.6654 947.9484 949.2485 950.5239 951.8578 953.2711 954.7321 956.3269 958.0135 959.7241 961.4835 963.3256 965.1605 966.9228 968.6197 970.2582 971.7808 973.2108 974.4829 975.5002 976.3425 977.0839 977.7467 978.3612 978.9897 979.6947 980.533 981.0896 982.1141 983.203 984.3374 985.5945
973.6267 975.6378 977.2318 978.1423 978.3278 977.7759 976.7496 975.3858 973.7934 972.0131 970.0551 967.9379 965.6646 963.2053 960.5569 957.6254 953.8663 950.668 947.1838 943.8778 940.9533 938.2552 936.0106 933.2466 930.241 927.6842 925.1305 923.3773 921.0576 918.7085 916.8329 915.125 912.7912 910.6371 908.4536 906.1558 903.4057 901.1649 898.3593 896.0504 893.9763 892.0952 889.9318 888.0704 886.1563 884.1558 882.0188 879.6368 877.1907 874.7517 872.3176 869.9935 867.2833 864.314 861.0248 857.7312 855.0137 852.935 850.3769 848.2714 846.2238 844.6525 845.0082 846.2681 847.1464 846.5702 846.3347 846.1785 846.1092 846.6315 847.4728 847.5474 848.9883 849.8207 851.0287 852.7923 855.1639 857.8049 861.5883 864.4435 867.228 869.9902 872.64 875.1835 877.6371 879.908 881.9407 883.6801 885.1364 886.2408 887.0174 887.6019 888.1121 888.5645 889.1309 889.3436 889.7913 890.4512 891.0517 891.5914 891.3208 892.0569 892.496 893.6735 895.1904 897.2571 899.0247 900.4175 900.6735 901.0734 903.5731 907.9443 909.6882 911.7814 913.9056 915.9819 918.053 920.2287 922.4799 924.7928 927.1563 929.3534 931.4027 933.2534 934.8987 936.3673 937.6144 938.7474 939.8051 940.8017 941.7866 942.8077 943.9201 945.1068 946.3961 947.7979 949.2255 950.6353 952.0966 953.6359 955.2075 956.8845 958.6371 960.4045 962.1967 964.0576 965.9211 967.7194 969.4623 971.2027 972.8876 974.5114 975.9958 977.2159 978.2062 979.0471 979.7964 980.4764 981.2645 981.5176 982.2471 983.5626 984.6436 985.6988 986.5481 987.8597
973.3691 976.0977 977.34 978.1194 978.1693 977.4303 976.2134 974.6754 972.9457 971.0743 969.0671 966.933 964.6609 962.2165 959.579 956.7469 953.512 950.4424 947.2165 943.6736 940.8675 938.4423 936.1998 932.9608 929.5483 925.9191 922.9661 920.5789 917.9695 915.5884 913.6183 912.2188 910.7242 908.4861 906.1143 903.7368 900.8824 898.3873 895.6083 893.2907 891.0079 889.2967 887.791 885.3251 883.0775 880.911 878.9108 876.9469 874.715 872.4351 869.8787 867.2252 864.3663 861.1406 858.4983 855.8604 853.4253 851.145 849.2049 848.6152 848.4304 848.5846 849.3079 850.4504 850.998 850.255 849.6543 849.0076 848.6501 848.4396 848.6929 848.9031 849.8344 850.8295 851.2538 852.147 854.2583 856.9982 860.0919 862.8103 865.4727 868.1068 870.7205 873.2469 875.6941 877.9598 879.9573 881.6553 883.1234 884.1973 884.975 885.4855 885.7076 886.1635 886.6933 886.5953 886.7214 887.6284 887.8653 887.9465 888.5803 889.259 890.0921 891.1901 892.559 894.6832 896.293 897.6693 898.509 899.6512 902.2068 907.0522 909.0116 911.1429 913.3315 915.5239 917.7239 920.0474 922.4374 924.8307 927.2194 929.3643 931.3218 933.0512 934.52 935.7938 936.8644 937.8579 938.821 939.7824 940.8004 941.882 943.0941 944.3787 945.7681 947.2864 948.7991 950.3331 951.9139 953.5823 955.2818 957.0507 958.8651 960.6806 962.487 964.3475 966.2334 968.0916 969.9341 971.8336 973.7372 975.5931 977.304 978.7377 979.8879 980.8394 981.6976 982.5582 982.9163 983.4684 984.2947 985.8697 987.0052 988.124 988.9972 990.3234
972.9334 975.8561 977.4861 977.9735 977.8181 976.8759 975.4711 973.7667 971.9117 969.9628 967.9189 965.7797 963.5172 961.0906 958.4828 955.6675 952.7026 949.7212 946.7618 943.6974 940.9052 938.2743 935.7094 932.2828 928.8502 925.3036 921.7245 918.425 915.6453 913.0638 910.7592 908.9552 907.5275 906.2319 904.0211 901.4346 898.5238 895.7627 893.4974 890.6606 888.4137 886.1257 883.8164 881.3093 879.2478 877.1645 874.4987 872.7584 870.7969 868.6675 866.7057 864.4863 861.7721 859.0109 856.9645 854.7383 853.1662 851.8333 851.7829 852.7404 853.537 854.2816 854.1703 854.1784 853.8066 853.3436 852.8581 851.926 851.0782 850.582 850.261 850.2828 850.5155 851.096 851.1475 851.7372 853.6708 856.3643 858.383 860.8661 863.5455 866.2401 868.6737 871.1647 873.554 875.8083 877.8136 879.5651 880.776 881.893 882.7435 882.9705 882.5504 882.8876 882.9197 883.5956 883.9509 885.3335 885.6656 886.1926 887.1325 888.3425 889.5256 890.7062 891.8624 892.8402 893.4143 894.79 897.9341 900.1251 901.6164 905.3015 908.2699 910.3303 912.567 914.8083 917.0816 919.4795 921.9468 924.3887 926.7858 928.8811 930.7437 932.3472 933.6523 934.7618 935.7018 936.602 937.5165 938.4788 939.6594 940.7108 941.0715 942.9089 944.6484 946.0825 948.4016 949.8795 951.4244 953.2971 955.1433 956.9484 958.6877 960.5544 962.3785 964.2449 966.1586 968.093 970.0649 972.1526 974.3022 976.4114 978.3587 980.0195 981.3583 982.4592 983.4675 984.5045 984.7311 985.426 986.874 988.1578 989.3765 990.6428 991.8489 993.1614
974.8806 976.4794 977.5544 977.7653 977.3255 976.1393 974.5416 972.6824 970.716 968.6952 966.6161 964.4727 962.2226 959.8257 957.2662 954.5201 951.6053 948.7103 945.8845 943.1278 940.3443 937.5353 934.7584 931.7065 928.6192 925.5568 921.4601 918.0837 914.5632 911.8302 909.2643 906.8856 904.7482 903.4724 901.7617 899.5386 896.3965 893.6822 891.3897 888.5449 886.2355 883.0518 879.5519 877.4387 875.9203 874.2927 871.7546 869.8583 867.627 865.612 864.6661 863.7086 861.2184 858.9894 857.3403 857.0773 857.0623 857.405 857.8281 858.502 858.5515 858.5179 857.978 857.5388 857.0811 856.5181 855.8108 855.0651 853.7315 852.8788 852.0562 851.5633 851.3828 851.6464 851.491 851.5352 852.8403 855.1744 856.3853 858.2827 861.0081 864.3345 866.8362 869.1632 871.6347 873.8661 875.7215 877.5074 877.8724 878.9213 879.6981 879.7216 879.7861 880.1221 880.3398 880.7333 881.9268 883.5841 884.8849 885.9578 887.4008 888.9639 890.5078 891.9005 892.6028 893.4308 892.9793 894.0061 899.0814 901.1267 901.9899 903.2449 905.6224 908.7849 911.9916 913.9262 916.1888 918.616 921.1006 923.55 925.9306 927.9567 929.6924 931.1483 932.2922 933.3394 934.3022 935.2102 936.1757 937.3915 937.4431 938.7019 939.147 941.3723 942.9019 943.7646 945.8341 947.9832 950.9192 952.0959 953.8025 955.946 958.4617 960.1694 962.1743 964.0862 965.8699 967.7072 970.0338 972.3979 974.5406 976.9017 979.1104 981.0316 982.6036 983.9003 985.0792 986.1981 986.9836 987.893 989.2573 990.4824 991.8352 993.2526 994.6741 996.0768
975.6161 977.1476 977.529 977.4305 976.6835 975.2574 973.4632 971.4508 969.3682 967.2605 965.1258 962.9638 960.728 958.3757 955.8948 953.2451 950.4443 947.6591 944.9088 942.1639 939.4501 936.7461 934.0051 931.2765 928.3978 925.3775 921.6527 918.4695 914.847 911.608 908.9951 906.4435 904.0702 901.4124 899.3491 897.2437 894.1346 891.1755 888.3868 886.126 883.7923 880.8614 878.0518 875.9229 874.4843 873.2015 871.9312 870.0809 867.2745 865.5434 864.8665 864.1414 862.2077 861.2517 861.6903 863.2105 863.5728 863.9905 863.2133 862.4927 861.9904 861.5809 861.2975 860.9619 860.4672 859.7513 858.8491 857.7626 856.5776 855.2372 853.6487 852.9462 852.4815 851.9935 852.2274 851.5584 851.9227 853.6859 854.8277 855.8852 857.7464 861.4506 864.9875 866.9114 869.9639 872.2391 873.4305 874.6895 875.517 876.267 876.887 877.4534 878.3181 879.2265 879.7063 880.2673 881.8325 883.9636 885.6691 887.1492 889.1871 890.696 892.201 893.1322 893.6263 893.5186 893.4762 894.8093 898.4003 900.3135 902.0361 903.7566 905.1924 906.2217 909.2801 912.937 915.5705 917.6849 919.9583 922.3644 924.6937 926.6384 928.2339 929.5403 930.7816 931.2323 931.4991 932.3501 933.2317 933.6407 934.1158 935.6542 937.3735 939.4193 940.811 941.9371 943.8604 946.6349 949.2921 950.3687 951.844 954.2434 957.5649 959.8278 960.8145 962.4994 965.1746 967.826 968.8221 970.8356 974.6097 977.1197 979.6387 981.848 983.6732 985.1751 986.49 987.6846 988.8715 990.051 991.3294 992.8066 994.3582 995.9371 997.5356 998.9398
976.038 977.2424 977.3519 976.934 975.902 974.2703 972.2961 970.14 967.9426 965.7402 963.5313 961.3289 959.094 956.7781 954.3735 951.8198 949.1279 946.4446 943.7907 941.1274 938.4874 935.8522 933.1836 930.441 927.5529 924.4801 921.3674 918.2166 915.1454 911.7244 909.0882 906.4927 904.0714 900.8889 897.6996 894.8942 891.9631 888.6672 885.5059 883.288 881.6027 879.9765 878.3025 876.8784 875.3516 874.1531 872.9821 871.3779 869.0102 867.8891 867.457 866.779 865.9018 866.5074 868.434 868.0475 867.2969 866.6877 866.247 865.8352 865.4755 865.1317 864.7726 864.3356 863.6942 862.792 861.6614 860.2923 858.7171 857.0933 855.6257 854.3701 853.0609 851.7488 851.0777 850.7665 851.063 852.0927 853.3177 854.4745 856.1312 858.7615 861.4932 863.8054 866.2969 868.735 871.3853 872.7087 873.8691 874.826 875.7239 876.8785 878.4249 880.3432 881.3107 881.8712 883.9444 886.5632 887.6681 889.2955 891.2657 892.5656 894.0724 894.6678 894.6992 894.547 894.8632 896.6091 898.6757 900.4845 902.1343 904.1284 905.0337 904.948 906.9485 909.4578 911.8218 915.2115 918.6559 921.0723 923.3215 925.2314 926.6952 928.04 928.7603 929.1038 929.0709 929.1615 929.7123 930.3026 931.8001 933.9839 936.462 938.2946 939.7654 941.4637 943.5242 945.8152 947.6816 949.2365 950.8314 953.2263 956.3133 958.1822 958.9319 960.0617 962.5355 965.4585 966.7637 968.9272 973.6384 977.1323 979.8895 982.3657 984.4484 986.1993 987.6777 989.0118 990.3105 991.7086 993.3292 995.087 996.9588 998.7741 1000.357 1001.388
976.8682 977.1995 977.0465 976.3173 975.0168 973.1896 971.0591 968.7877 966.4996 964.2163 961.9348 959.6785 957.4202 955.1132 952.752 950.2634 947.652 945.044 942.4734 939.9059 937.3229 934.7156 932.0792 929.3969 926.58 923.5837 920.4103 917.2725 914.2601 911.4318 908.6066 905.8812 903.2863 900.5438 897.0112 894.0016 891.2723 888.2894 885.3757 882.5621 881.3008 880.748 880.0764 879.7064 878.1859 876.7652 875.5817 874.2598 873.197 872.6776 872.553 871.8497 871.6399 871.9434 871.5312 870.9679 870.5515 870.1588 869.7529 869.348 868.9576 868.5416 868.0706 867.4904 866.6737 865.5766 864.22 862.5725 860.6785 858.7057 856.9075 855.5475 853.3763 851.1407 850.9322 850.8749 851.0413 851.8333 853.0281 854.253 855.8409 857.8455 859.7443 861.8201 864.3652 867.066 869.6036 871.5902 873.3643 874.9135 876.3401 878.0933 880.1754 882.447 883.9554 885.7621 887.6255 888.7501 889.9425 891.5097 893.188 894.7972 895.7874 896.5214 896.8378 896.8414 896.9695 898.0073 899.3641 900.9456 902.6677 903.6616 904.6096 905.1785 906.3139 907.5105 909.4148 913.1479 916.6706 919.0736 921.1974 922.8198 924.4998 925.7071 926.072 926.5049 926.7756 926.958 927.7554 929.4913 931.841 934.7968 937.077 938.8803 940.3647 942.4771 944.3508 945.9041 947.6581 949.5313 951.2762 953.3808 955.3992 956.7108 958.3636 959.3369 960.2231 962.5101 965.3281 968.3635 972.17 977.1976 979.9061 982.6168 984.9336 986.9615 988.6556 990.1598 991.6534 993.2987 995.178 997.2498 999.0309 1001.027 1002.744 1004.281
977.1125 977.1836 976.6667 975.6229 974.0617 972.0366 969.7654 967.4038 965.043 962.6877 960.3375 958.019 955.7153 953.3894 951.0391 948.5801 946.024 943.4835 940.9149 938.2678 935.7414 933.293 930.7699 928.1183 925.3719 922.4554 919.3691 916.3141 913.3353 910.4472 907.6465 904.9088 902.2397 899.7618 896.6092 893.6352 891.467 889.1317 887.6736 883.278 882.4954 883.079 883.1953 882.412 881.6978 880.3094 879.1136 878.0408 877.2072 877.0569 876.8939 876.149 875.6121 875.1754 874.7593 874.3477 873.983 873.6014 873.1746 872.7272 872.2722 871.7729 871.1914 870.4791 869.5126 868.23 866.6511 864.7263 862.52 860.2354 858.2748 856.0792 852.9529 851.4102 851.7038 851.8588 851.9977 852.7397 853.9968 855.4375 857.0455 858.6791 860.1599 862.0537 864.618 867.2514 869.5868 871.929 874.6609 876.7128 878.78 881.1781 883.4675 885.1516 886.7488 888.5063 890.099 891.0444 892.5284 894.363 895.7471 897.0668 897.9041 898.6859 899.09 899.3029 899.6774 900.1249 900.892 902.6802 903.6519 904.0343 905.1525 906.4424 907.059 907.7903 909.7116 912.9659 914.7244 916.5305 918.5355 920.1149 921.6841 922.8077 923.5072 924.1992 925.1072 926.2533 928.5362 931.2435 934.4234 936.4123 938.5515 940.5066 942.6921 944.8027 946.0256 947.215 949.4208 951.3218 953.0218 954.2553 955.552 957.1728 959.645 961.0497 961.4733 962.6158 964.9044 968.7704 971.3482 976.4175 979.9713 982.7538 985.2409 987.5049 989.4208 991.157 992.8498 994.7363 996.8725 998.9449 1000.581 1002.706 1005.292 1007.868
977.1785 976.9169 976.0921 974.7906 973.0144 970.826 968.4418 966.0045 963.5771 961.1518 958.7363 956.3528 953.9913 951.6259 949.2568 946.8019 944.2893 941.8281 939.208 936.2501 933.6533 931.5098 929.3271 926.7159 924.0149 921.1572 918.1512 915.1772 912.2731 909.4536 906.7131 904.022 901.3963 898.8423 896.4316 893.5906 890.9965 888.9121 887.9657 884.5544 884.4026 885.7496 885.7127 885.1673 884.647 883.9459 882.5536 881.6587 880.9395 880.6705 880.0341 879.4898 879.0457 878.6708 878.3085 877.9372 877.5774 877.157 876.6669 876.1411 875.595 874.9901 874.2751 873.4081 872.2615 870.7607 868.9224 866.6846 864.1791 861.6675 859.323 856.3002 853.5035 852.2707 853.1187 853.7093 853.9642 854.5057 855.9496 857.8763 859.8732 861.399 862.7353 864.6997 866.7227 868.8177 871.3729 874.2286 877.3956 879.4606 881.3511 883.959 885.9571 887.6002 889.2692 890.8356 892.402 893.9036 895.5165 897.2236 898.5049 899.5394 900.3994 901.0869 901.3674 901.5992 902.449 903.0933 903.4986 905.1276 905.773 906.2031 907.1252 907.8774 908.1821 908.7841 910.5046 912.9474 913.5436 914.7532 916.7576 918.4577 919.7272 920.9471 922.1695 923.4662 925.0926 927.6293 930.5753 933.7619 936.764 938.0671 939.9957 942.2048 945.0164 946.9408 948.0657 949.5604 951.9668 953.7627 955.4673 955.8972 956.942 958.9167 961.606 963.0592 964.2851 964.0518 965.1219 969.0339 970.9261 974.8807 980.1843 982.8045 985.4015 987.8259 990.0064 991.8483 993.9155 996.1056 998.5197 1000.15 1002.654 1005.331 1008.272 1010.056
976.879 976.3044 975.2287 973.7372 971.8177 969.525 967.0721 964.5818 962.1057 959.6302 957.1705 954.7369 952.3279 949.9183 947.5014 945.0335 942.5564 940.1461 937.7933 935.1235 932.1876 929.563 927.5599 925.2099 922.5262 919.7287 916.8046 913.9244 911.1138 908.3857 905.7338 903.1318 900.6028 898.1695 895.9041 893.7662 890.7266 888.7461 887.0237 885.031 885.9334 887.8725 888.0422 887.839 887.5999 887.1098 886.3288 885.566 884.8411 884.2556 883.6671 883.1716 882.7553 882.3922 882.013 881.6024 881.1872 880.6986 880.1409 879.5398 878.8991 878.1732 877.3005 876.2389 874.8643 873.0945 870.9396 868.3752 865.6096 862.8156 859.731 857.2006 854.6399 853.3193 854.4501 855.2819 856.0158 857.0807 858.5749 860.9066 862.8008 864.5834 866.3695 868.0217 869.6371 871.6506 874.06 876.4984 879.4503 881.9615 883.7392 886.2521 888.2054 890.1265 891.9365 893.6517 895.2753 896.9201 898.533 899.9837 901.243 902.2657 903.056 903.681 903.8666 904.0425 904.7613 905.4972 906.053 907.2799 908.2361 908.9484 909.5177 909.4303 909.7476 910.3376 911.4098 912.7305 913.3126 914.4822 916.6043 918.5697 919.7319 921.088 922.598 924.6525 927.1828 930.2568 932.4141 935.3036 937.5132 939.9073 941.6578 943.8895 946.1863 948.2157 949.9421 952.2287 954.1598 955.9096 957.645 958.2493 959.0666 961.2261 963.1552 964.0574 965.7068 965.2141 965.8119 968.6125 971.0096 974.8198 980.1611 982.8527 985.4193 988.0523 990.5179 992.0685 994.6425 997.329 999.9993 1001.716 1004.528 1008.036 1010.136 1012.197
976.4083 975.5461 974.2484 972.585 970.5372 968.159 965.664 963.1458 960.6416 958.1364 955.6494 953.1803 950.7308 948.2853 945.8175 943.3218 940.8654 938.5084 936.1655 933.7596 931.3328 928.4219 925.3876 922.6594 920.2697 918.2426 915.3705 912.5564 909.7952 907.1553 904.6563 902.2306 899.9236 897.8398 895.3434 892.3976 890.0359 888.4836 886.9235 885.9724 887.8483 890.368 890.8424 890.9493 890.9617 890.6307 890.0782 889.4119 888.7427 888.1292 887.5828 887.0654 886.6072 886.1764 885.7136 885.222 884.7324 884.1763 883.5544 882.8721 882.1135 881.2333 880.1671 878.8752 877.2408 875.1674 872.6825 869.7988 866.7124 863.2499 860.4247 858.277 855.7055 854.3956 855.6965 856.7116 857.813 859.4141 861.3505 863.3653 865.1815 867.1636 869.2023 870.8983 872.7132 874.8306 877.0067 878.7291 881.2609 883.9781 886.2792 888.8372 890.9694 892.9776 894.8647 896.6312 898.2813 899.8799 901.4544 902.8904 904.0983 905.0734 905.8145 906.3668 906.6025 906.7125 907.0034 907.4872 908.3376 909.3573 910.2454 911.1968 911.8018 912.0481 912.3956 912.8796 913.6889 913.9459 914.2674 915.4405 917.5947 920.1136 921.6697 923.1384 924.7277 927.1157 930.0165 932.0775 934.1948 936.4244 938.8531 941.257 943.5781 945.6962 947.7838 949.9597 951.813 953.99 956.0051 957.8091 959.5514 960.6382 961.7189 963.3754 964.5288 965.3951 966.6221 966.204 966.8387 969.4576 971.7233 974.9843 979.5302 982.8573 985.1057 988.3197 990.8503 992.6825 994.7813 998.2118 1001.175 1002.998 1005.989 1009.658 1011.91 1014.061
975.7692 974.6858 973.2142 971.406 969.2346 966.7691 964.2298 961.6868 959.1524 956.6104 954.0784 951.6005 948.7742 946.068 944.0201 941.5229 939.0293 936.7147 934.4159 932.0807 929.6603 927.1733 924.0975 920.8173 918.0126 915.5045 912.8032 910.2831 908.1658 905.7997 903.0479 900.4814 898.0432 896.0604 893.7205 891.336 889.924 889.2601 888.4921 888.4713 891.0895 893.6196 893.9611 894.3755 894.575 894.3779 893.8979 893.3008 892.6905 892.113 891.5369 890.9635 890.4317 889.9136 889.3648 888.7988 888.2305 887.5934 886.8778 886.0757 885.1587 884.0806 882.7755 881.2161 879.2865 876.9016 874.1059 871.0489 867.6879 863.7967 861.2396 858.6367 856.3834 856.1738 857.6567 858.631 859.9516 861.1128 863.6653 865.4075 867.426 869.4838 871.4817 873.5016 875.5583 877.645 879.8597 881.5183 883.7731 886.2479 889.061 891.703 893.8196 895.8705 897.7927 899.5889 901.2563 902.8533 904.4028 905.7979 906.9675 907.8935 908.5808 909.0434 909.4327 909.3679 909.5303 910.0406 910.8557 911.5807 912.4327 913.2805 914.1674 915.1745 915.5314 916.0269 916.9432 916.4686 916.4502 917.4154 919.2706 921.8162 924.3734 925.7409 927.4303 929.2083 931.0667 933.1327 935.3574 937.7344 940.1616 942.5681 944.8766 947.0875 949.3471 951.6202 953.8592 955.9941 958.0051 959.8667 961.6232 963.1782 964.412 965.4116 966.3262 966.8895 966.8292 966.9368 968.6732 970.6008 973.1308 975.577 979.0489 982.8199 986.0201 988.704 990.6703 992.7631 995.3137 999.1554 1001.286 1004.118 1007.222 1011.063 1013.441 1015.709
974.9257 973.6534 972.0384 970.1004 967.8121 965.2689 962.6857 960.1097 957.5378 954.9519 952.3641 949.8295 946.8513 943.9976 941.7034 939.1553 937.1603 934.7518 932.4924 930.2015 927.7988 925.3811 922.7461 920.1042 916.6761 913.3865 910.9918 908.1036 905.8684 903.4749 900.8703 898.4747 896.3934 894.5766 892.7802 891.4433 891.1337 891.4157 891.5479 892.5356 895.1363 896.793 897.3434 897.9569 898.2803 898.1841 897.7776 897.2234 896.6348 896.041 895.4144 894.7755 894.1713 893.5787 892.9633 892.332 891.6708 890.9173 890.0573 889.0862 887.9631 886.6351 885.0493 883.1839 880.9388 878.2625 875.2357 871.4427 868.1334 864.4843 861.5833 858.6201 856.9894 858.3102 859.723 860.5356 861.5551 863.1217 865.5231 867.4995 869.6636 871.8868 874.024 876.0834 878.1725 880.3159 882.5577 884.3286 886.8658 889.2955 891.8061 894.3984 896.6874 898.7235 900.6603 902.4736 904.1574 905.7637 907.2999 908.663 909.7924 910.662 911.2891 911.6946 911.9658 911.9188 911.9468 912.5289 913.0196 913.7255 914.5754 915.4993 916.3884 917.2484 918.0771 918.775 919.5309 919.4777 919.5279 920.2768 921.5369 923.4052 925.4731 926.8857 928.5569 930.401 932.3459 934.3938 936.5683 938.892 941.2673 943.6671 946.0383 948.3564 950.7714 953.2172 955.5811 957.8351 959.9423 961.8731 963.6331 965.1514 966.3616 967.3754 968.0654 968.1425 968.1621 968.6567 969.7325 971.598 974.7291 976.9128 979.5577 982.9399 985.3589 987.6788 990.3401 993.7629 996.7902 999.9001 1002.847 1006.028 1009.036 1012.088 1014.661 1016.971
973.8993 972.4433 970.6961 968.6429 966.2525 963.6436 961.0204 958.4107 955.8052 953.1917 950.5553 947.9013 945.1464 942.4946 939.3481 936.7603 934.6047 932.7403 930.4532 928.227 925.8904 923.4895 921.114 918.2266 915.0179 912.6378 910.0611 907.2729 904.5127 901.7917 899.567 897.4448 895.5051 894.1669 893.3545 893.5363 894.0329 894.7711 895.6693 896.7417 898.6151 900.0519 900.8588 901.5797 901.986 901.9737 901.6268 901.0961 900.5046 899.8741 899.1912 898.4896 897.818 897.1579 896.475 895.7619 894.9754 894.0605 893.0096 891.8312 890.463 888.848 886.9578 884.774 882.2293 879.3005 876.0769 871.9326 868.3033 864.953 861.7216 858.9818 857.8309 859.7833 861.0435 861.9291 862.3799 865.3124 867.2135 869.3645 871.6851 874.0852 876.3733 878.5606 880.7542 882.9683 885.2276 887.2344 890.191 892.4932 894.2874 896.9485 899.4594 901.4604 903.405 905.2316 906.9312 908.5474 910.0694 911.3984 912.491 913.3179 913.897 914.2452 914.4073 914.5406 914.3726 914.4825 914.9177 915.586 916.4901 917.6755 918.5961 919.5281 920.3642 921.0756 921.7064 922.2981 922.9257 923.7007 924.0417 924.9419 926.5701 928.4201 930.1453 931.8557 933.6867 935.6183 937.6871 939.9546 942.2746 944.541 946.6508 949.5823 952.0855 954.707 957.231 959.6166 961.8478 963.8959 965.6857 967.2161 968.4341 969.4103 970.2108 970.454 970.6841 971.4257 972.0821 973.2584 976.8947 978.8984 980.5802 983.345 985.4396 987.52 990.2386 994.1976 997.4865 1000.461 1003.969 1007.103 1010.094 1012.917 1015.545 1017.861
972.816 971.1724 969.2804 967.0996 964.5994 961.9269 959.2658 956.6262 953.9931 951.3612 948.6893 945.9524 943.2803 940.7192 937.0787 934.631 932.6853 930.575 928.2785 926.1482 923.9005 921.593 919.2352 916.436 913.7579 911.5432 908.9521 906.5219 903.6203 900.8734 898.6843 896.8319 895.3534 894.7455 895.0742 897.1346 897.7902 898.6061 899.7538 900.7625 901.8862 903.3013 904.4066 905.1516 905.6041 905.6644 905.3726 904.8581 904.2486 903.5712 902.8344 902.0783 901.345 900.6139 899.8434 899.0093 898.048 896.9225 895.6378 894.2169 892.5823 890.6744 888.4885 886.0184 883.2164 880.0823 876.674 873.1276 868.9329 865.6599 862.3392 859.8537 858.8798 860.7998 862.1384 863.1142 863.9959 866.3973 868.7288 870.9623 873.4177 875.9698 878.4182 880.7521 883.0739 885.387 887.6793 890.145 892.6368 894.9846 897.0527 899.8785 901.9697 904.0233 905.9661 907.7985 909.5117 911.1401 912.6545 913.9603 915.0236 915.8141 916.3491 916.6448 916.7468 916.7454 916.7953 916.6194 916.9264 917.5175 918.4336 919.7612 920.753 921.7702 922.6964 923.4776 924.1382 924.7018 925.2872 925.5795 926.0131 926.9216 928.2177 929.7469 931.6755 933.5091 935.0941 936.85 938.822 940.348 942.6414 944.9273 947.5316 950.863 953.4246 956.171 958.8485 961.3507 963.6974 965.8664 967.6841 969.2604 970.531 971.5153 972.3012 972.8633 973.384 974.211 974.7829 975.1966 978.2117 980.4364 982.234 984.3588 985.8973 987.8173 990.5003 994.4539 997.7291 1000.866 1003.601 1007.641 1010.393 1013.273 1015.915 1018.297
